# .PCD v0.7 - Point Cloud Data file format
VERSION 0.7
FIELDS x y z normal_x normal_y normal_z rgb label
SIZE 4 4 4 4 4 4 4 4
TYPE F F F F F F U U
COUNT 1 1 1 1 1 1 1 1
WIDTH 690
HEIGHT 1
VIEWPOINT 0 0 0 1 0 0 0
POINTS 690
DATA ascii
-3.209413 0.3022489 0.8340511 1 1.818989E-12 1.929241E-05 14079958 Wall_1
1.25628 -0.4452748 1.686225 0 -1.192093E-07 -1 14079958 Wall_1
2.493712 -0.4161171 1.143699 -1 -1.818989E-12 -1.256245E-05 14079958 Wall_1
-3.209455 0.06659526 -1.605134 1 -9.094947E-13 -6.442268E-06 14079958 Wall_1
-3.209459 -0.08506042 -1.523317 1 -1.818989E-12 -1.727544E-05 14079958 Wall_1
-2.210274 0.07776535 1.686225 0 -1.192093E-07 -1 14079958 Wall_1
0.6294934 0.7330452 -2.016949 0 1.192093E-07 1 14079958 Wall_1
-1.219424 0.7692442 -2.016949 0 1.192093E-07 1 14079958 Wall_1
-1.854328 0.8929912 -2.016949 -1.136165E-05 1.192093E-07 1 14079958 Wall_1
-2.648169 -0.1928104 1.686225 0 -1.192093E-07 -1 14079958 Wall_1
-3.209438 0.6553868 -1.97459 1 3.637979E-12 4.212042E-05 14079958 Wall_1
1.174284 0.6551272 -2.01695 1.785977E-05 1.192093E-07 1 14079958 Wall_1
-1.578233 1.0331 -2.016949 0 1.192093E-07 1 14079958 Wall_1
-1.315338 -0.4510624 1.72566 1 0 0 14079958 Wall_1
-1.315338 1.345927 1.709449 1 0 0 14079958 Wall_1
-3.20945 -0.4856161 -1.717289 1 9.094947E-13 8.408152E-06 14079958 Wall_1
-3.20942 0.06238365 1.353863 1 7.275958E-12 4.641417E-05 14079958 Wall_1
0.595089 0.9152363 -2.016949 0 1.192093E-07 1 14079958 Wall_1
2.493724 1.280037 0.6079626 -1 -1.818989E-12 -1.730534E-05 14079958 Wall_1
-0.07854261 0.748242 1.686225 0 -1.192093E-07 -1 14079958 Wall_1
1.466589 0.860509 -2.016959 2.757466E-05 1.192093E-07 1 14079958 Wall_1
1.884899 -0.09813861 -2.016972 1.42013E-05 1.192093E-07 1 14079958 Wall_1
2.49376 1.089297 -1.563006 -1 1.818989E-12 1.322056E-05 14079958 Wall_1
-2.62773 1.63337 -2.016972 -2.220839E-05 1.192093E-07 1 14079958 Wall_1
-1.774167 1.576577 1.686225 0 -1.192093E-07 -1 14079958 Wall_1
2.493738 1.175565 -2.007304 -1 7.275958E-12 4.76475E-05 14079958 Wall_1
2.493746 0.4781923 -1.858467 -1 7.275958E-12 4.76475E-05 14079958 Wall_1
-1.624551 -0.5367444 -2.016949 -1.868685E-05 1.192093E-07 1 14079958 Wall_1
-1.110093 1.865938 -2.016949 0 1.192093E-07 1 14079958 Wall_1
-3.122418 -0.004092485 -2.016953 3.844268E-05 1.192093E-07 1 14079958 Wall_1
-2.765944 1.562858 1.686225 0 -1.192093E-07 -1 14079958 Wall_1
0.05037197 1.809568 -2.016949 0 1.192093E-07 1 14079958 Wall_1
2.493726 0.4259545 0.5503621 -1 -3.637979E-12 -3.198143E-05 14079958 Wall_1
-0.2743075 1.747972 1.686225 0 -1.192093E-07 -1 14079958 Wall_1
-3.209437 1.229608 -1.976757 1 3.637979E-12 4.22397E-05 14079958 Wall_1
2.493739 0.7056255 -2.002439 -1 7.275958E-12 4.76475E-05 14079958 Wall_1
1.883262 -0.4511608 -2.016972 2.365696E-05 1.192093E-07 1 14079958 Wall_1
-3.209435 1.15367 -0.1142986 1 0 0 14079958 Wall_1
2.493756 -0.7537588 -1.029213 -1 9.094947E-13 1.128921E-05 14079958 Wall_1
-3.150849 0.701287 1.686225 0 -1.192093E-07 -1 14079958 Wall_1
-1.443004 0.0549463 -2.016949 -4.281595E-06 1.192093E-07 1 14079958 Wall_1
-3.20942 1.553931 0.6289805 1 -4.547474E-13 -3.944637E-06 14079958 Wall_1
-0.8380996 -0.2849051 -2.016949 0 1.192093E-07 1 14079958 Wall_1
-3.209455 -0.540544 -1.6052 1 -9.094947E-13 -6.433403E-06 14079958 Wall_1
0.5067342 0.9166926 1.686225 0 -1.192093E-07 -1 14079958 Wall_1
-3.209457 0.3523035 -1.113 1 -3.637979E-12 -3.819008E-05 14079958 Wall_1
0.1469593 1.081209 1.686225 0 -1.192093E-07 -1 14079958 Wall_1
1.956018 1.447758 1.686225 0 -1.192093E-07 -1 14079958 Wall_1
-3.153831 1.630352 -2.016952 3.844268E-05 1.192093E-07 1 14079958 Wall_1
-1.711362 1.332124 1.686225 0 -1.192093E-07 -1 14079958 Wall_1
1.773862 1.211578 1.686225 0 -1.192093E-07 -1 14079958 Wall_1
-2.824679 -0.198046 -2.016964 3.844268E-05 1.192093E-07 1 14079958 Wall_1
2.493738 1.563776 -0.09760499 -1 -1.818989E-12 -1.768951E-05 14079958 Wall_1
-1.316745 -0.1070417 -2.016949 -9.908647E-07 1.192093E-07 1 14079958 Wall_1
0.05478233 1.127514 -2.016949 0 1.192093E-07 1 14079958 Wall_1
0.6888061 1.429091 1.686225 0 -1.192093E-07 -1 14079958 Wall_1
-3.209411 1.594056 1.158769 1 7.275958E-12 4.705727E-05 14079958 Wall_1
2.493738 1.261851 0.1792113 -1 -3.637979E-12 -2.645048E-05 14079958 Wall_1
2.493731 1.530921 1.545308 -1 7.275958E-12 4.634809E-05 14079958 Wall_1
2.493738 1.543617 -0.2884822 -1 -9.094947E-13 -8.355886E-06 14079958 Wall_1
2.493741 1.854883 -0.6545863 -1 -4.547474E-13 -4.60825E-06 14079958 Wall_1
2.493738 -0.3403949 0.1939093 -1 -4.547474E-13 -4.044237E-06 14079958 Wall_1
1.131852 0.1277719 -2.016949 9.928821E-06 1.192093E-07 1 14079958 Wall_1
1.562352 0.2026008 -2.016962 2.850605E-05 1.192093E-07 1 14079958 Wall_1
2.49374 1.570406 -0.6289873 -1 -9.094947E-13 -7.566538E-06 14079958 Wall_1
0.1918914 0.9145613 1.686225 0 -1.192093E-07 -1 14079958 Wall_1
-0.4667413 -0.4115469 1.787915 -1 0 0 14079958 Wall_1
2.493742 0.2224385 -0.6596035 -1 -3.637979E-12 -2.895351E-05 14079958 Wall_1
-3.209461 0.04789063 -1.219039 1 -3.637979E-12 -3.819008E-05 14079958 Wall_1
0.2811757 1.706265 1.686225 0 -1.192093E-07 -1 14079958 Wall_1
0.5602738 1.644025 -2.016949 4.216153E-06 1.192093E-07 1 14079958 Wall_1
0.5828493 1.410067 1.686225 0 -1.192093E-07 -1 14079958 Wall_1
1.182733 -0.2141581 1.686225 0 -1.192093E-07 -1 14079958 Wall_1
-2.443373 0.07078952 -2.016967 1.493379E-06 1.192093E-07 1 14079958 Wall_1
2.493738 1.7691 -0.246741 -1 -1.818989E-12 -1.358462E-05 14079958 Wall_1
2.493723 1.322946 1.368098 -1 7.275958E-12 4.704583E-05 14079958 Wall_1
2.493709 1.796047 1.000751 -1 3.637979E-12 4.149025E-05 14079958 Wall_1
-3.209405 -0.5509769 1.027707 1 3.637979E-12 4.553521E-05 14079958 Wall_1
0.04159704 0.03102791 -2.016949 0 1.192093E-07 1 14079958 Wall_1
2.493743 0.4699969 -1.917265 -1 7.275958E-12 4.76475E-05 14079958 Wall_1
-3.209434 -0.653916 0.2615204 1 -4.547474E-13 -4.256824E-06 14079958 Wall_1
-0.1130512 1.05172 1.686225 0 -1.192093E-07 -1 14079958 Wall_1
2.493722 0.4721249 1.349046 -1 3.637979E-12 4.330535E-05 14079958 Wall_1
-2.782459 0.05063437 -2.016966 3.732556E-05 1.192093E-07 1 14079958 Wall_1
1.466062 -0.3180096 1.686225 0 -1.192093E-07 -1 14079958 Wall_1
-2.047605 0.5481536 -2.016955 -2.335323E-05 1.192093E-07 1 14079958 Wall_1
-1.606098 1.714475 1.686225 0 -1.192093E-07 -1 14079958 Wall_1
-3.209457 -0.5525907 -1.124279 1 2.657544E-08 -3.150447E-05 14079958 Wall_1
-3.209405 -0.5605964 1.033312 1 7.275958E-12 4.630004E-05 14079958 Wall_1
2.493753 0.662605 -1.700717 -1 3.637979E-12 4.552744E-05 14079958 Wall_1
-0.332599 0.1512287 -2.016949 0 1.192093E-07 1 14079958 Wall_1
2.493717 1.225704 0.7691306 -1 -2.273737E-13 -1.839399E-06 14079958 Wall_1
-1.529232 0.8587941 -2.016949 0 1.192093E-07 1 14079958 Wall_1
2.493738 -0.7133843 0.2220803 -1 -1.110223E-16 -7.77114E-10 14079958 Wall_1
2.493738 0.9579138 -0.03464103 -1 -1.818989E-12 -1.193663E-05 14079958 Wall_1
2.379913 0.8161486 1.686225 0 -1.192093E-07 -1 14079958 Wall_1
2.493722 0.5483782 1.340119 -1 3.637979E-12 4.461499E-05 14079958 Wall_1
2.493738 0.5906696 -0.2868465 -1 -4.547474E-13 -5.434173E-06 14079958 Wall_1
-3.039206 -0.6900662 1.686225 0 -1.192093E-07 -1 14079958 Wall_1
-2.066334 0.8883497 1.686225 0 -1.192093E-07 -1 14079958 Wall_1
-3.274149 0.6945722 -0.9568473 0 1.192093E-07 1 14079958 Wall_1
-1.588658 1.197283 1.686225 0 -1.192093E-07 -1 14079958 Wall_1
2.493762 1.16519 -1.505569 -1 4.547474E-13 3.103225E-06 14079958 Wall_1
2.493712 0.5645652 0.9044217 -1 -9.094947E-13 -8.889082E-06 14079958 Wall_1
1.74489 0.9222912 1.686225 0 -1.192093E-07 -1 14079958 Wall_1
-0.7155648 -0.4317651 -2.016949 0 1.192093E-07 1 14079958 Wall_1
0.3759662 0.5814226 -2.016949 0 1.192093E-07 1 14079958 Wall_1
0.7427444 -0.5093254 1.686225 0 -1.192093E-07 -1 14079958 Wall_1
0.7369797 0.02740324 1.686225 0 -1.192093E-07 -1 14079958 Wall_1
-0.5700411 1.633577 -2.016949 0 1.192093E-07 1 14079958 Wall_1
2.493738 0.07482553 -0.07840598 -1 -4.547474E-13 -2.938647E-06 14079958 Wall_1
2.493753 1.47614 -0.9562967 -1 -3.637979E-12 -2.483621E-05 14079958 Wall_1
2.493743 -0.4567877 -0.7045518 -1 -3.637979E-12 -3.356501E-05 14079958 Wall_1
-0.1301607 1.297888 -2.016949 0 1.192093E-07 1 14079958 Wall_1
-2.908728 1.05943 1.686225 0 -1.192093E-07 -1 14079958 Wall_1
-0.3390054 0.3598831 1.686225 0 -1.192093E-07 -1 14079958 Wall_1
0.2881257 1.1965 -2.016949 0 1.192093E-07 1 14079958 Wall_1
1.279237 1.206018 -2.016954 2.863726E-05 1.192093E-07 1 14079958 Wall_1
2.134344 -0.40984 -2.016963 -6.144208E-06 1.192093E-07 1 14079958 Wall_1
2.493759 -0.1200004 -1.567446 -1 7.275958E-12 4.76475E-05 14079958 Wall_1
2.493761 1.126475 -1.169958 -1 -3.637979E-12 -3.53444E-05 14079958 Wall_1
2.493752 0.6224271 -1.730698 -1 7.275958E-12 4.76475E-05 14079958 Wall_1
-0.2311606 0.5393612 1.686225 0 -1.192093E-07 -1 14079958 Wall_1
-3.209421 1.028605 0.6158518 1 -9.094947E-13 -1.052354E-05 14079958 Wall_1
0.8692478 -0.2320046 -2.016949 0 1.192093E-07 1 14079958 Wall_1
-0.2786775 0.6731544 1.686225 0 -1.192093E-07 -1 14079958 Wall_1
0.3433085 0.8865438 -2.016949 0 1.192093E-07 1 14079958 Wall_1
-3.209435 -0.5168725 0.2529471 1 -9.094947E-13 -1.084444E-05 14079958 Wall_1
-1.880251 0.1879688 1.686225 0 -1.192093E-07 -1 14079958 Wall_1
2.493767 -0.3636811 -1.415401 -1 3.637979E-12 4.142619E-05 14079958 Wall_1
0.4581429 1.714086 1.686225 0 -1.192093E-07 -1 14079958 Wall_1
-3.209439 1.387696 -1.944395 1 3.637979E-12 3.794668E-05 14079958 Wall_1
2.493745 1.308416 -1.860699 -1 3.637979E-12 4.551309E-05 14079958 Wall_1
-1.419877 1.155799 -2.016949 0 1.192093E-07 1 14079958 Wall_1
2.493738 -0.6732987 -0.4888244 -1 -3.637979E-12 -3.389384E-05 14079958 Wall_1
2.343168 1.66243 -2.016955 -3.844269E-05 1.192093E-07 1 14079958 Wall_1
-3.209418 -0.02314135 0.7031034 1 1.136868E-13 1.233351E-06 14079958 Wall_1
1.883171 -0.1185322 1.686225 0 -1.192093E-07 -1 14079958 Wall_1
1.94104 1.844734 1.686225 0 -1.192093E-07 -1 14079958 Wall_1
2.493738 -0.3871049 0.1414457 -1 -1.136868E-13 -8.852277E-07 14079958 Wall_1
0.5361904 0.2753999 -2.016949 0 1.192093E-07 1 14079958 Wall_1
1.380507 0.9158127 -2.016957 2.939641E-05 1.192093E-07 1 14079958 Wall_1
0.004423767 1.628765 1.686225 0 -1.192093E-07 -1 14079958 Wall_1
1.789385 -0.02377808 1.686225 0 -1.192093E-07 -1 14079958 Wall_1
1.495543 1.716498 1.686225 0 -1.192093E-07 -1 14079958 Wall_1
0.3468252 1.790414 1.686225 0 -1.192093E-07 -1 14079958 Wall_1
-1.427454 0.3875291 1.686225 0 -1.192093E-07 -1 14079958 Wall_1
-0.6953263 -0.176316 -2.016949 0 1.192093E-07 1 14079958 Wall_1
2.493769 0.989341 -1.362087 -1 -9.094947E-13 -1.007026E-05 14079958 Wall_1
-3.20946 1.212376 -1.21176 1 -3.637979E-12 -3.819008E-05 14079958 Wall_1
-2.281751 1.120962 1.686225 0 -1.192093E-07 -1 14079958 Wall_1
2.493765 1.00409 -1.440085 -1 -2.842171E-14 -2.867128E-07 14079958 Wall_1
2.493713 -0.510491 1.155737 -1 -1.818989E-12 -1.405332E-05 14079958 Wall_1
-3.209445 1.740377 -1.803039 1 1.818989E-12 1.92926E-05 14079958 Wall_1
1.679515 1.315522 1.686225 0 -1.192093E-07 -1 14079958 Wall_1
-3.209415 -0.5657579 0.7620478 1 1.818989E-12 1.969422E-05 14079958 Wall_1
1.793734 -0.04976373 -2.016969 2.134739E-05 1.192093E-07 1 14079958 Wall_1
0.5920037 -0.7010591 -2.016949 0 1.192093E-07 1 14079958 Wall_1
1.516058 1.565744 1.686225 0 -1.192093E-07 -1 14079958 Wall_1
-2.222609 -0.4256358 1.686225 0 -1.192093E-07 -1 14079958 Wall_1
-3.20941 -0.05309722 0.9101259 1 3.637979E-12 2.959446E-05 14079958 Wall_1
2.143164 0.08139861 -2.016963 -2.010723E-05 1.192093E-07 1 14079958 Wall_1
0.7126353 0.8658036 -2.016949 1.351019E-06 1.192093E-07 1 14079958 Wall_1
2.493713 0.9444119 1.16223 -1 3.637979E-12 3.414899E-05 14079958 Wall_1
1.951583 1.096843 1.686225 0 -1.192093E-07 -1 14079958 Wall_1
-3.209427 1.28309 1.505228 1 7.275958E-12 4.646268E-05 14079958 Wall_1
-0.697691 0.5427558 -2.016949 0 1.192093E-07 1 14079958 Wall_1
2.493742 0.5100378 -0.6608346 -1 -3.637979E-12 -2.476704E-05 14079958 Wall_1
0.8098148 -0.6736488 -2.016949 0 1.192093E-07 1 14079958 Wall_1
-3.209425 1.738483 0.5029922 1 -1.818989E-12 -1.262287E-05 14079958 Wall_1
0.2283018 0.945711 1.686225 0 -1.192093E-07 -1 14079958 Wall_1
-2.772395 0.6594201 -2.016966 2.012113E-05 1.192093E-07 1 14079958 Wall_1
-1.352253 1.821705 -2.016949 0 1.192093E-07 1 14079958 Wall_1
-0.7378079 1.655168 -2.016949 0 1.192093E-07 1 14079958 Wall_1
-0.3504955 -0.5691593 1.686225 0 -1.192093E-07 -1 14079958 Wall_1
0.2994737 -0.6755427 1.686225 0 -1.192093E-07 -1 14079958 Wall_1
-3.209408 -0.01807895 1.107352 1 7.275958E-12 4.656844E-05 14079958 Wall_1
1.245242 0.9739529 -2.016953 2.451726E-05 1.192093E-07 1 14079958 Wall_1
-3.060477 0.6639915 1.686225 0 -1.192093E-07 -1 14079958 Wall_1
2.112471 0.4368322 -2.016964 -2.59407E-05 1.192093E-07 1 14079958 Wall_1
0.3707373 -0.09158397 -2.016949 0 1.192093E-07 1 14079958 Wall_1
-0.4712007 -0.4037992 -2.016949 0 1.192093E-07 1 14079958 Wall_1
2.493714 1.84345 1.174379 -1 7.275958E-12 4.724315E-05 14079958 Wall_1
-3.209435 -0.6163701 -0.07319923 1 0 0 14079958 Wall_1
0.02930042 1.490106 -2.016949 0 1.192093E-07 1 14079958 Wall_1
2.493755 1.207681 -1.66042 -1 1.818989E-12 2.225224E-05 14079958 Wall_1
1.663732 -0.7129115 1.686225 0 -1.192093E-07 -1 14079958 Wall_1
1.239869 0.008045971 -2.016952 1.296527E-05 1.192093E-07 1 14079958 Wall_1
2.493742 1.394977 -0.6657486 -1 -1.818989E-12 -1.193993E-05 14079958 Wall_1
0.5219495 0.645339 -2.016949 0 1.192093E-07 1 14079958 Wall_1
2.493746 1.411113 -1.843099 -1 3.637979E-12 3.980001E-05 14079958 Wall_1
1.876455 1.341483 1.686225 0 -1.192093E-07 -1 14079958 Wall_1
-0.06982642 0.1282052 -2.016949 0 1.192093E-07 1 14079958 Wall_1
-1.481496 0.4895374 -2.016949 -7.659674E-07 1.192093E-07 1 14079958 Wall_1
2.493708 1.717435 1.047776 -1 3.637979E-12 4.428037E-05 14079958 Wall_1
-1.665457 -0.7522359 -2.016949 -2.289658E-05 1.192093E-07 1 14079958 Wall_1
2.484262 1.278449 -2.01695 -3.844268E-05 1.192093E-07 1 14079958 Wall_1
1.661554 0.1518974 -2.016965 2.824192E-05 1.192093E-07 1 14079958 Wall_1
0.06059252 0.754836 -2.016949 0 1.192093E-07 1 14079958 Wall_1
2.493752 0.3621306 -0.9315882 -1 -3.637979E-12 -3.59646E-05 14079958 Wall_1
-2.509499 1.833797 -2.016969 -2.726149E-05 1.192093E-07 1 14079958 Wall_1
-3.209441 0.9909241 -1.890032 1 3.637979E-12 3.092591E-05 14079958 Wall_1
-3.209435 1.106839 -0.4372204 1 0 0 14079958 Wall_1
0.4992483 0.07813391 -2.016949 0 1.192093E-07 1 14079958 Wall_1
2.493738 1.44547 -0.08025631 -1 -1.818989E-12 -1.680557E-05 14079958 Wall_1
-3.096308 1.834548 1.686225 0 -1.192093E-07 -1 14079958 Wall_1
2.493743 -0.2398036 -1.900227 -1 7.275958E-12 4.76475E-05 14079958 Wall_1
2.493745 1.272648 -0.7538843 -1 -1.818989E-12 -1.802152E-05 14079958 Wall_1
2.493738 0.8050108 -0.1297044 -1 -4.547474E-13 -5.228247E-06 14079958 Wall_1
1.356467 1.41015 1.686225 0 -1.192093E-07 -1 14079958 Wall_1
-0.09488231 0.4264209 -2.016949 0 1.192093E-07 1 14079958 Wall_1
-1.259891 1.308715 -2.016949 0 1.192093E-07 1 14079958 Wall_1
2.028692 0.3721699 -2.016967 -1.458845E-05 1.192093E-07 1 14079958 Wall_1
2.381581 -0.01380995 1.686225 0 -1.192093E-07 -1 14079958 Wall_1
-0.4667413 0.4288476 1.831362 -1 0 0 14079958 Wall_1
-3.209435 1.752884 -0.2921536 1 -9.094947E-13 -8.151731E-06 14079958 Wall_1
-3.209435 -0.5926098 -0.3652211 1 0 0 14079958 Wall_1
-0.1186161 -0.3551177 -2.016949 0 1.192093E-07 1 14079958 Wall_1
-0.3068047 0.1760893 -2.016949 0 1.192093E-07 1 14079958 Wall_1
0.498288 0.7553487 1.686225 0 -1.192093E-07 -1 14079958 Wall_1
-0.5447637 -0.7262586 -2.016949 0 1.192093E-07 1 14079958 Wall_1
0.4525077 1.519076 1.686225 0 -1.192093E-07 -1 14079958 Wall_1
-1.808275 1.113967 -2.016949 -6.87596E-06 1.192093E-07 1 14079958 Wall_1
2.493752 -0.7541251 -1.713137 -1 7.275958E-12 4.76475E-05 14079958 Wall_1
-2.164383 -0.09107995 -2.016958 -2.00111E-05 1.192093E-07 1 14079958 Wall_1
-3.328922 0.5329646 -0.9568473 0 1.192093E-07 1 14079958 Wall_1
-3.209409 -0.05346301 0.9154473 1 3.637979E-12 3.032362E-05 14079958 Wall_1
1.836799 1.388609 1.686225 0 -1.192093E-07 -1 14079958 Wall_1
2.493743 -0.4526991 -0.6945162 -1 -3.637979E-12 -3.478404E-05 14079958 Wall_1
-0.2004379 1.363221 1.686225 0 -1.192093E-07 -1 14079958 Wall_1
2.493738 0.002543926 -0.4997377 -1 -3.637979E-12 -2.444493E-05 14079958 Wall_1
-2.66023 1.15562 1.686225 0 -1.192093E-07 -1 14079958 Wall_1
-0.8594435 1.449228 -2.016949 0 1.192093E-07 1 14079958 Wall_1
-3.209406 0.6831786 1.008619 1 3.637979E-12 4.334878E-05 14079958 Wall_1
0.3555913 1.011622 1.686225 0 -1.192093E-07 -1 14079958 Wall_1
-3.209434 1.209145 1.652837 1 7.275958E-12 4.641417E-05 14079958 Wall_1
-1.284861 1.578145 -2.016949 0 1.192093E-07 1 14079958 Wall_1
0.6518576 -0.5898531 -2.016949 0 1.192093E-07 1 14079958 Wall_1
0.2500966 1.142111 1.686225 0 -1.192093E-07 -1 14079958 Wall_1
0.1971618 0.1158301 -2.016949 0 1.192093E-07 1 14079958 Wall_1
-3.12521 0.08897126 1.686225 0 -1.192093E-07 -1 14079958 Wall_1
-1.959554 0.1569593 1.686225 0 -1.192093E-07 -1 14079958 Wall_1
2.241278 1.15565 -2.016959 -3.844271E-05 1.192093E-07 1 14079958 Wall_1
2.493768 0.1667866 -1.388403 -1 1.818989E-12 2.0396E-05 14079958 Wall_1
2.493711 1.824782 0.9370961 -1 3.637979E-12 3.561868E-05 14079958 Wall_1
0.5926442 1.770207 1.686225 0 -1.192093E-07 -1 14079958 Wall_1
-3.209414 -0.4039924 0.8059748 1 1.818989E-12 1.521801E-05 14079958 Wall_1
-3.209406 -0.3281596 1.007332 1 3.637979E-12 4.282045E-05 14079958 Wall_1
-0.579464 1.554058 -2.016949 0 1.192093E-07 1 14079958 Wall_1
-2.04757 1.260476 1.686225 0 -1.192093E-07 -1 14079958 Wall_1
-3.314886 0.0793191 -0.7459832 0 1 -1.192093E-07 14079958 Wall_1
-3.083575 1.445014 1.686225 0 -1.192093E-07 -1 14079958 Wall_1
-1.211642 0.9511079 -2.016949 0 1.192093E-07 1 14079958 Wall_1
1.572168 0.7130092 1.686225 0 -1.192093E-07 -1 14079958 Wall_1
-3.181918 1.450617 1.686225 0 -1.192093E-07 -1 14079958 Wall_1
-3.209441 1.403405 -0.7111109 1 -1.818989E-12 -1.43354E-05 14079958 Wall_1
-3.209421 1.526756 1.380362 1 7.275958E-12 4.672277E-05 14079958 Wall_1
-3.20942 1.782725 1.362093 1 7.275958E-12 4.683749E-05 14079958 Wall_1
2.493724 -0.4048241 0.6035333 -1 -1.818989E-12 -2.252159E-05 14079958 Wall_1
2.493736 0.8249784 0.2959225 -1 -3.637979E-12 -2.568057E-05 14079958 Wall_1
-3.209459 1.820257 -1.516677 1 -1.818989E-12 -1.831496E-05 14079958 Wall_1
0.2050573 -0.3680452 1.686225 0 -1.192093E-07 -1 14079958 Wall_1
-3.209462 0.5372651 -1.251021 1 -3.637979E-12 -3.819008E-05 14079958 Wall_1
2.493755 0.6075777 -0.9975065 -1 -3.637979E-12 -3.691391E-05 14079958 Wall_1
2.493759 -0.07717675 -1.115887 -1 -2.273737E-13 -1.59772E-06 14079958 Wall_1
0.4348941 -0.6871933 1.686225 0 -1.192093E-07 -1 14079958 Wall_1
2.493764 0.4841251 -1.477636 -1 1.818989E-12 2.179827E-05 14079958 Wall_1
-1.315338 -0.5305778 1.773906 1 0 0 14079958 Wall_1
-1.315338 1.05085 1.691481 1 0 0 14079958 Wall_1
2.493738 -0.163858 -0.5776762 -1 -3.637979E-12 -3.068258E-05 14079958 Wall_1
-2.38099 -0.04916859 1.686225 0 -1.192093E-07 -1 14079958 Wall_1
-0.6543943 0.888306 -2.016949 0 1.192093E-07 1 14079958 Wall_1
-3.209412 0.8422236 0.838288 1 1.818989E-12 2.006097E-05 14079958 Wall_1
-2.186271 -0.137903 1.686225 0 -1.192093E-07 -1 14079958 Wall_1
-3.209435 -0.609008 -0.09017454 1 0 0 14079958 Wall_1
-1.948818 0.8040808 1.686225 0 -1.192093E-07 -1 14079958 Wall_1
2.49374 0.3532186 -1.966102 -1 7.275958E-12 4.76475E-05 14079958 Wall_1
1.827375 -0.2829763 -2.01697 2.438654E-05 1.192093E-07 1 14079958 Wall_1
2.493749 1.67652 -1.784069 -1 3.637979E-12 2.323782E-05 14079958 Wall_1
-3.209453 0.8584005 -1.024957 1 -3.637979E-12 -3.819008E-05 14079958 Wall_1
-1.315338 0.2637895 1.742772 1 0 0 14079958 Wall_1
2.493743 -0.1565349 -0.6861135 -1 -3.637979E-12 -3.583479E-05 14079958 Wall_1
-1.185823 1.093727 -2.016949 0 1.192093E-07 1 14079958 Wall_1
0.03828475 1.664082 -2.016949 0 1.192093E-07 1 14079958 Wall_1
-0.2147762 0.8824888 1.686225 0 -1.192093E-07 -1 14079958 Wall_1
0.5559008 -0.140924 1.686225 0 -1.192093E-07 -1 14079958 Wall_1
1.903658 0.09834577 -2.016972 7.02756E-06 1.192093E-07 1 14079958 Wall_1
-3.209433 0.2847034 1.636052 1 7.275958E-12 4.641417E-05 14079958 Wall_1
2.493736 -0.6462318 1.647919 -1 7.275958E-12 4.614727E-05 14079958 Wall_1
2.396077 1.235355 1.686225 0 -1.192093E-07 -1 14079958 Wall_1
2.493745 -0.3682369 -1.8746 -1 7.275958E-12 4.76475E-05 14079958 Wall_1
2.493763 1.648667 -1.203302 -1 -3.637979E-12 -3.42713E-05 14079958 Wall_1
-3.015884 0.3656634 1.686225 0 -1.192093E-07 -1 14079958 Wall_1
2.493715 1.180825 0.8306974 -1 4.547474E-13 3.283542E-06 14079958 Wall_1
-3.209461 0.5585631 -1.484702 1 -1.818989E-12 -2.238846E-05 14079958 Wall_1
2.493712 -0.5577825 1.135629 -1 -1.818989E-12 -1.823246E-05 14079958 Wall_1
2.493738 1.252216 -0.4820807 -1 -4.547474E-13 -5.137852E-06 14079958 Wall_1
-0.1956574 0.01168525 -2.016949 0 1.192093E-07 1 14079958 Wall_1
-3.209408 -0.6992137 0.9443488 1 3.637979E-12 3.797282E-05 14079958 Wall_1
-3.209432 1.81453 0.3214922 1 -3.637979E-12 -2.996949E-05 14079958 Wall_1
-2.223548 -0.4370964 -2.01696 -5.426089E-06 1.192093E-07 1 14079958 Wall_1
2.493738 1.423142 -0.1325553 -1 -1.818989E-12 -1.400593E-05 14079958 Wall_1
-1.385333 0.5388186 1.686225 0 -1.192093E-07 -1 14079958 Wall_1
-0.4667413 0.3446523 1.745686 -1 0 0 14079958 Wall_1
1.311153 1.773601 1.686225 0 -1.192093E-07 -1 14079958 Wall_1
2.493763 0.8619502 -1.479118 -1 9.094947E-13 9.567532E-06 14079958 Wall_1
-0.3447903 -0.0240283 1.686225 0 -1.192093E-07 -1 14079958 Wall_1
1.097399 0.8339616 -2.016949 1.679663E-05 1.192093E-07 1 14079958 Wall_1
0.0386828 1.099462 -2.016949 0 1.192093E-07 1 14079958 Wall_1
-3.209445 -0.1633039 -1.804105 1 1.818989E-12 1.990329E-05 14079958 Wall_1
0.6564241 0.4087034 1.686225 0 -1.192093E-07 -1 14079958 Wall_1
2.493726 0.5691937 0.5509499 -1 -3.637979E-12 -3.407463E-05 14079958 Wall_1
1.507899 1.647522 -2.016961 3.015832E-06 1.192093E-07 1 14079958 Wall_1
-3.163316 -0.1676946 -2.016951 3.844268E-05 1.192093E-07 1 14079958 Wall_1
0.2713445 0.8664043 -2.016949 0 1.192093E-07 1 14079958 Wall_1
-1.191463 -0.7221613 -2.016949 -3.056037E-06 1.192093E-07 1 14079958 Wall_1
-2.3145 0.5939289 -2.016963 -2.419901E-05 1.192093E-07 1 14079958 Wall_1
1.286778 1.601933 1.686225 0 -1.192093E-07 -1 14079958 Wall_1
-2.576245 -0.2373292 1.686225 0 -1.192093E-07 -1 14079958 Wall_1
-3.209453 0.3782819 -1.022036 1 3.019886E-08 -3.830088E-05 14079958 Wall_1
-1.089941 -0.7199237 -2.016949 0 1.192093E-07 1 14079958 Wall_1
2.493719 1.314712 0.7274529 -1 -4.547474E-13 -3.399368E-06 14079958 Wall_1
1.19292 -0.6001671 -2.01695 3.90009E-06 1.192093E-07 1 14079958 Wall_1
2.493714 -0.1102901 1.183992 -1 2.273737E-13 2.680743E-06 14079958 Wall_1
2.493759 0.2859063 -1.58478 -1 3.637979E-12 4.253452E-05 14079958 Wall_1
-3.209424 -0.0303266 1.432451 1 7.275958E-12 4.641417E-05 14079958 Wall_1
-0.01226738 -0.5958396 1.686225 0 -1.192093E-07 -1 14079958 Wall_1
-1.550085 1.1134 1.686225 0 -1.192093E-07 -1 14079958 Wall_1
1.403316 1.094031 1.686225 0 -1.192093E-07 -1 14079958 Wall_1
-3.209465 -0.6071894 -1.389502 1 -3.637979E-12 -3.499378E-05 14079958 Wall_1
1.637028 0.3306441 1.686225 0 -1.192093E-07 -1 14079958 Wall_1
-3.248437 0.07931911 -0.9243573 0 1 -1.192093E-07 14079958 Wall_1
-3.209452 1.347601 -0.9937655 1 -3.637979E-12 -3.390693E-05 14079958 Wall_1
-3.209407 1.513133 1.080479 1 7.275958E-12 4.713902E-05 14079958 Wall_1
-3.209411 1.492344 0.8725454 1 3.637979E-12 2.496185E-05 14079958 Wall_1
1.058243 0.641542 -2.016949 1.292951E-05 1.192093E-07 1 14079958 Wall_1
-1.485886 0.2195476 -2.016949 -4.113721E-06 1.192093E-07 1 14079958 Wall_1
0.2480516 0.8207046 -2.016949 0 1.192093E-07 1 14079958 Wall_1
-3.209429 -0.4204223 0.4099736 1 -9.094947E-13 -9.119666E-06 14079958 Wall_1
-2.015201 0.6964505 -2.016954 -2.028133E-05 1.192093E-07 1 14079958 Wall_1
-3.209461 -0.06469533 -1.474712 1 -3.637979E-12 -2.371125E-05 14079958 Wall_1
-3.209435 -0.4880112 0.04766617 1 -4.547474E-13 -3.303851E-06 14079958 Wall_1
-2.01196 0.5418618 1.686225 0 -1.192093E-07 -1 14079958 Wall_1
-3.209449 -0.246079 -0.9173949 1 6.688606E-08 -2.89434E-05 14079958 Wall_1
0.6626005 0.55925 1.686225 0 -1.192093E-07 -1 14079958 Wall_1
0.05653283 0.0117079 1.686225 0 -1.192093E-07 -1 14079958 Wall_1
1.281685 -0.687741 -2.016953 6.52223E-06 1.192093E-07 1 14079958 Wall_1
-3.209453 0.2747018 -1.023064 1 4.448157E-08 -3.835328E-05 14079958 Wall_1
1.011304 -0.4875314 1.686225 0 -1.192093E-07 -1 14079958 Wall_1
2.244554 0.3318385 1.686225 0 -1.192093E-07 -1 14079958 Wall_1
-0.1867313 0.8604465 -2.016949 0 1.192093E-07 1 14079958 Wall_1
1.932626 0.1762415 -2.016971 1.6386E-06 1.192093E-07 1 14079958 Wall_1
2.493723 0.4206108 0.6230615 -1 -3.637979E-12 -3.534859E-05 14079958 Wall_1
-3.209458 1.174233 -1.133097 1 -3.637979E-12 -3.819008E-05 14079958 Wall_1
0.9209061 1.861162 -2.016949 2.159041E-05 1.192093E-07 1 14079958 Wall_1
-1.122823 1.81336 1.686225 0 3.576279E-07 -1 14079958 Wall_1
1.18679 0.2752298 -2.016951 1.391736E-05 1.192093E-07 1 14079958 Wall_1
0.5578874 -0.2907521 1.686225 0 -1.192093E-07 -1 14079958 Wall_1
-1.443669 0.8658369 -2.016949 0 1.192093E-07 1 14079958 Wall_1
0.8400822 1.256323 -2.016949 1.117205E-05 1.192093E-07 1 14079958 Wall_1
-1.079772 -0.5158063 -2.016949 0 1.192093E-07 1 14079958 Wall_1
-1.315338 -0.1554582 1.777491 1 0 0 14079958 Wall_1
-3.209435 -0.1449859 0.228954 1 -3.637979E-12 -2.779653E-05 14079958 Wall_1
-3.209464 1.225877 -1.290908 1 -3.637979E-12 -3.819008E-05 14079958 Wall_1
-3.209435 -0.332717 -0.1344108 1 -2.273737E-13 -1.714424E-06 14079958 Wall_1
2.259209 0.8001238 1.686225 0 -1.192093E-07 -1 14079958 Wall_1
2.493733 0.1251204 0.3595836 -1 -1.818989E-12 -1.860542E-05 14079958 Wall_1
1.388127 0.3604541 -2.016957 2.319482E-05 1.192093E-07 1 14079958 Wall_1
-2.774787 1.587567 1.686225 0 -1.192093E-07 -1 14079958 Wall_1
-2.013258 0.7691749 -2.016954 -1.934835E-05 1.192093E-07 1 14079958 Wall_1
2.493723 0.7191551 0.6295363 -1 -3.637979E-12 -3.32523E-05 14079958 Wall_1
-3.209435 1.318977 -0.2516092 1 0 0 14079958 Wall_1
1.890661 1.025668 -2.016972 -1.595067E-05 1.192093E-07 1 14079958 Wall_1
2.246092 1.310739 1.686225 0 -1.192093E-07 -1 14079958 Wall_1
-2.109244 -0.2530905 1.686225 0 -1.192093E-07 -1 14079958 Wall_1
2.49375 1.659775 -1.764942 -1 1.818989E-12 2.125073E-05 14079958 Wall_1
2.493749 1.515621 -1.782165 -1 3.637979E-12 2.827738E-05 14079958 Wall_1
2.035309 1.116902 -2.016967 -3.497892E-05 1.192093E-07 1 14079958 Wall_1
2.493762 0.3569104 -1.195141 -1 -9.094947E-13 -7.310541E-06 14079958 Wall_1
2.493738 0.8706595 -0.2933575 -1 -2.273737E-13 -1.616175E-06 14079958 Wall_1
-0.09261394 0.03739846 1.686225 0 -1.192093E-07 -1 14079958 Wall_1
-1.866488 1.308657 -2.01695 -6.985401E-06 1.192093E-07 1 14079958 Wall_1
-0.9398323 -0.4213736 -2.016949 0 1.192093E-07 1 14079958 Wall_1
-3.209454 1.565343 -1.624539 1 -4.547474E-13 -4.084912E-06 14079958 Wall_1
2.493747 -0.6810741 -1.816963 -1 7.275958E-12 4.76475E-05 14079958 Wall_1
-3.209435 -0.5305417 -0.2601015 1 0 0 14079958 Wall_1
1.43747 1.043342 -2.016958 2.544554E-05 1.192093E-07 1 14079958 Wall_1
-1.737171 -0.5761614 -2.016949 -2.377951E-05 1.192093E-07 1 14079958 Wall_1
0.338153 0.8737038 1.686225 0 -1.192093E-07 -1 14079958 Wall_1
-3.209408 -0.4011316 1.092309 1 7.275958E-12 4.645625E-05 14079958 Wall_1
2.493738 1.281591 -0.05240679 -1 -1.818989E-12 -1.576202E-05 14079958 Wall_1
-3.209411 0.7431872 1.173457 1 7.275958E-12 4.674055E-05 14079958 Wall_1
-0.3874124 -0.01394415 -2.016949 0 1.192093E-07 1 14079958 Wall_1
2.493729 -0.672017 0.4721857 -1 -1.818989E-12 -1.244624E-05 14079958 Wall_1
-1.331325 0.6112269 1.686225 0 -1.192093E-07 -1 14079958 Wall_1
2.493726 -0.2159639 0.5339607 -1 -1.818989E-12 -2.194866E-05 14079958 Wall_1
1.05384 -0.2800821 -2.016949 1.936887E-06 1.192093E-07 1 14079958 Wall_1
2.493766 1.710274 -1.300052 -1 -3.637979E-12 -3.80551E-05 14079958 Wall_1
-3.265303 0.2644778 -0.9568473 0 1.192093E-07 1 14079958 Wall_1
-3.20941 1.065072 1.134951 1 7.275958E-12 4.690662E-05 14079958 Wall_1
2.493738 0.004974484 -0.3285908 -1 -1.818989E-12 -1.610659E-05 14079958 Wall_1
1.730208 0.165861 -2.016967 2.153222E-05 1.192093E-07 1 14079958 Wall_1
0.6411207 0.3645673 1.686225 0 -1.192093E-07 -1 14079958 Wall_1
2.493729 0.883703 0.4762745 -1 -3.637979E-12 -3.507167E-05 14079958 Wall_1
2.243944 1.848291 1.686225 0 -1.192093E-07 -1 14079958 Wall_1
2.493739 1.158323 -1.999076 -1 7.275958E-12 4.76475E-05 14079958 Wall_1
1.390219 -0.3083056 -2.016957 1.54356E-05 1.192093E-07 1 14079958 Wall_1
-0.183543 0.4921565 1.686225 0 -1.192093E-07 -1 14079958 Wall_1
1.961342 0.02658892 1.686225 0 -1.192093E-07 -1 14079958 Wall_1
2.362023 0.8799537 -2.016954 -3.84427E-05 1.192093E-07 1 14079958 Wall_1
0.3022375 -0.4478526 1.686225 0 -1.192093E-07 -1 14079958 Wall_1
-3.209413 -0.1954422 0.8314098 1 1.818989E-12 1.875722E-05 14079958 Wall_1
-3.209434 1.566098 0.2838693 1 -3.637979E-12 -3.794815E-05 14079958 Wall_1
-0.4667413 1.260655 1.704782 -1 0 0 14079958 Wall_1
-3.209408 0.9277002 1.095896 1 7.275958E-12 4.691365E-05 14079958 Wall_1
-3.295359 1.098847 -0.4368324 0 -1 1.192093E-07 14079958 Wall_1
-0.9739401 -0.01832744 -2.016949 0 1.192093E-07 1 14079958 Wall_1
2.493768 -0.5140103 -1.347952 -1 3.637979E-12 3.784979E-05 14079958 Wall_1
-1.562196 -0.3283867 1.686225 0 -1.192093E-07 -1 14079958 Wall_1
2.493713 1.702343 0.8960388 -1 3.637979E-12 2.724351E-05 14079958 Wall_1
2.493715 0.9193268 1.186551 -1 3.637979E-12 3.652565E-05 14079958 Wall_1
-3.209415 0.3232433 1.25253 1 7.275958E-12 4.648341E-05 14079958 Wall_1
1.466788 0.2750652 -2.016959 2.542713E-05 1.192093E-07 1 14079958 Wall_1
2.493761 -0.3685503 -1.149577 -1 1.818989E-12 1.162693E-05 14079958 Wall_1
-2.2899 -0.02356446 -2.016962 -1.01963E-05 1.192093E-07 1 14079958 Wall_1
2.018489 0.6337624 1.686225 0 -1.192093E-07 -1 14079958 Wall_1
1.742761 0.3317483 -2.016968 1.600044E-05 1.192093E-07 1 14079958 Wall_1
-2.211333 -0.1371231 1.686225 0 -1.192093E-07 -1 14079958 Wall_1
2.493738 0.1733159 1.68373 -1 7.275958E-12 4.695234E-05 14079958 Wall_1
-2.589813 -0.5760325 -2.016972 3.206827E-05 1.192093E-07 1 14079958 Wall_1
1.360541 1.104436 1.686225 0 -1.192093E-07 -1 14079958 Wall_1
0.1272562 0.5890073 1.686225 0 -1.192093E-07 -1 14079958 Wall_1
2.493722 -0.4143996 1.34259 -1 1.818989E-12 1.36057E-05 14079958 Wall_1
-2.578715 0.03533451 -2.016971 1.492964E-05 1.192093E-07 1 14079958 Wall_1
2.493738 -0.482335 0.1166474 -1 -2.273737E-13 -1.702549E-06 14079958 Wall_1
0.5819659 1.595878 1.686225 0 -1.192093E-07 -1 14079958 Wall_1
-1.315338 0.7648375 1.693217 1 0 0 14079958 Wall_1
1.528889 -0.3614379 -2.016961 2.051352E-05 1.192093E-07 1 14079958 Wall_1
-3.209435 -0.1094862 -0.4192025 1 0 0 14079958 Wall_1
0.04420558 0.1522487 1.686225 0 -1.192093E-07 -1 14079958 Wall_1
0.8287451 0.6997486 -2.016949 4.176759E-06 1.192093E-07 1 14079958 Wall_1
0.3716211 0.8423918 1.686225 0 -1.192093E-07 -1 14079958 Wall_1
-3.122191 0.1475257 -2.016953 3.844268E-05 1.192093E-07 1 14079958 Wall_1
-1.27381 1.282987 -2.016949 0 1.192093E-07 1 14079958 Wall_1
-1.890962 0.8065709 1.686225 0 -1.192093E-07 -1 14079958 Wall_1
0.2636293 0.3105668 -2.016949 0 1.192093E-07 1 14079958 Wall_1
1.742823 -0.7293319 1.686225 0 -1.192093E-07 -1 14079958 Wall_1
0.3250493 -0.01988125 -2.016949 0 1.192093E-07 1 14079958 Wall_1
-3.209428 1.415231 0.4325646 1 -3.637979E-12 -2.835722E-05 14079958 Wall_1
-3.209411 0.1946152 0.8754531 1 3.637979E-12 2.492891E-05 14079958 Wall_1
2.49372 0.8210432 0.7053283 -1 -1.818989E-12 -2.183167E-05 14079958 Wall_1
-3.035084 0.9362823 1.686225 0 -1.192093E-07 -1 14079958 Wall_1
1.7388 1.06209 -2.016968 -2.882975E-06 1.192093E-07 1 14079958 Wall_1
2.493708 1.109109 1.039523 -1 3.637979E-12 2.339893E-05 14079958 Wall_1
1.67847 -0.4529697 -2.016966 2.558956E-05 1.192093E-07 1 14079958 Wall_1
-2.037927 -0.3139857 -2.016955 -2.581699E-05 1.192093E-07 1 14079958 Wall_1
2.493742 1.193645 -0.6809376 -1 -1.818989E-12 -1.564927E-05 14079958 Wall_1
-3.209454 0.5107185 -1.03161 1 5.828042E-09 -3.821147E-05 14079958 Wall_1
-1.073215 -0.2918415 -2.016949 0 1.192093E-07 1 14079958 Wall_1
-3.209451 0.5511577 -0.9608274 1 3.975947E-08 -3.833596E-05 14079958 Wall_1
2.493738 -0.470646 -0.5388153 -1 -3.637979E-12 -3.332692E-05 14079958 Wall_1
-3.209434 1.649254 0.2872914 1 -3.637979E-12 -3.769912E-05 14079958 Wall_1
-0.6462641 0.08699107 -2.016949 0 1.192093E-07 1 14079958 Wall_1
-3.031858 0.4024338 1.686225 0 -1.192093E-07 -1 14079958 Wall_1
0.7909744 -0.5480883 -2.016949 0 1.192093E-07 1 14079958 Wall_1
-2.250871 1.746121 -2.016961 -1.765688E-05 1.192093E-07 1 14079958 Wall_1
1.887398 1.664507 -2.016972 -3.248688E-05 1.192093E-07 1 14079958 Wall_1
-3.209407 1.588706 1.072811 1 7.275958E-12 4.717608E-05 14079958 Wall_1
-2.322504 1.317745 -2.016963 -2.562725E-05 1.192093E-07 1 14079958 Wall_1
-3.209413 1.836554 1.200221 1 7.275958E-12 4.708347E-05 14079958 Wall_1
-3.024127 1.063406 -2.016957 3.844268E-05 1.192093E-07 1 14079958 Wall_1
-0.2000338 1.607962 1.686225 0 -1.192093E-07 -1 14079958 Wall_1
-2.901588 -0.4151639 1.686225 0 -1.192093E-07 -1 14079958 Wall_1
-1.46209 -0.2747934 -2.016949 -8.934509E-06 1.192093E-07 1 14079958 Wall_1
2.493728 -0.6349327 0.4878617 -1 -1.818989E-12 -1.372362E-05 14079958 Wall_1
2.493708 0.7028463 1.013813 -1 9.094947E-13 7.308791E-06 14079958 Wall_1
2.493738 0.8681364 -0.09064357 -1 -9.094947E-13 -7.98898E-06 14079958 Wall_1
2.493726 1.798164 1.420889 -1 7.275958E-12 4.652551E-05 14079958 Wall_1
0.836423 1.284824 -2.016949 1.135595E-05 1.192093E-07 1 14079958 Wall_1
-1.906333 0.368369 -2.016951 -1.965412E-05 1.192093E-07 1 14079958 Wall_1
-1.904694 1.862894 -2.016951 -2.054438E-06 1.192093E-07 1 14079958 Wall_1
-3.252317 0.538405 -0.9568473 0 1.192093E-07 1 14079958 Wall_1
-2.915168 1.543136 -2.016961 1.327122E-05 1.192093E-07 1 14079958 Wall_1
2.493715 -0.4182401 1.203763 -1 -4.547474E-13 -4.74574E-06 14079958 Wall_1
-1.096678 0.6954648 -2.016949 0 1.192093E-07 1 14079958 Wall_1
2.493757 0.1034667 -1.610931 -1 7.275958E-12 4.76475E-05 14079958 Wall_1
0.3237098 -0.3727702 -2.016949 0 1.192093E-07 1 14079958 Wall_1
0.9664475 1.578238 -2.016949 2.014381E-05 1.192093E-07 1 14079958 Wall_1
-3.209413 1.13681 0.832463 1 1.818989E-12 1.93652E-05 14079958 Wall_1
-1.754652 0.8878236 -2.016949 -7.324214E-06 1.192093E-07 1 14079958 Wall_1
-3.209418 1.138342 0.6906566 1 -1.421085E-14 -1.708541E-07 14079958 Wall_1
2.493738 -0.4703478 1.686177 -1 7.275958E-12 4.743153E-05 14079958 Wall_1
-2.690597 1.373681 1.686225 0 -1.192093E-07 -1 14079958 Wall_1
0.8809606 0.3172646 -2.016949 1.836628E-06 1.192093E-07 1 14079958 Wall_1
-2.620596 1.098627 1.686225 0 -1.192093E-07 -1 14079958 Wall_1
-3.013587 -0.1895022 1.686225 0 -1.192093E-07 -1 14079958 Wall_1
0.3249392 0.3110763 -2.016949 0 1.192093E-07 1 14079958 Wall_1
-0.2131903 0.2993981 1.686225 0 -1.192093E-07 -1 14079958 Wall_1
0.1527844 1.613879 1.686225 0 -1.192093E-07 -1 14079958 Wall_1
-3.209448 1.146505 -1.746505 1 1.818989E-12 1.204342E-05 14079958 Wall_1
-0.4667413 -0.0250252 1.754498 -1 0 0 14079958 Wall_1
1.364765 0.1617483 -2.016956 1.990327E-05 1.192093E-07 1 14079958 Wall_1
-1.612304 -0.2656071 1.686225 0 -1.192093E-07 -1 14079958 Wall_1
2.493734 1.037831 0.3268289 -1 -3.637979E-12 -3.021388E-05 14079958 Wall_1
-1.674213 0.3802814 1.686225 0 -1.192093E-07 -1 14079958 Wall_1
1.573304 -0.523767 1.686225 0 -1.192093E-07 -1 14079958 Wall_1
-3.135583 0.6498567 1.686225 0 -1.192093E-07 -1 14079958 Wall_1
0.8434255 0.5887401 -2.016949 3.478089E-06 1.192093E-07 1 14079958 Wall_1
2.493766 -0.1448991 -1.292987 -1 1.818989E-12 1.97691E-05 14079958 Wall_1
2.49374 0.5939238 -1.979087 -1 7.275958E-12 4.76475E-05 14079958 Wall_1
-3.209424 1.738639 0.5401843 1 -9.094947E-13 -8.666594E-06 14079958 Wall_1
2.493755 0.2098529 -1.654381 -1 7.275958E-12 4.76475E-05 14079958 Wall_1
2.493716 1.012445 1.214308 -1 3.637979E-12 4.32003E-05 14079958 Wall_1
1.237588 1.292856 1.686225 0 -1.192093E-07 -1 14079958 Wall_1
-3.209413 1.541044 0.8313531 1 1.818989E-12 1.921097E-05 14079958 Wall_1
-2.799393 1.753203 -2.016965 -5.598147E-06 1.192093E-07 1 14079958 Wall_1
-3.202386 1.31145 1.686225 0 -1.192093E-07 -1 14079958 Wall_1
-1.368496 0.9551668 -2.016949 0 1.192093E-07 1 14079958 Wall_1
2.493739 -0.332765 -0.5905781 -1 -3.637979E-12 -3.380224E-05 14079958 Wall_1
-0.4798835 1.773406 1.686225 0 -1.192093E-07 -1 14079958 Wall_1
-3.209439 1.103203 -1.937494 1 3.637979E-12 3.712278E-05 14079958 Wall_1
2.493721 0.7762124 1.333811 -1 7.275958E-12 4.756378E-05 14079958 Wall_1
1.923753 1.059109 1.686225 0 -1.192093E-07 -1 14079958 Wall_1
1.924074 1.22468 -2.016971 -2.500977E-05 1.192093E-07 1 14079958 Wall_1
-3.209454 0.08644341 -1.039333 1 6.235496E-08 -3.841885E-05 14079958 Wall_1
2.493738 0.9847324 0.181568 -1 -1.818989E-12 -2.256639E-05 14079958 Wall_1
-3.20946 0.09968883 -1.49791 1 -1.818989E-12 -2.063957E-05 14079958 Wall_1
-3.20946 -0.6934713 -1.201074 1 8.047209E-09 -3.180827E-05 14079958 Wall_1
1.44075 -0.1926224 -2.016958 1.887019E-05 1.192093E-07 1 14079958 Wall_1
1.559075 1.316133 1.686225 0 -1.192093E-07 -1 14079958 Wall_1
0.9662586 1.730035 -2.016949 2.191678E-05 1.192093E-07 1 14079958 Wall_1
-2.488367 1.196124 1.686225 0 -1.192093E-07 -1 14079958 Wall_1
-1.49383 -0.705771 -2.016949 -1.529523E-05 1.192093E-07 1 14079958 Wall_1
-2.515274 -0.4608157 -2.016969 2.214629E-05 1.192093E-07 1 14079958 Wall_1
-3.109799 1.660534 1.686225 0 -1.192093E-07 -1 14079958 Wall_1
-3.209435 1.540697 -0.1360162 1 -9.094947E-13 -7.230247E-06 14079958 Wall_1
-3.20944 1.873717 -0.6673564 1 -4.547474E-13 -4.872184E-06 14079958 Wall_1
-3.030856 0.1180913 1.686225 0 -1.192093E-07 -1 14079958 Wall_1
2.493741 0.2569856 -1.959381 -1 7.275958E-12 4.76475E-05 14079958 Wall_1
0.1005574 0.2232059 1.686225 0 -1.192093E-07 -1 14079958 Wall_1
-1.577598 -0.2742565 1.686225 0 -1.192093E-07 -1 14079958 Wall_1
2.004933 0.2452981 1.686225 0 -1.192093E-07 -1 14079958 Wall_1
0.3774539 0.9999559 -2.016949 0 1.192093E-07 1 14079958 Wall_1
2.493731 -0.1051123 1.528618 -1 7.275958E-12 4.763595E-05 14079958 Wall_1
0.4086703 0.2439097 1.686225 0 -1.192093E-07 -1 14079958 Wall_1
-2.657154 0.8639922 -2.01697 1.458135E-06 1.192093E-07 1 14079958 Wall_1
-0.8731982 1.713067 -2.016949 0 1.192093E-07 1 14079958 Wall_1
1.176197 1.098843 -2.01695 2.314365E-05 1.192093E-07 1 14079958 Wall_1
-2.026646 0.1666177 1.686225 0 -1.192093E-07 -1 14079958 Wall_1
-3.209421 0.233701 0.62181 1 -9.094947E-13 -9.818194E-06 14079958 Wall_1
-1.906691 0.06097586 1.686225 0 -1.192093E-07 -1 14079958 Wall_1
-3.20942 -0.177586 0.6371418 1 -9.094947E-13 -7.815619E-06 14079958 Wall_1
-3.209421 1.667254 0.6191397 1 -2.273737E-13 -2.098117E-06 14079958 Wall_1
-1.777674 0.817678 -2.016949 -9.09359E-06 1.192093E-07 1 14079958 Wall_1
-0.06487516 -0.02469432 -2.016949 0 1.192093E-07 1 14079958 Wall_1
-2.98082 -0.5678981 -2.016958 3.844268E-05 1.192093E-07 1 14079958 Wall_1
-1.165025 0.644623 -2.016949 0 1.192093E-07 1 14079958 Wall_1
2.493738 0.5545396 -0.01749197 -1 -9.094947E-13 -6.932882E-06 14079958 Wall_1
-3.209435 1.339772 -0.1071088 1 -1.136868E-13 -7.546697E-07 14079958 Wall_1
-2.918675 0.681583 1.686225 0 -1.192093E-07 -1 14079958 Wall_1
2.493747 -0.6634786 -1.832966 -1 7.275958E-12 4.76475E-05 14079958 Wall_1
0.9963599 0.5688417 -2.016949 9.532397E-06 1.192093E-07 1 14079958 Wall_1
2.493766 1.431498 -1.294555 -1 -3.637979E-12 -3.191177E-05 14079958 Wall_1
1.542172 0.9186018 -2.016962 1.906178E-05 1.192093E-07 1 14079958 Wall_1
2.493736 0.7983742 0.2998714 -1 -3.637979E-12 -2.548405E-05 14079958 Wall_1
2.493731 1.281204 0.4025738 -1 -3.637979E-12 -3.731154E-05 14079958 Wall_1
2.49374 1.82791 -0.6141731 -1 -4.547474E-13 -3.046033E-06 14079958 Wall_1
-1.757137 1.834652 1.686225 0 -1.192093E-07 -1 14079958 Wall_1
1.986394 1.267179 1.686225 0 -1.192093E-07 -1 14079958 Wall_1
1.180163 -0.01447725 1.686225 0 -1.192093E-07 -1 14079958 Wall_1
-2.21564 0.9605853 1.686225 0 -1.192093E-07 -1 14079958 Wall_1
1.90478 1.494897 1.686225 0 -1.192093E-07 -1 14079958 Wall_1
1.114266 1.816122 1.686225 0 -1.192093E-07 -1 14079958 Wall_1
2.493738 0.2591048 -0.5635599 -1 -3.637979E-12 -2.375305E-05 14079958 Wall_1
0.4020543 1.838674 1.686225 0 -1.192093E-07 -1 14079958 Wall_1
2.234571 -0.3900093 1.686225 0 -1.192093E-07 -1 14079958 Wall_1
-3.209431 0.9821992 1.595616 1 7.275958E-12 4.641417E-05 14079958 Wall_1
-3.01961 0.1116686 -2.016956 3.844268E-05 1.192093E-07 1 14079958 Wall_1
-3.225482 0.07931913 -0.4186237 -3.991391E-07 1 -1.192093E-07 14079958 Wall_1
-3.209433 -0.470422 0.3084507 1 -1.818989E-12 -1.212406E-05 14079958 Wall_1
-2.720501 1.147332 -2.016968 1.285312E-06 1.192093E-07 1 14079958 Wall_1
-3.227206 0.2273031 0.4207707 0 -1.192093E-07 -1 14079958 Wall_1
1.825806 -0.5116838 1.686225 0 -1.192093E-07 -1 14079958 Wall_1
2.493738 1.424515 -0.5215234 -1 -4.547474E-13 -4.507383E-06 14079958 Wall_1
-3.209409 1.028101 0.9156682 1 3.637979E-12 3.073028E-05 14079958 Wall_1
0.4120886 1.352451 1.686225 0 -1.192093E-07 -1 14079958 Wall_1
-2.927262 -0.3540913 1.686225 0 -1.192093E-07 -1 14079958 Wall_1
1.923214 0.5404258 -2.016971 -6.876144E-06 1.192093E-07 1 14079958 Wall_1
-1.553446 1.797878 1.686225 0 0 -1 14079958 Wall_1
2.493764 0.4988262 -1.477904 -1 1.818989E-12 2.135027E-05 14079958 Wall_1
-2.766508 -0.4449725 -2.016966 3.844268E-05 1.192093E-07 1 14079958 Wall_1
-1.317379 0.2095167 1.686225 0 -1.192093E-07 -1 9014153 Wall_1
-3.071455 0.6846189 -2.016955 3.844268E-05 1.192093E-07 1 14079958 Wall_1
0.9292859 -0.6580691 -2.016949 0 1.192093E-07 1 14079958 Wall_1
2.206924 0.06573606 -2.01696 -2.703707E-05 1.192093E-07 1 14079958 Wall_1
-1.658083 -0.1409341 1.686225 0 -1.192093E-07 -1 14079958 Wall_1
-3.209435 1.767784 -0.1682388 1 -1.818989E-12 -1.457018E-05 14079958 Wall_1
-1.714001 1.583494 1.686225 0 -1.192093E-07 -1 14079958 Wall_1
-1.556717 0.3074696 -2.016949 -5.994464E-06 1.192093E-07 1 14079958 Wall_1
-3.209413 -0.432444 0.8353836 1 1.818989E-12 1.923019E-05 14079958 Wall_1
-1.194308 -0.5231636 -2.016949 -8.385366E-07 1.192093E-07 1 14079958 Wall_1
2.493748 -0.0660634 -0.830992 -1 -3.637979E-12 -3.275209E-05 14079958 Wall_1
2.493712 -0.5986538 1.130858 -1 -1.818989E-12 -2.018895E-05 14079958 Wall_1
-1.73334 1.47189 1.686225 0 -1.192093E-07 -1 14079958 Wall_1
-3.209419 0.8530715 1.342963 1 7.275958E-12 4.654083E-05 14079958 Wall_1
-3.209443 -0.3144656 -0.759168 1 5.380571E-08 -2.029045E-05 14079958 Wall_1
-1.77579 1.57139 -2.016949 -1.74365E-07 1.192093E-07 1 14079958 Wall_1
-1.62912 -0.123491 -2.016949 -1.40268E-05 1.192093E-07 1 14079958 Wall_1
2.493747 0.2934596 -0.7900089 -1 -3.637979E-12 -3.423095E-05 14079958 Wall_1
-1.026558 1.816229 1.686225 0 4.172325E-07 -1 14079958 Wall_1
2.493738 1.316545 -0.4504903 -1 -2.273737E-13 -2.655612E-06 14079958 Wall_1
0.8379904 -0.5685499 1.686225 0 -1.192093E-07 -1 14079958 Wall_1
-3.209413 -0.7185301 0.820204 1 3.637979E-12 3.188517E-05 14079958 Wall_1
-0.1827348 1.675811 1.686225 0 -1.192093E-07 -1 14079958 Wall_1
0.216486 1.687308 1.686225 0 -1.192093E-07 -1 14079958 Wall_1
2.493738 1.85642 0.1039659 -1 -3.637979E-12 -3.145868E-05 14079958 Wall_1
-2.962758 -0.3686091 -2.016958 3.844268E-05 1.192093E-07 1 14079958 Wall_1
2.493724 -0.3046086 1.382565 -1 1.818989E-12 2.242717E-05 14079958 Wall_1
-2.957011 1.406961 1.686225 0 -1.192093E-07 -1 14079958 Wall_1
2.022147 -0.1737859 1.686225 0 -1.192093E-07 -1 14079958 Wall_1
2.412197 1.268392 -2.016952 -3.844269E-05 1.192093E-07 1 14079958 Wall_1
-0.6930315 -0.7451702 -2.016949 0 1.192093E-07 1 14079958 Wall_1
-0.4667413 -0.1614318 1.774417 -1 0 0 14079958 Wall_1
-1.507668 1.529901 -2.016949 0 1.192093E-07 1 14079958 Wall_1
-3.209411 1.23856 1.163385 1 7.275958E-12 4.692708E-05 14079958 Wall_1
2.493717 -0.2581983 1.243714 -1 4.547474E-13 5.707906E-06 14079958 Wall_1
-3.209462 1.007396 -1.461961 1 -3.637979E-12 -2.539954E-05 14079958 Wall_1
1.157837 1.118355 -2.01695 2.261768E-05 1.192093E-07 1 14079958 Wall_1
-3.209448 1.229101 -1.76106 1 1.818989E-12 1.392996E-05 14079958 Wall_1
-1.600083 0.2069651 -2.016949 -8.956417E-06 1.192093E-07 1 14079958 Wall_1
-0.2630464 0.3666999 1.686225 0 -1.192093E-07 -1 14079958 Wall_1
1.087897 0.6161124 1.686225 0 -1.192093E-07 -1 14079958 Wall_1
-3.209465 1.747355 -1.322757 1 -3.637979E-12 -3.819008E-05 14079958 Wall_1
-0.8598264 -0.3305491 -2.016949 0 1.192093E-07 1 14079958 Wall_1
-1.100501 1.403486 -2.016949 0 1.192093E-07 1 14079958 Wall_1
-3.14472 -0.3478265 1.686225 0 -1.192093E-07 -1 14079958 Wall_1
-1.852072 1.016165 1.686225 0 -1.192093E-07 -1 14079958 Wall_1
0.9147453 1.723964 -2.016949 1.972764E-05 1.192093E-07 1 14079958 Wall_1
2.493726 0.9103156 1.426107 -1 7.275958E-12 4.718088E-05 14079958 Wall_1
-2.454602 -0.6673363 -2.016968 2.198509E-05 1.192093E-07 1 14079958 Wall_1
2.493744 -0.5167041 -0.7333665 -1 -3.637979E-12 -2.848024E-05 14079958 Wall_1
1.280756 -0.1659053 -2.016953 1.260565E-05 1.192093E-07 1 14079958 Wall_1
-2.240779 -0.1326845 1.686225 0 -1.192093E-07 -1 14079958 Wall_1
-1.792629 -0.6210808 -2.016949 -2.658653E-05 1.192093E-07 1 14079958 Wall_1
-1.292148 1.646655 -2.016949 0 1.192093E-07 1 14079958 Wall_1
-3.209435 1.220347 -0.04053342 1 0 0 14079958 Wall_1
-3.209436 1.782198 -0.5900773 1 -2.273737E-13 -2.43089E-06 14079958 Wall_1
0.9326783 0.7034922 -2.016949 8.493782E-06 1.192093E-07 1 14079958 Wall_1
-3.209416 1.612263 0.7400364 1 9.094947E-13 9.345752E-06 14079958 Wall_1
1.550374 0.2616292 -2.016962 2.870606E-05 1.192093E-07 1 14079958 Wall_1
2.493739 0.07945093 -0.5830281 -1 -3.637979E-12 -2.734992E-05 14079958 Wall_1
1.964729 1.500719 -2.016969 -3.69671E-05 1.192093E-07 1 14079958 Wall_1
1.533902 -0.6438825 1.686225 0 -1.192093E-07 -1 14079958 Wall_1
-0.642343 1.229018 -2.016949 0 1.192093E-07 1 14079958 Wall_1
-2.879344 1.13422 -2.016962 1.992331E-05 1.192093E-07 1 14079958 Wall_1
-3.209438 1.066528 -1.957326 1 3.637979E-12 3.973625E-05 14079958 Wall_1
-3.209429 0.6895837 1.536943 1 7.275958E-12 4.641417E-05 14079958 Wall_1
0.9792742 1.795189 1.686225 0 -1.192093E-07 -1 14079958 Wall_1
1.279364 1.425729 1.686225 0 -1.192093E-07 -1 14079958 Wall_1
0.4320879 1.730355 1.686225 0 -1.192093E-07 -1 14079958 Wall_1
-2.349592 0.9371614 1.686225 0 -1.192093E-07 -1 14079958 Wall_1
2.493716 -0.08398288 1.223671 -1 9.094947E-13 8.746317E-06 14079958 Wall_1
2.493738 0.7066227 -2.006931 -1 7.275958E-12 4.76475E-05 14079958 Wall_1
-0.9308043 1.659977 -2.016949 0 1.192093E-07 1 14079958 Wall_1
2.493738 0.01022881 -0.2856406 -1 -1.818989E-12 -1.394547E-05 14079958 Wall_1
-1.850711 0.4870234 1.686225 0 -1.192093E-07 -1 14079958 Wall_1
-3.209435 -0.035173 -0.4584869 1 0 0 14079958 Wall_1
1.136606 1.14815 1.686225 0 -1.192093E-07 -1 14079958 Wall_1
2.231742 1.428029 1.686225 0 -1.192093E-07 -1 14079958 Wall_1
0.4915273 -0.6166071 1.686225 0 -1.192093E-07 -1 14079958 Wall_1
0.5413728 1.244683 -2.016949 0 1.192093E-07 1 14079958 Wall_1
1.163033 1.5725 -2.01695 2.815889E-05 1.192093E-07 1 14079958 Wall_1
-2.706793 0.8668938 1.686225 0 -1.192093E-07 -1 14079958 Wall_1
-1.697439 -0.5336121 1.686225 0 -1.192093E-07 -1 14079958 Wall_1
-1.479924 -0.5551064 -2.016949 -1.295606E-05 1.192093E-07 1 14079958 Wall_1
-2.458807 -0.04823989 -2.016968 6.056292E-06 1.192093E-07 1 14079958 Wall_1
-0.2510892 1.301872 1.686225 0 -1.192093E-07 -1 14079958 Wall_1
-3.209456 0.8364244 -1.579841 1 -9.094947E-13 -9.791232E-06 14079958 Wall_1
2.49375 0.3984408 -0.8753827 -1 -3.637979E-12 -3.68225E-05 14079958 Wall_1
-1.437921 0.7233248 1.686225 0 -1.192093E-07 -1 14079958 Wall_1
1.051183 0.8369416 -2.016949 1.493147E-05 1.192093E-07 1 14079958 Wall_1
0.3640369 0.8518146 -2.016949 0 1.192093E-07 1 14079958 Wall_1
2.493752 1.851838 -1.718654 -1 9.094947E-13 8.79165E-06 14079958 Wall_1
0.7286115 -0.09199882 -2.016949 0 1.192093E-07 1 14079958 Wall_1
0.3870302 1.655396 -2.016949 0 1.192093E-07 1 14079958 Wall_1
0.9071648 1.234319 1.686225 0 -1.192093E-07 -1 14079958 Wall_1
-0.1128068 -0.3405424 -2.016949 0 1.192093E-07 1 14079958 Wall_1
-1.315338 0.8030467 1.694034 1 0 0 14079958 Wall_1
2.493763 1.700748 -1.500208 -1 -1.818989E-12 -1.522352E-05 14079958 Wall_1
1.048542 0.6706643 1.686225 0 -1.192093E-07 -1 14079958 Wall_1
