# .PCD v0.7 - Point Cloud Data file format
VERSION 0.7
FIELDS x y z normal_x normal_y normal_z rgb label
SIZE 4 4 4 4 4 4 4 4
TYPE F F F F F F U U
COUNT 1 1 1 1 1 1 1 1
WIDTH 170
HEIGHT 1
VIEWPOINT 0 0 0 1 0 0 0
POINTS 170
DATA ascii
-0.9357752 0.1284367 -0.1939802 -0.8271929 0.1144163 -0.5501462 12173512 female
-0.6397266 0.1628546 -0.238751 0.6054543 0.06564406 -0.7931684 9803174 female
-0.9140381 -0.4244292 -0.08589138 0.4152533 -0.2571802 0.8725955 2170913 female
-0.6235326 0.1125733 0.04103918 -0.780094 -0.6218412 0.06904209 7102043 female
-0.6634409 -0.3047063 -0.2124771 -0.01101438 0.3930346 -0.9194577 2698289 female
-0.6328257 -0.2017277 -0.06988968 0.6268892 -0.2290918 0.7446655 2170145 female
-0.9066365 0.3067611 -0.145434 -0.9635723 0.2167242 -0.1567134 12962771 female
-0.9412014 -0.7023835 -0.10072 0.2310705 -0.9658824 -0.1169517 3946293 female
-0.9007902 -0.5172331 -0.1377238 0.9554553 -0.2265855 0.189114 1841948 female
-0.9611421 0.2140906 -0.01855627 0.5354471 -0.7583227 -0.3718106 10001057 female
-0.9743338 0.5075405 -0.1182086 -0.8240016 0.09870631 0.5579234 11251886 female
-0.9066834 0.2985285 -0.1563248 -0.9228252 0.2710073 -0.2737676 3419956 female
-0.9417477 -0.5363486 -0.182733 -0.1159305 -0.002141563 -0.993255 2499883 female
-0.9752243 0.4170698 -0.1029233 -0.5776579 0.2417005 0.7796745 11056058 female
-0.5521895 0.5098863 -0.2223897 0.5885477 0.09500773 -0.8028606 9013401 female
-0.6009557 0.01284887 -0.06283091 0.8390294 -0.003196548 0.5440768 1973536 female
-0.9399153 0.1853747 0.1381119 0.1773062 0.1542463 0.9719931 8746093 female
-0.844074 0.06423967 -0.004512641 0.2849607 0.1769437 0.9420659 2434601 female
-0.8642329 -0.2735688 -0.1021653 0.9035212 -0.2373447 -0.3568149 1973278 female
-0.671281 -0.5664118 -0.1640414 -0.01365389 -0.06674042 0.997677 2171937 female
-0.9246863 0.4298799 -0.1030817 0.5700465 -0.04089538 0.820594 11383226 female
-0.9018706 0.4517324 -0.09002489 -0.9418951 -0.197248 0.2718949 8223622 female
-1.004835 0.2430125 -0.01184543 -0.9905759 -0.1238071 0.05857679 5397866 female
-0.6318254 0.3375873 -0.09899219 0.8739078 0.09671343 0.4763734 3420469 female
-0.9048445 0.4250033 -0.1335501 -0.9514012 -0.2942025 0.09099791 11908798 female
-0.5739838 0.3579676 -0.1434174 -0.08888297 0.001452189 0.996041 14147815 female
-0.6896968 0.2397332 -0.01393287 0.5524545 0.1156568 0.8254802 13620456 female
-0.6862381 0.221196 -0.2453388 0.1826305 0.3146969 -0.9314569 11844804 female
-0.6669838 0.8763484 -0.1915822 0.8544638 0.4169824 -0.3098666 2631463 female
-0.7498223 0.3968967 -0.02579339 0.1091304 0.3026125 0.9468454 6184292 female
-0.5253406 0.2769873 -0.1494791 0.9859928 -0.1100215 -0.1253533 8423567 female
-0.6188152 -0.4259933 -0.2029024 0.9465426 -0.07806777 -0.3129896 1579808 female
-0.9187233 -0.03906997 -0.1684055 -0.3761735 -0.2273028 -0.8982355 2105896 female
-0.8704391 -0.2235386 -0.1266793 0.4925457 -0.09750022 -0.8648078 2303014 female
-0.646576 -0.679468 -0.1943778 0.9496664 0.133509 -0.2833885 13087919 female
-0.7721711 0.8689645 -0.2372637 -0.5126969 0.3608646 -0.7790498 9473672 female
-0.6705424 0.7701513 -0.1541261 0.9071402 0.06534923 0.4157236 15518399 female
-0.860445 0.6586528 -0.1690965 -0.3893948 0.8611016 0.3269184 15724535 female
-0.9316663 0.1715557 -0.06389445 -0.769542 0.2393994 0.5920246 14607087 female
-0.7209699 0.6221218 -0.2514805 -0.08295576 0.2882523 -0.9539543 14937851 female
-0.6311038 -0.1743704 -0.06457534 0.6269994 -0.2377162 0.7418644 1974050 female
-0.7525244 0.3431963 -0.01024584 0.08809671 0.2016124 0.9754955 12633296 female
-0.8359393 0.08641542 -0.2542326 -0.08665361 -0.2680664 -0.9594955 2960949 female
-0.7182732 0.2197739 0.003366492 0.3455835 0.0190865 0.9381939 15002619 female
-0.9720867 0.5572521 -0.1241064 -0.831599 0.3608986 0.4221318 7304056 female
-0.9000084 0.360759 -0.1270912 -0.9941677 0.03836417 0.1007902 15001844 female
-0.699315 0.2692104 -0.2328853 0.1370053 0.1317174 -0.981774 15200255 female
-0.7625076 -0.0643736 -0.1228351 -0.9822489 -0.1875787 0.001180157 2433573 female
-0.5879919 -0.04574911 -0.1418124 0.9667237 -0.1757798 -0.1858675 2105122 female
-0.593248 0.6062993 -0.1498958 0.2564788 0.8130973 0.5225815 12699337 female
-0.8831009 0.1653912 -0.02872559 -0.4013822 0.0981468 0.9106369 9343646 female
-0.6992949 0.7234454 -0.1829848 0.8216483 -0.1332237 -0.5542071 4866113 female
-0.6028189 0.4508224 -0.1510746 0.9842805 -0.1678669 0.05488707 13816538 female
-0.8968994 -0.2946225 -0.1380162 0.5821821 0.2863359 -0.7609702 2697257 female
-0.9504316 0.5367998 -0.1957225 -0.4015785 0.02014467 -0.915603 10725043 female
-0.7881808 0.7165843 -0.1850335 -0.8354836 0.2329146 -0.4977127 10981510 female
-0.8974042 -0.1160229 0.001142028 -0.001265302 -0.1391586 0.9902693 2171944 female
-0.6216352 0.5906163 -0.1288067 0.1968241 0.5447946 0.8151436 13751265 female
-0.7326461 0.5267169 -0.04780189 0.06025575 0.6383674 0.7673697 14278121 female
-0.8666468 -0.04173958 -0.1750839 0.1178551 -0.2928609 -0.9488639 2500651 female
-0.7390054 0.7972757 -0.0426024 -0.6595684 0.5013041 0.5600568 12755097 female
-0.7105439 -0.1963007 -0.0721638 -0.6450885 -0.2273961 0.7294874 2170913 female
-0.837687 0.4193048 -0.2427906 -0.3622882 -0.2838818 -0.8877829 9933207 female
-0.9169403 -0.01910125 0.002404221 -0.4134042 0.03045224 0.9100382 2368809 female
-0.6251525 -0.2815625 -0.1058301 0.854743 -0.2110502 0.474207 2039075 female
-0.9454621 -0.00694117 -0.1607783 -0.6896547 -0.2456174 -0.6812111 2500907 female
-0.642325 0.4782784 -0.2604367 0.4976256 -0.2563361 -0.8286499 14607351 female
-0.6347166 0.3186763 -0.08952114 0.83645 0.1445571 0.5286346 6183780 female
-0.9650822 -0.2979103 -0.1446842 -0.5850855 0.363195 -0.7250961 2171945 female
-0.6868259 -0.1930053 -0.05683865 -0.2817234 -0.2463451 0.9273327 2170660 female
-0.7257168 0.1649571 -0.0008780158 0.3600959 -0.2345467 0.90295 15133177 female
-0.8838345 -0.2716312 -0.1214609 0.5263644 -0.04442494 -0.8490977 2632488 female
-0.9466718 -0.6985787 -0.147805 -0.005430636 -0.9983511 -0.05714577 593934 female
-0.8561371 -0.2362916 -0.06120834 0.8713222 -0.2815627 0.4018955 1973534 female
-0.9217778 0.08209022 -0.2148306 -0.6566126 -0.05346951 -0.7523304 2960429 female
-0.9601312 0.1485607 0.09750014 0.968853 -0.2476114 -0.003527875 6642776 female
-0.8884894 -0.01870723 -0.1832687 -0.1099881 -0.3333425 -0.9363682 2697516 female
-0.9605667 -0.6501773 -0.18344 -0.828795 0.3204857 -0.4586805 15716301 female
-0.58822 0.2023143 -0.0538253 -0.6810106 0.5238619 0.5116573 15068412 female
-0.6726543 -0.09148728 -0.03252218 -0.02538777 -0.2005619 0.979352 2171944 female
-0.9932209 0.2724094 -0.003450571 -0.5591165 0.5837885 0.5887102 13424860 female
-0.6030422 0.472961 -0.1742082 0.9372073 -0.3304286 0.1116221 13026505 female
-0.98755 0.4210275 -0.120646 -0.9031526 0.2366112 0.3582326 5001303 female
-0.9339257 -0.4009041 -0.07159815 0.1476884 -0.2556329 0.9554265 2169889 female
-0.8947865 -0.2948059 -0.1365694 0.6071001 0.2737662 -0.7459769 2631464 female
-0.8736479 0.3597471 -0.2031336 -0.7362697 -0.190121 -0.6494312 10132134 female
-0.7440007 -0.1232146 -0.1570257 -0.9087351 -0.1411553 -0.3927794 1972766 female
-0.5804213 0.05638483 -0.1162766 0.9860253 0.03059713 0.1637618 1908257 female
-0.6924204 0.8264003 -0.236428 0.6170904 -0.1072906 -0.7795436 3420972 female
-0.6198364 0.05142725 0.09390539 0.1194875 -0.8310196 -0.5432579 12690595 female
-0.8294455 -0.04744054 -0.1602434 0.5421985 -0.3251991 -0.7747686 2498854 female
-0.7964126 0.08347142 -0.2502402 -0.03994242 -0.3358823 -0.9410567 2171687 female
-0.9552515 -0.2630297 -0.1311954 -0.521031 0.3288859 -0.7876298 2565673 female
-0.8837231 0.2719652 -0.2027836 -0.5569564 0.370172 -0.7434866 8092299 female
-0.741427 -0.1493784 -0.1522616 -0.9410781 -0.09748206 -0.3238354 2170913 female
-0.6219601 0.2863158 -0.1718619 0.9315143 0.05762606 -0.3591106 14082023 female
-0.7268455 -0.3680903 -0.1787253 -0.9952632 0.07200571 0.06531797 1776161 female
-0.7606864 0.4909898 -0.02592773 0.2077314 0.2906261 0.9340151 13290450 female
-0.7879207 0.01566535 -0.1343518 0.9115931 -0.3152608 -0.2638345 1645342 female
-0.8960179 0.644264 -0.16575 -0.4737383 0.8769681 0.08061631 13749452 female
-0.6010228 -0.07339638 -0.07225019 0.8876361 -0.1452753 0.4370323 1973537 female
-0.649616 -0.6659669 -0.2042668 0.9567024 0.02639796 -0.2898683 2105376 female
-0.9665717 -0.5772194 -0.1562037 -0.9621606 -0.05016131 -0.267826 1579032 female
-0.5685067 0.5985206 -0.1749392 0.6484098 0.7609171 -0.02387197 9013393 female
-0.8834667 -0.2656257 -0.1229796 0.472504 -0.06159347 -0.8791736 2369060 female
-0.9542216 0.2072258 0.02850376 0.9706265 -0.2324968 -0.06188146 11909055 female
-0.5486615 0.4639323 -0.2173556 0.7574039 -0.01312258 -0.6528149 7370112 female
-0.9661914 -0.657361 -0.09340099 -0.6546843 0.6973565 0.2916889 15785175 female
-0.741107 -0.1963781 -0.1295286 -0.9958623 -0.05194927 0.07456177 1579291 female
-0.6953323 0.004144272 -0.0203973 -0.1537091 -0.03392218 0.9875337 2171945 female
-0.6664327 0.4277928 -0.2561975 0.3405401 -0.3454281 -0.874478 9606042 female
-0.7409875 0.765119 -0.04905181 -0.2676667 0.06132785 0.9615578 15258055 female
-0.6948296 0.1982688 -0.2542642 0.1392286 0.2892936 -0.9470611 15200255 female
-0.9866269 -0.6895544 -0.1253701 -0.9252748 -0.02875297 -0.3782061 13414826 female
-0.7003283 0.6463911 -0.1356564 0.643222 0.2179547 0.7340035 14869230 female
-0.5566452 0.5766487 -0.1940402 0.7158656 0.5424812 -0.4396028 8817816 female
-0.8681177 -0.04374768 -0.1747458 0.1092238 -0.2880107 -0.9513779 2500652 female
-0.6205308 0.559589 -0.2556734 0.4532221 0.04340913 -0.8903401 11186367 female
-0.7587202 0.7605081 -0.0586431 -0.4348827 -0.2337745 0.8696128 14600637 female
-0.8107119 -0.01140659 -0.02589022 0.7227696 -0.1724069 0.6692384 2170913 female
-0.6561019 -0.559324 -0.2284064 0.6778095 -0.1624112 -0.7170752 1973281 female
-0.8517246 0.5238389 -0.04278924 -0.3417273 0.5750723 0.743313 5724514 female
-0.8812913 -0.2346419 -0.1286476 0.3097295 -0.1093814 -0.9445122 2500137 female
-0.7490028 0.2958773 -0.005059254 0.1086609 0.1276423 0.98585 7434876 female
-0.6359456 0.1193201 0.08648851 0.844304 0.2191271 0.4890134 12954273 female
-0.9242581 0.5878376 -0.09862863 -0.1313705 0.3165758 0.9394262 12303555 female
-0.7076267 0.2466652 -0.005201596 0.4201394 0.1383006 0.8968589 5130576 female
-0.6274241 0.5294608 -0.0959441 0.6373332 0.2376144 0.7330388 7961988 female
-0.9331574 -0.7160691 -0.04367662 0.3846392 -0.9206764 -0.06639161 723723 female
-0.6985453 0.4511183 -0.2704328 0.0591349 -0.2366536 -0.9697928 15462391 female
-0.7275293 0.5381267 -0.06011707 -0.01110858 0.6209403 0.7837791 9145496 female
-0.6489339 0.5055462 -0.05012754 0.4515763 0.5529753 0.7002122 13357531 female
-0.7361222 -0.05185463 -0.1866748 -0.6133277 -0.188578 -0.766986 2237481 female
-0.7589724 0.4967768 -0.2728518 -0.1289953 0.07279833 -0.9889694 15526648 female
-0.6537239 -0.5956053 -0.176442 0.7771952 -0.1140068 0.6188459 1907998 female
-0.6984878 0.6999331 -0.1411816 0.8917716 -0.1684759 0.4199516 14993595 female
-0.6460863 -0.5037377 -0.157373 0.5167801 -0.2337697 0.8235836 2171428 female
-0.6947648 0.2698799 -0.01704613 0.5293258 0.1551855 0.8341053 14342371 female
-0.5667855 0.593173 -0.1536517 0.5660733 0.7168969 0.4069641 5724511 female
-0.7615521 -0.03290034 -0.08078369 -0.9318712 -0.1665317 0.3223091 1579295 female
-0.6890561 0.03472317 -0.2437315 0.0907905 -0.554904 -0.8269454 2171945 female
-0.5914609 -0.01527965 -0.08307349 0.927516 -0.07275292 0.3666348 1973537 female
-0.6017437 0.2709967 -0.1461163 -0.9651957 0.124833 0.2298128 15198199 female
-0.656617 0.8576923 -0.1498827 0.9876392 0.1362097 0.07756189 2368292 female
-0.58217 0.4390836 -0.2339742 0.1093349 -0.08944995 -0.989972 13422036 female
-0.882223 0.3172441 -0.06691679 -0.7370905 0.2237684 0.6376718 9079702 female
-0.9234943 -0.2962109 -0.03627465 0.04624216 -0.5100625 0.8588934 2630696 female
-1.005579 -0.6941386 -0.06335855 -0.8054496 0.5734847 -0.1495535 14598074 female
-0.5909385 0.02477273 -0.0807851 0.9110798 -0.0005259763 0.4122298 1973537 female
-0.5927241 0.02633183 0.02600789 -0.8919973 0.2435203 0.3808393 14204855 female
-0.5447893 0.566134 -0.1639826 0.8431736 0.4975429 0.2037385 12370377 female
-0.9153852 -0.5862926 -0.1646914 0.9505413 -0.1173664 -0.2875697 2039327 female
-0.6563479 -0.3854148 -0.1243457 0.111313 -0.2229731 0.9684485 2170403 female
-0.8719429 0.4269297 -0.05418352 -0.6026108 -0.6193026 0.5033135 13948637 female
-0.7415696 0.6159588 -0.105741 0.08509371 0.5216963 0.848877 11974596 female
-0.9572703 -0.6262024 -0.1150872 -0.7766119 0.2875681 0.5605164 2236968 female
-0.9416932 0.6107327 -0.1590251 -0.6899901 0.685111 -0.233531 14015722 female
-0.7408573 0.2708632 -0.2332632 -0.09459009 0.2125865 -0.9725531 15201279 female
-0.570534 0.5442911 -0.1275338 0.2548819 0.09448808 0.9623446 8355208 female
-0.9362837 0.3452761 -0.1586615 0.6386722 -0.4186354 -0.6456333 13027790 female
-0.8783183 -0.4054633 -0.136492 0.982917 -0.09791008 -0.1558452 1776673 female
-0.8873814 0.008964922 -0.1947701 -0.1503327 -0.4861491 -0.8608479 2895412 female
-0.7119269 0.5201936 -0.04508674 0.03944196 0.5883103 0.8076729 10395047 female
-0.6420593 -0.5456876 -0.2118424 0.8888725 -0.2042913 -0.4100862 1579035 female
-0.6364611 -0.06703686 -0.196218 0.4206879 -0.1456033 -0.8954447 2303275 female
-0.9880546 -0.6849295 -0.0598024 -0.3824611 0.911917 0.1487647 16242386 female
-0.8197625 0.2533623 -0.232339 -0.1175717 0.3067365 -0.944505 14278895 female
-0.9522578 -0.6553614 -0.08032929 -0.2756676 0.8404509 0.4665293 16774119 female
-0.6536599 -0.1261364 -0.1993355 0.2624759 -0.06195886 -0.9629473 2171945 female
-0.6362755 -0.3349651 -0.1177962 0.5800888 -0.2307244 0.7811934 1777187 female
