# .PCD v0.7 - Point Cloud Data file format
VERSION 0.7
FIELDS x y z normal_x normal_y normal_z rgb label
SIZE 4 4 4 4 4 4 4 4
TYPE F F F F F F U U
COUNT 1 1 1 1 1 1 1 1
WIDTH 170
HEIGHT 1
VIEWPOINT 0 0 0 1 0 0 0
POINTS 170
DATA ascii
-0.962109 0.1373977 -0.2048716 -0.8919018 0.1282006 -0.4336771 14079973 female
-0.6605734 0.1676333 -0.2676227 0.5941515 0.07924756 -0.8004398 9803174 female
-0.942524 -0.4253632 -0.1092406 0.3219995 -0.2479436 0.9136959 2170913 female
-0.6096857 0.1112786 -0.03888789 -0.9745737 0.1487 -0.1676139 12825516 female
-0.6557519 -0.3188039 -0.2468702 0.1003177 0.3236917 -0.9408294 2237738 female
-0.6656702 -0.1806769 -0.08306397 0.1690844 -0.2487113 0.953705 2171688 female
-0.8931162 0.3652108 -0.2375472 -0.6746923 -0.2361621 -0.6992981 12172489 female
-0.9990708 -0.7132059 -0.09148739 0.02713072 -0.9964812 -0.07930356 789772 female
-0.9261909 -0.5391992 -0.1729078 0.982757 -0.1843702 0.0140088 1776929 female
-1.010517 0.1831986 -0.03930836 0.9302937 -0.3629168 -0.05333921 12238536 female
-1.013379 0.4816212 -0.1855259 -0.9841661 0.09178372 -0.1516338 10133932 female
-0.9422274 0.2612554 -0.122373 -0.8539324 0.4123437 0.3174461 13753065 female
-0.9791955 -0.4692016 -0.2036578 -0.4050368 -0.03988463 -0.91343 1973537 female
-0.9625213 0.3775426 -0.1408252 0.6865677 -0.0706723 0.723623 15133945 female
-0.5679777 0.536531 -0.2392943 0.8877835 0.2846062 -0.3617177 7698310 female
-0.6092416 -0.01306251 -0.09927346 0.8908153 -0.02443614 0.453708 1973536 female
-0.9932122 0.1385851 0.1039122 -0.7844055 -0.5546744 0.2775687 8876140 female
-0.9303464 0.04206419 -0.02930387 -0.4218855 0.1628695 0.8919003 2500651 female
-0.8808192 -0.2366974 -0.08412427 0.8381835 -0.2935365 0.4596573 2105120 female
-0.6586 -0.5908659 -0.1822912 0.08406464 0.09379061 0.9920365 2434601 female
-0.9717329 0.4182931 -0.131226 0.2810526 0.02562083 0.9593503 13288397 female
-0.9205394 0.4300431 -0.1199645 -0.8594145 -0.3445032 0.3777887 10987703 female
-1.055965 0.2242619 -0.06681255 -0.9962351 -0.06794525 -0.0538421 5397866 female
-0.654104 0.3438694 -0.1298295 0.8826903 0.1263443 0.4526533 3420469 female
-0.9248006 0.3814854 -0.1720528 -0.9987605 -0.03932358 -0.03051554 15001836 female
-0.5944079 0.4289715 -0.1865304 0.2516987 0.01231018 0.9677273 6578796 female
-0.6992971 0.2667508 -0.05512862 0.6266937 0.1697406 0.7605546 6184287 female
-0.7084265 0.2248457 -0.2737005 0.1637999 0.3175838 -0.9339754 11844804 female
-0.7101619 0.8780987 -0.250357 0.8245123 0.4220974 -0.3768465 2631463 female
-0.7026301 0.4998196 -0.06219903 0.1345153 0.4967382 0.8574128 15593213 female
-0.5432072 0.2530458 -0.2024465 0.8777513 -0.2178956 -0.4267015 13158615 female
-0.6139878 -0.4407952 -0.2279353 0.9467923 -0.08395649 -0.3107019 1579553 female
-0.9368249 -0.03808823 -0.1957582 -0.3616641 -0.2272059 -0.9041994 2105896 female
-0.8864866 -0.2007675 -0.1542662 0.5863525 -0.1115189 -0.802343 2171944 female
-0.6298646 -0.6756867 -0.2082805 0.9523935 0.1503418 -0.2652242 13087919 female
-0.8049707 0.8281029 -0.3008669 -0.3118876 -0.1265068 -0.9416593 14338761 female
-0.7133177 0.7705751 -0.154374 0.9608245 -0.208486 0.1826193 16574163 female
-0.8916643 0.657434 -0.2355877 -0.5129601 0.7780988 -0.3625384 11582152 female
-0.9233958 0.1663756 -0.06633689 -0.5166082 0.1955674 0.8335883 3552582 female
-0.7593102 0.5861728 -0.2992684 -0.2465216 0.2080491 -0.9465424 14739705 female
-0.6581923 -0.1537001 -0.07823238 0.2962486 -0.2477741 0.9224124 1842723 female
-0.7806895 0.3505331 -0.03836107 0.05984724 0.2282353 0.9717649 15067640 female
-0.8236195 0.0734706 -0.2746604 0.01798379 -0.4359973 -0.8997682 2435119 female
-0.7386267 0.217154 -0.02347441 0.3475995 -0.01473618 0.9375273 12700887 female
-1.00357 0.5535158 -0.1576825 -0.8437056 0.362033 0.3963495 7304056 female
-0.9157953 0.4101277 -0.1260714 -0.8855973 -0.2039275 0.4172901 13620448 female
-0.7226852 0.2724043 -0.2613389 0.1178514 0.1299937 -0.984486 15200255 female
-0.7799989 -0.03545346 -0.1500716 -0.9838735 -0.1784859 0.0116488 3290426 female
-0.6010917 -0.0566503 -0.1532892 0.9919929 -0.1220566 -0.03243965 1908509 female
-0.6331736 0.6137013 -0.194971 0.2010391 0.8188955 0.5375811 13422293 female
-0.8557221 0.1401817 -0.04197399 -0.2207303 -0.07969563 0.9720734 15133438 female
-0.736271 0.7253181 -0.2291472 0.802206 -0.1442555 -0.579358 4866113 female
-0.6410561 0.4481439 -0.2478293 0.8484033 -0.3367552 -0.4084211 13619671 female
-0.951924 -0.318177 -0.190301 0.07764897 0.3299152 -0.9408117 2697774 female
-0.9556841 0.5202894 -0.2338167 -0.1272625 -0.2047835 -0.9704989 12895180 female
-0.8248814 0.7154206 -0.2268547 -0.8631948 0.1706408 -0.4751593 10981510 female
-0.9339551 -0.1080436 -0.02707983 -0.2453793 -0.1083726 0.9633506 2171944 female
-0.625904 0.6027012 -0.1826472 0.2083475 0.6804068 0.7025937 15330803 female
-0.7712762 0.5328038 -0.07911116 0.1215256 0.6688915 0.7333591 14146792 female
-0.8845626 -0.04126267 -0.2014745 0.1315513 -0.2969882 -0.945776 2500651 female
-0.771848 0.8229527 -0.1047219 -0.6327009 0.476882 0.6101419 14071469 female
-0.7090796 -0.1878039 -0.09501124 -0.5523906 -0.2586133 0.7924543 2170401 female
-0.8799062 0.414878 -0.2608824 -0.495006 -0.3342036 -0.8020456 2698546 female
-0.9387816 -0.01742776 -0.02517119 -0.4323982 0.03859507 0.9008564 2368809 female
-0.625901 -0.2638982 -0.1309366 0.8658158 -0.1473577 0.4781722 2171174 female
-0.9633703 -0.005894687 -0.1885768 -0.6797543 -0.2434781 -0.6918471 2500907 female
-0.7051213 0.4004326 -0.07907108 0.5690309 0.1661309 0.8053598 15724543 female
-0.6520193 0.3333665 -0.1316176 0.8949642 0.1562495 0.4178819 13752800 female
-0.9749532 -0.2864941 -0.1719806 -0.3572723 0.3952712 -0.8462371 2303275 female
-0.6387978 -0.1984312 -0.09858917 0.6048936 -0.190057 0.773293 2170403 female
-0.7496018 0.1443843 -0.03210894 0.3701041 -0.2552372 0.8932396 14541297 female
-0.9074358 -0.2588566 -0.151713 0.3943193 -0.05045037 -0.9175876 2631471 female
-0.9931928 -0.6925846 -0.179896 -0.6083086 -0.7336463 -0.3028593 1051664 female
-0.8774634 -0.250747 -0.1020368 0.9265021 -0.3037581 0.2220922 2038559 female
-0.9474131 0.09040922 -0.2334817 -0.7285957 0.001611941 -0.6849422 2696745 female
-1.026966 0.1102378 0.0228281 0.9246107 -0.3773841 -0.0517333 6379608 female
-0.9060106 -0.01819086 -0.2100267 -0.09770046 -0.3356804 -0.9368955 2697516 female
-0.9898093 -0.6681509 -0.2010224 -0.9008104 0.2413027 -0.36099 15124160 female
-0.6024911 0.2248086 -0.1485281 -0.8753641 0.128352 0.4661153 7830410 female
-0.7490684 -0.063134 -0.08610105 -0.7167911 -0.2656352 0.644708 1973534 female
-1.043833 0.2511929 -0.05266785 -0.5867135 0.5192124 0.6214383 13424860 female
-0.6313807 0.4826563 -0.1919907 0.9740945 -0.1882798 0.1252623 14079966 female
-1.014901 0.3890018 -0.1368734 -0.5574943 0.2676299 0.7858589 14016221 female
-0.9835722 -0.3657182 -0.09228031 -0.4663424 -0.1483282 0.87208 2631464 female
-0.952193 -0.3142756 -0.1888878 0.07219736 0.3422695 -0.936824 2697516 female
-0.9095941 0.3772446 -0.2226445 -0.8345203 -0.1882904 -0.5178055 10066337 female
-0.7491955 -0.1588512 -0.1571581 -0.9880031 -0.153798 0.01399983 1775899 female
-0.5956445 0.03185441 -0.1385928 0.9839049 0.004373284 0.1786394 1974307 female
-0.7355654 0.8241487 -0.2903048 0.5875538 -0.1431378 -0.7964245 3420972 female
-0.5858967 0.06240563 -0.02058824 -0.8995917 -0.313103 -0.3044688 8089191 female
-0.8455281 -0.02114486 -0.1972008 0.4842744 -0.367137 -0.7941592 2697257 female
-0.8454885 0.102087 -0.2844041 -0.0495083 -0.1716983 -0.9839048 5263457 female
-0.9669802 -0.173346 -0.04692576 -0.6608701 -0.06917668 0.7473053 2170657 female
-0.9306628 0.2775602 -0.1952133 -0.8208883 0.4102315 -0.3973065 7698044 female
-0.7450032 -0.1966658 -0.1698886 -0.9926608 -0.07320908 -0.09625474 1776155 female
-0.6344851 0.2706171 -0.1725603 0.9617226 0.2683218 -0.05561504 14673128 female
-0.7080238 -0.2766473 -0.2082352 -0.5557834 0.04603482 -0.8300516 2170913 female
-0.7557334 0.4862902 -0.05757986 0.0004237759 0.2061445 0.9785215 15396603 female
-0.7992238 0.03623382 -0.1801187 0.7725073 -0.5766174 -0.2659788 1645081 female
-0.9326886 0.6298805 -0.170604 -0.1743785 0.8969637 0.4062614 12894660 female
-0.611129 -0.0927839 -0.1131841 0.9325469 -0.1270043 0.3379737 1841953 female
-0.6360244 -0.6543892 -0.2306214 0.9132707 -0.01657267 -0.4070159 1842207 female
-0.990775 -0.5705339 -0.169958 -0.992442 -0.1014425 -0.06905284 1579291 female
-0.5896665 0.5940248 -0.2201497 0.6889408 0.7215666 -0.06857351 10132378 female
-0.910782 -0.2552655 -0.152762 0.3492322 -0.05011605 -0.935695 2698289 female
-0.9995733 0.2159204 -0.08687177 0.8351753 -0.5196259 -0.1801974 14606823 female
-0.5637451 0.484475 -0.2205466 0.9859511 0.01726268 0.1661395 10725291 female
-0.9914211 -0.6243076 -0.1817521 -0.9672365 0.1035825 -0.2317851 2105120 female
-0.745916 -0.1788295 -0.1757964 -0.9699211 -0.08005302 -0.2298797 1907741 female
-0.6910866 0.01965318 -0.04775371 0.04444066 0.01300664 0.9989274 2237481 female
-0.7361743 0.4415287 -0.2994477 0.01702986 -0.2739459 -0.9615943 12237251 female
-0.7602227 0.7469008 -0.1034605 0.4717008 -0.07424328 0.8786275 16246750 female
-0.6820831 0.1504944 -0.2826972 0.4445357 0.06243677 -0.8935825 12106953 female
-0.984622 -0.7025341 -0.1385452 0.06512266 -0.9899005 -0.1259208 723979 female
-0.7659762 0.6521828 -0.1547418 0.2756149 0.04793116 0.9600724 14804465 female
-0.6216303 0.5378867 -0.2842484 0.2823848 -0.135611 -0.9496676 5658203 female
-0.8860754 -0.04325395 -0.201152 0.1231332 -0.2921597 -0.9484097 2500652 female
-0.6679239 0.5865571 -0.2980629 0.3456907 0.2538282 -0.9033654 16185343 female
-0.7954474 0.7540939 -0.1090169 -0.4433673 0.003923117 0.8963315 14864572 female
-0.8674539 0.006212262 -0.02675239 0.3363462 -0.03046511 0.9412455 2171171 female
-0.6476653 -0.5434301 -0.2525776 0.5040929 -0.1405634 -0.8521339 2302502 female
-0.8709121 0.5196134 -0.0629549 -0.2928207 0.6033656 0.7417587 15133430 female
-0.8831025 -0.2454487 -0.13815 0.7955918 -0.2237646 -0.5629947 2105124 female
-0.7685513 0.2996827 -0.03286401 0.1262746 0.1389558 0.9822149 7434876 female
-0.5982204 0.1068677 -0.005555165 0.6072066 0.5060939 0.6125105 14727601 female
-0.9553174 0.5848023 -0.1312971 -0.1440298 0.3266349 0.934112 12303555 female
-0.730114 0.2918534 -0.04048824 0.412534 0.1598734 0.8968033 11053494 female
-0.648025 0.5341894 -0.1435082 0.7065633 0.1158581 0.6981011 9343641 female
-0.9751263 -0.715472 -0.05000872 -0.05558359 -0.997174 0.05054208 526089 female
-0.72299 0.4521469 -0.3024439 0.06779093 -0.280965 -0.9573208 15725567 female
-0.7536221 0.5451133 -0.09567177 -0.001987182 0.6549923 0.7556329 9145496 female
-0.6879727 0.549758 -0.1126025 0.3376696 0.6250589 0.7037618 15724543 female
-0.7626984 -0.01658981 -0.2131646 -0.6894739 -0.2813476 -0.6674349 2302243 female
-0.7810384 0.5052978 -0.3053492 -0.2595576 0.1610042 -0.9522119 13618138 female
-0.6367381 -0.5620643 -0.1920909 0.7382053 -0.1441047 0.6590044 2171682 female
-0.7321887 0.7193474 -0.1855479 0.9249048 -0.2399168 0.2949423 12429467 female
-0.654094 -0.4278927 -0.1589706 0.04044116 -0.2004767 0.9788634 2171431 female
-0.7263795 0.2709991 -0.03796284 0.4365899 0.1737237 0.8827283 4539471 female
-0.6588637 0.5996484 -0.1706588 0.30504 0.577897 0.7569582 11646908 female
-0.785604 0.01222811 -0.1319167 -0.9898014 -0.06228637 0.1281155 2169889 female
-0.7173434 0.04994289 -0.2790393 0.05954824 -0.445015 -0.8935411 2368300 female
-0.5950502 0.008202446 -0.1635093 0.9951351 -0.06891593 -0.07040317 1776161 female
-0.6086723 0.2315536 -0.1957975 -0.8415766 -0.4213392 -0.3379675 13553880 female
-0.6973602 0.8629242 -0.207923 0.984211 0.1754444 0.02340875 2368292 female
-0.6172232 0.4797415 -0.2814451 0.01048931 -0.05564477 -0.9983955 14605287 female
-0.9129295 0.2858366 -0.0909328 -0.7503111 0.289483 0.5943339 9145493 female
-0.9491175 -0.3077018 -0.07083873 0.03057958 -0.4245276 0.9048985 1776669 female
-1.023404 -0.6895325 -0.08229046 -0.4547616 0.8898637 0.03653026 16243156 female
-0.6054124 0.03327959 -0.110502 0.91511 0.03957751 0.4012572 1973537 female
-0.5560083 0.03221897 -0.06018152 0.9281449 -0.09452049 -0.3600179 16772326 female
-0.5789097 0.5715879 -0.2346133 0.7635405 0.5263094 -0.3741714 14081007 female
-0.9350597 -0.5874101 -0.1765776 0.9928983 -0.09164732 -0.07585357 1973022 female
-0.6540949 -0.5214598 -0.1779332 0.1012746 -0.1500119 0.9834836 2499878 female
-0.914353 0.3915078 -0.1260349 -0.9018977 0.007098737 0.4318914 12369863 female
-0.7698072 0.6265824 -0.1481049 0.0640917 0.5088897 0.8584425 16120317 female
-0.9780244 -0.6415881 -0.1207936 -0.6017647 0.6375226 0.4810865 2302243 female
-0.9631199 0.6141034 -0.2006642 -0.7014893 0.6613806 -0.2654965 11711421 female
-0.7643776 0.273072 -0.260975 -0.1163382 0.2050866 -0.9718049 15201279 female
-0.5980728 0.5796109 -0.1800472 0.4581783 0.3916007 0.7979483 9802653 female
-0.9867987 0.3953905 -0.2155675 -0.1530297 -0.2131232 -0.9649665 12897242 female
-0.9044168 -0.4357533 -0.1581096 0.9819181 -0.1890823 0.009203007 1842720 female
-0.9045991 0.009253333 -0.2214687 -0.1413379 -0.4879499 -0.8613527 2895412 female
-0.7296153 0.5352612 -0.0868746 0.08613499 0.6559793 0.7498479 15659774 female
-0.6327043 -0.5876418 -0.2189902 0.9754497 -0.1313897 -0.1767335 1578779 female
-0.6857365 -0.1075356 -0.2306424 -0.02960905 -0.06176933 -0.9976512 2106409 female
-1.027552 -0.6919217 -0.06756541 -0.3386799 0.9342706 0.1115099 15518401 female
-0.871671 0.3377004 -0.2484874 -0.4384262 -0.1588428 -0.8846194 15398143 female
-0.9960241 -0.6826214 -0.06725252 -0.2888965 0.9100636 0.2971919 16506325 female
-0.6618301 -0.09402387 -0.2285298 0.2666781 -0.04527864 -0.9627215 2171945 female
-0.6292748 -0.3190285 -0.1470967 0.7018724 -0.1653783 0.6928385 2040353 female
