# .PCD v0.7 - Point Cloud Data file format
VERSION 0.7
FIELDS x y z normal_x normal_y normal_z rgb label
SIZE 4 4 4 4 4 4 4 4
TYPE F F F F F F U U
COUNT 1 1 1 1 1 1 1 1
WIDTH 170
HEIGHT 1
VIEWPOINT 0 0 0 1 0 0 0
POINTS 170
DATA ascii
-0.9746229 0.1237263 -0.2318465 -0.852349 0.09222627 -0.5147771 12173512 female
-0.6826325 0.1632701 -0.2911792 0.5645415 0.06892963 -0.8225215 9803174 female
-0.9580473 -0.4196993 -0.1138647 0.4075244 -0.2899266 0.8659483 2170913 female
-0.6278188 0.1074942 -0.05761907 -0.8623202 -0.4124429 -0.2937598 6773335 female
-0.6766278 -0.3029311 -0.2540237 -0.05730008 0.3666978 -0.9285738 2698289 female
-0.6474587 -0.1944885 -0.1153183 0.6714538 -0.1710312 0.7210397 2170145 female
-0.9228421 0.3404467 -0.2366655 -0.8192014 -0.0432459 -0.5718731 15725567 female
-1.015394 -0.7045388 -0.1291351 0.06168607 -0.982337 -0.1766607 657418 female
-0.9444025 -0.510469 -0.1692542 0.953624 -0.2340192 0.1893047 1841948 female
-1.027131 0.195203 -0.03640133 0.9237844 -0.3774319 -0.06455626 12764108 female
-1.032566 0.4816808 -0.1750633 -0.9760223 0.1414573 0.1654396 7829376 female
-0.9111886 0.3280507 -0.2508849 -0.6737964 -0.04187191 -0.7377297 4078919 female
-0.9849575 -0.5278054 -0.2154131 -0.1056206 0.03634344 -0.9937422 2499883 female
-0.9825246 0.3788921 -0.144315 0.7039216 -0.06783689 0.7070308 14213617 female
-0.590115 0.5491367 -0.256372 0.8516833 0.394367 -0.3451235 14608367 female
-0.6294653 0.02126318 -0.1147908 0.8623531 0.05972592 0.5027723 1973536 female
-0.9874269 0.1581166 0.1097173 0.9414412 -0.2027168 -0.2694333 10783107 female
-0.876714 0.0672898 -0.04497248 0.3129177 0.2127199 0.9256526 2434601 female
-0.9083523 -0.2701578 -0.1241673 0.9021892 -0.2433117 -0.3561658 1973278 female
-0.6782653 -0.5871096 -0.1998024 -0.3192744 0.07928964 0.9443395 2631471 female
-0.9901416 0.4182035 -0.1357017 0.3246425 0.04027624 0.9449788 13288397 female
-0.9400039 0.3948135 -0.1648427 -0.9686213 -0.0648943 0.2399198 14607343 female
-1.074187 0.2436211 -0.06194322 -0.9852223 0.1022817 0.1373882 14474476 female
-0.6710802 0.340034 -0.1541859 0.8979242 0.1185638 0.4238806 3420469 female
-0.9427583 0.3950107 -0.1868165 -0.9972886 -0.07078768 0.02011423 14083055 female
-0.6120299 0.3605902 -0.2099931 0.02751122 -0.0009225652 0.999621 14147815 female
-0.7226408 0.2415535 -0.06539622 0.5920631 0.1336967 0.7947242 13620456 female
-0.7143185 0.2386849 -0.2857545 0.2757107 0.3293138 -0.9030703 5327965 female
-0.7279518 0.8764482 -0.2577548 0.8144358 0.4306377 -0.3889029 2631463 female
-0.7169085 0.4938932 -0.08199799 0.166431 0.4783233 0.8622688 15593213 female
-0.5714222 0.2464897 -0.2302776 0.6524275 -0.4298142 -0.6241779 11317177 female
-0.6257175 -0.4214979 -0.2426221 0.9406809 -0.04070123 -0.3368425 1579808 female
-0.9735114 -0.03889219 -0.194113 -0.5742908 -0.2319341 -0.7851093 2631470 female
-0.9067348 -0.2031439 -0.1505863 0.6088441 -0.1400155 -0.7808358 2171688 female
-0.6414802 -0.6765187 -0.22636 0.9425421 0.1617404 -0.292326 13087919 female
-0.8249549 0.8293504 -0.3069079 -0.3456251 -0.08410385 -0.9345961 14338761 female
-0.7279541 0.7645794 -0.1920793 0.9675697 -0.2422378 -0.07162236 15260103 female
-0.910697 0.6560073 -0.2455651 -0.5193672 0.7896187 -0.3267416 11582152 female
-0.9619707 0.159856 -0.09513263 -0.6859031 0.2934226 0.665913 6580853 female
-0.7863312 0.6170101 -0.3048452 -0.1952446 0.2392085 -0.9511355 11449542 female
-0.6290098 -0.1818655 -0.143692 0.9522045 -0.09819875 0.2892466 2105377 female
-0.7944524 0.3458222 -0.05831553 0.09308524 0.2181222 0.971472 15067640 female
-0.8774414 0.08206102 -0.2958488 -0.1284912 -0.2866467 -0.9493808 2960949 female
-0.7773305 0.1150666 -0.05552757 0.2820751 -0.3780889 0.8817496 4013901 female
-1.018944 0.5699422 -0.1854606 -0.8398136 0.5398812 -0.05693361 4934995 female
-0.924797 0.4155549 -0.1245622 -0.7608209 -0.4007548 0.5104383 9672086 female
-0.7149805 0.2858405 -0.2770463 0.3625238 -0.02096532 -0.9317387 13488354 female
-0.7882947 -0.06694674 -0.1651614 -0.9674946 -0.2472599 0.05307233 2433573 female
-0.6163726 -0.03825948 -0.1928727 0.9660424 -0.1217965 -0.2278765 2105122 female
-0.6517858 0.6105416 -0.2136796 0.2121227 0.8097865 0.5470373 13422293 female
-0.8599046 0.1247325 -0.05731521 -0.07465336 -0.06112709 0.9953343 2435117 female
-0.736943 0.7725862 -0.2473549 0.796191 -0.4631723 -0.3892959 2499619 female
-0.661838 0.4458022 -0.2706155 0.832962 -0.3312695 -0.4432098 13619671 female
-0.9407186 -0.2890844 -0.1604707 0.5877659 0.3019367 -0.7505767 2697257 female
-0.9824087 0.5223694 -0.2415868 -0.2317602 -0.14715 -0.961579 11053749 female
-0.8395275 0.7225241 -0.2418521 -0.8616264 0.09384691 -0.4987912 5984074 female
-0.9362454 -0.1105949 -0.02827241 0.01636192 -0.09281109 0.9955493 2171944 female
-0.6442851 0.5993594 -0.2017113 0.222413 0.6690819 0.7091276 15330803 female
-0.7858794 0.5274405 -0.09594193 0.1485473 0.6527376 0.7428777 14146792 female
-0.8970649 -0.03630381 -0.2127457 0.1543722 -0.3643041 -0.9183963 1841954 female
-0.7763634 0.8204686 -0.1159112 0.719954 0.3594499 0.5936852 14732993 female
-0.7253578 -0.1939113 -0.1141706 -0.5971085 -0.2474015 0.7630556 2170913 female
-0.9011695 0.4134007 -0.2763055 -0.5234789 -0.3179033 -0.7905108 2698546 female
-0.9528658 -0.01311839 -0.03157786 -0.392235 0.08590804 0.9158447 2368809 female
-0.6365079 -0.2748149 -0.1494311 0.8801916 -0.1515693 0.4497662 2039075 female
-0.9838539 -0.008229718 -0.1949989 -0.7120855 -0.2586514 -0.6527126 2500907 female
-0.7202911 0.3953471 -0.1008225 0.595854 0.1502471 0.788913 15724543 female
-0.6730645 0.3209791 -0.1445462 0.8619411 0.1656952 0.4791687 6183780 female
-1.00875 -0.2915541 -0.1678235 -0.5807492 0.3857028 -0.7169126 2171945 female
-0.7031122 -0.2003287 -0.1039647 -0.2878034 -0.2315514 0.9292756 2170401 female
-0.7895063 0.09890248 -0.06078787 0.1465612 -0.5749073 0.8049853 2500391 female
-0.9303076 -0.256151 -0.1476636 0.3669968 -0.03827607 -0.9294344 2631471 female
-0.9971003 -0.6891786 -0.2013225 -0.1036905 -0.9813804 -0.1616814 788489 female
-0.899942 -0.2340814 -0.08400944 0.8699385 -0.2914391 0.397832 1973534 female
-0.9610026 0.07727192 -0.2523109 -0.6884633 -0.07731086 -0.7211388 2960429 female
-1.067261 0.1333088 0.02187652 -0.8090554 -0.3523985 -0.4703666 7171965 female
-0.9229975 -0.006060749 -0.226881 -0.1292119 -0.4578844 -0.8795716 2763826 female
-1.006628 -0.6585954 -0.2289467 -0.8311799 0.2590367 -0.4919756 16770006 female
-0.6142716 0.2081633 -0.1437776 -0.8102027 0.2721321 0.519149 14147056 female
-0.6924301 -0.08610628 -0.07853793 0.03339416 -0.1765266 0.9837293 2171944 female
-1.052005 0.275757 -0.05831687 -0.200874 0.6417449 0.7401441 14872823 female
-0.6501337 0.4790421 -0.2144256 0.976678 -0.1950943 0.0896569 14079966 female
-1.034158 0.3897771 -0.1389316 -0.5163246 0.2989392 0.8025237 14016221 female
-0.9780477 -0.3966955 -0.09887582 0.1391722 -0.2909799 0.9465526 2169889 female
-0.9386138 -0.2893393 -0.1590117 0.6125899 0.2885987 -0.735829 2631464 female
-0.9191937 0.3957403 -0.2561742 -0.7415591 -0.1979169 -0.6410296 14278120 female
-0.7673677 -0.125425 -0.198922 -0.9150829 -0.2075632 -0.3457469 1972766 female
-0.6141195 0.06352118 -0.1700367 0.9897224 0.08429443 0.1155156 1908257 female
-0.7599168 0.8336565 -0.3026434 0.4887707 -0.02750473 -0.8719786 2696225 female
-0.6044871 0.05855115 -0.02251434 -0.9359719 -0.3502285 0.03600905 10193288 female
-0.8666645 -0.02584648 -0.2082728 0.4455068 -0.4055538 -0.7981539 2697257 female
-0.8266802 0.06808715 -0.2869369 -0.1254865 -0.5215098 -0.8439672 2565678 female
-0.9991904 -0.2579198 -0.153041 -0.5199917 0.3454961 -0.7811793 2565673 female
-0.9525748 0.2704936 -0.2078544 -0.8310042 0.440168 -0.3401239 9607587 female
-0.7627969 -0.1512173 -0.1937327 -0.9467043 -0.1641712 -0.277126 2170913 female
-0.6642493 0.2883572 -0.2272025 0.9092691 0.07597084 -0.4092165 14082023 female
-0.7357426 -0.3683862 -0.2169347 -0.9955098 0.025055 0.09128233 1776161 female
-0.7823027 0.4749486 -0.0735121 0.1281981 0.1089742 0.9857433 14013410 female
-0.8382438 -0.05286377 -0.112828 0.950918 -0.2965311 0.08845471 2499627 female
-0.9519953 0.6346083 -0.2044803 -0.4814421 0.8656143 0.1375698 12370114 female
-0.6240987 -0.0645321 -0.1221155 0.9143862 -0.07783629 0.3972903 1973537 female
-0.6449728 -0.6631224 -0.2364226 0.9520539 0.05633437 -0.3006989 2105376 female
-1.010047 -0.5697001 -0.1908019 -0.9591289 -0.04101738 -0.2799809 1579032 female
-0.608836 0.5913445 -0.2399767 0.686876 0.723603 -0.06782318 10132378 female
-0.933682 -0.2526378 -0.1485642 0.3207404 -0.03871262 -0.9463757 2698289 female
-1.018693 0.2239433 -0.08883068 0.7723097 -0.5872746 -0.2421698 9474457 female
-0.5890774 0.4597071 -0.2723134 0.8935194 0.03014224 -0.4480118 15461628 female
-1.010553 -0.6524935 -0.1312846 -0.6646729 0.6802799 0.308916 15785175 female
-0.7583345 -0.1544502 -0.2047843 -0.8842539 -0.1477359 -0.4430228 2170914 female
-0.6826714 -0.001928928 -0.06987445 0.2756389 -0.003971265 0.961253 2499878 female
-0.7179639 0.4274991 -0.3098935 0.2910258 -0.3511635 -0.8899372 9606042 female
-0.7971926 0.7762545 -0.1131949 -0.3647907 0.2171861 0.9054049 14598581 female
-0.7390783 0.1973885 -0.3043459 0.08593876 0.2806821 -0.9559456 15200255 female
-1.02514 -0.6909805 -0.1695946 -0.6347515 -0.6587432 -0.4039157 526344 female
-0.7549399 0.6418502 -0.186583 0.6141087 0.2956508 0.731752 13751003 female
-0.6079583 0.5628686 -0.2745785 0.614687 0.4245223 -0.6647862 15724791 female
-0.8958642 -0.03462276 -0.2134869 0.1638981 -0.3690546 -0.9148421 2105124 female
-0.6836175 0.5586886 -0.3193412 0.3607066 0.02260764 -0.9324053 11383490 female
-0.7960832 0.7599905 -0.1113652 -0.3754252 -0.2854634 0.8817973 11637910 female
-0.8465161 -0.009744506 -0.06322285 0.7334824 -0.1599308 0.6606253 2170913 female
-0.6568717 -0.5570978 -0.2633245 0.6674877 -0.1484688 -0.7296693 1973281 female
-0.8849332 0.5144662 -0.07663183 -0.2642882 0.5898267 0.7630572 15133430 female
-0.9069151 -0.2313815 -0.1410806 0.6907145 -0.1681549 -0.7033045 2236967 female
-0.7820584 0.2957909 -0.05381108 0.1602897 0.1336314 0.9779825 7434876 female
-0.6307208 0.1146985 -0.007663812 0.2103636 0.8961911 0.390626 16374739 female
-0.9530177 0.5008926 -0.1528298 0.6962587 -0.3402598 0.6320183 15725559 female
-0.7401558 0.2481078 -0.05582029 0.4632807 0.1539781 0.8727323 5130576 female
-0.6560949 0.5143819 -0.1801869 0.8622692 -0.2651437 0.4314983 14080999 female
-0.9678521 -0.6954176 -0.1026354 0.9160571 -0.4007126 -0.01639512 6641752 female
-0.7516813 0.4496135 -0.3223641 0.000121857 -0.2519292 -0.9677457 15462391 female
-0.7686863 0.5400319 -0.1127673 0.02726413 0.638958 0.7687583 9145496 female
-0.7037297 0.5447196 -0.1318082 0.3640918 0.6084327 0.7051573 15724543 female
-0.7662118 -0.0544224 -0.2305285 -0.6362823 -0.2436793 -0.7319598 2237481 female
-0.8138822 0.4929689 -0.3217065 -0.2007736 0.04678167 -0.97852 15526648 female
-0.6498082 -0.5809058 -0.2108009 0.7918464 -0.1087734 0.6009557 2434085 female
-0.7492451 0.7153314 -0.1987308 0.9317499 -0.2599607 0.2535006 12429467 female
-0.6655756 -0.4624946 -0.1810999 0.0795203 -0.2067759 0.9751514 2105379 female
-0.728219 0.271223 -0.06861298 0.5700301 0.1708773 0.8036582 14342371 female
-0.6767892 0.5959809 -0.1892208 0.3229971 0.5636866 0.7602173 11646908 female
-0.7874014 -0.03442036 -0.1238396 -0.9036029 -0.2144057 0.3708531 1579295 female
-0.7974226 0.07491054 -0.3030661 -0.2907679 -0.3088962 -0.9055591 2764858 female
-0.6190934 -0.006656164 -0.1347944 0.9462986 -0.008049031 0.3231937 1973537 female
-0.6352315 0.2698464 -0.2113172 -0.9336695 0.05885612 0.3532665 15198199 female
-0.7183718 0.8715879 -0.232427 0.924051 0.3495842 -0.1546629 2039327 female
-0.6403523 0.4715579 -0.3011924 -0.07916396 -0.08732666 -0.9930293 5920355 female
-0.9311652 0.2878582 -0.1131144 -0.7699417 0.2749427 0.5758439 7960958 female
-0.9677409 -0.2928885 -0.05919536 0.04224102 -0.5282969 0.8480083 2630696 female
-1.050898 -0.692494 -0.1047447 -0.8819123 0.4336438 -0.1848886 14534080 female
-0.650067 0.1173833 -0.1116597 0.6966822 0.2320459 0.6788141 15330809 female
-0.5932921 0.03637107 -0.06401783 -0.9543913 -0.2968644 0.03176079 15061196 female
-0.5993686 0.5747482 -0.2469841 0.7821793 0.5839046 -0.2173732 13883363 female
-0.9588027 -0.578369 -0.1990575 0.9539106 -0.1043961 -0.2813467 2039327 female
-0.6631266 -0.3806846 -0.1641837 0.1476174 -0.1906087 0.9705037 2170403 female
-0.9121256 0.4205056 -0.1019621 -0.6023167 -0.572483 0.5563073 14079458 female
-0.7862276 0.6225513 -0.1629101 0.09620731 0.4888796 0.86703 16120317 female
-1.00656 -0.6160063 -0.1599245 -0.8952394 0.1424191 0.4222125 2499878 female
-0.9810239 0.6128229 -0.2083573 -0.7042991 0.6727172 -0.2267475 11711421 female
-0.7985654 0.2491272 -0.2864901 -0.1057372 0.3134001 -0.943716 13948650 female
-0.6116209 0.5494007 -0.1965743 0.40894 0.1488123 0.900346 5789280 female
-1.009495 0.3938198 -0.2187008 -0.2005896 -0.2305616 -0.9521582 12897242 female
-0.921931 -0.3989737 -0.1632337 0.9840536 -0.09426322 -0.1508408 1776673 female
-0.9377205 -0.02072634 -0.2171497 -0.2343408 -0.3665734 -0.9003934 2763826 female
-0.7444778 0.5298827 -0.1050017 0.1151032 0.6400313 0.7596783 15659774 female
-0.650695 -0.6212029 -0.2109611 0.8812865 0.0788286 0.4659615 2829616 female
-0.6659868 -0.06376863 -0.2445179 0.3860485 -0.1424035 -0.9114208 2303275 female
-1.055543 -0.6931289 -0.08187791 -0.8447646 0.5318027 -0.05965402 10982285 female
-0.8575137 0.2387852 -0.2814958 -0.1676969 0.3061453 -0.937098 15201018 female
-1.00767 -0.6688647 -0.09876727 -0.3595274 0.8573315 0.3684058 15452607 female
-0.6790073 -0.1237681 -0.2453719 0.2214224 -0.06988158 -0.9726709 2171945 female
-0.645305 -0.3291351 -0.1595373 0.6125084 -0.1801384 0.7696646 1777187 female
