# .PCD v0.7 - Point Cloud Data file format
VERSION 0.7
FIELDS x y z normal_x normal_y normal_z rgb label
SIZE 4 4 4 4 4 4 4 4
TYPE F F F F F F U U
COUNT 1 1 1 1 1 1 1 1
WIDTH 170
HEIGHT 1
VIEWPOINT 0 0 0 1 0 0 0
POINTS 170
DATA ascii
-0.8818913 0.138652 0.8257928 -0.8345629 0.09463339 -0.542724 8618891 female
-0.5789757 0.1684549 0.7959676 0.6681243 0.07639217 -0.7401177 9803174 female
-0.8674371 -0.4277093 0.9186447 0.2510546 -0.2707201 0.929345 2170913 female
-0.5725961 0.1214511 1.054209 -0.7906823 -0.4312668 -0.4345463 6773335 female
-0.5853706 -0.2974919 0.8278319 0.08448209 0.3946829 -0.9149253 2698289 female
-0.6045593 -0.1790328 0.9846373 0.06306424 -0.2433649 0.9678825 2171688 female
-0.8124169 0.3716481 0.7911841 -0.5330831 -0.2718911 -0.8011852 15199223 female
-0.9269721 -0.7151199 0.9269388 0.01590457 -0.9963433 -0.08394649 855565 female
-0.8461936 -0.5399844 0.8535233 0.9788511 -0.186331 0.0844468 1776929 female
-0.9498364 0.2361373 0.9514728 0.246177 -0.8383684 -0.486349 10921901 female
-0.9361904 0.4822748 0.8272015 -0.8214045 -0.007872168 -0.5702918 13553631 female
-0.8749892 0.2596451 0.9117825 -0.8876048 0.4020701 0.2247161 13753065 female
-0.9042926 -0.4660025 0.824636 -0.5376169 -0.03275209 -0.8425528 2170401 female
-0.9263086 0.3829216 0.9151503 0.06819691 0.1834705 0.9806569 9079699 female
-0.4967918 0.5519816 0.836198 0.9006217 0.3831114 -0.205198 14608367 female
-0.5447135 -0.01158342 0.9722207 0.8372989 -0.02582087 0.5461354 1973536 female
-0.9265313 0.1821913 1.17532 0.3329066 -0.9429104 0.009650004 7890015 female
-0.8675931 0.03873884 1.007868 -0.5028823 0.1439094 0.8522907 2500651 female
-0.8082501 -0.2390845 0.9534638 0.7999229 -0.295346 0.5223926 2105120 female
-0.5925518 -0.5592688 0.8747084 -0.1327651 -0.07412441 0.9883719 2171937 female
-0.890406 0.3923535 0.896146 0.7864257 -0.07652105 0.6129267 7040379 female
-0.8573145 0.430494 0.909898 -0.8913801 -0.3417056 0.29779 10987703 female
-0.9947471 0.2380382 0.9994807 -0.9780066 -0.1581789 -0.1359504 4868692 female
-0.6583488 0.3568169 0.9943102 0.4904384 0.1940612 0.8495943 15199231 female
-0.8554915 0.3793994 0.8595294 -0.9898255 -0.05781358 -0.1300114 15001836 female
-0.5408939 0.3727188 0.8888138 -0.4695492 0.02270913 0.8826142 7829371 female
-0.6503665 0.2485888 1.014446 0.4771592 0.1612641 0.863894 13620456 female
-0.6071942 0.2259804 0.7924534 0.4022528 0.3111556 -0.8610313 6514804 female
-0.631101 0.874454 0.7875178 0.8664741 0.4008175 -0.2976038 2631463 female
-0.6560645 0.4855748 0.9958788 -0.0761342 0.2283928 0.9705877 14606327 female
-0.4980861 0.2565871 0.8700435 0.433383 -0.594813 -0.6770352 12237763 female
-0.5391733 -0.4174061 0.8423864 0.9782283 -0.05548847 -0.1999758 1579808 female
-0.874081 -0.03786703 0.8466608 -0.4570958 -0.206249 -0.8651733 2631470 female
-0.8060591 -0.2034256 0.8864068 0.7033126 -0.09308816 -0.7047595 2171688 female
-0.5625833 -0.6722029 0.8473887 0.9780563 0.1444571 -0.1501271 13087919 female
-0.7206094 0.8239114 0.7285632 -0.210464 -0.1533151 -0.9655047 14338761 female
-0.6462771 0.7546178 0.8472771 0.8835763 -0.462903 -0.07080793 14206391 female
-0.8057178 0.6393624 0.7667388 -0.3172099 0.515688 -0.7958918 12369607 female
-0.85987 0.1650887 0.9719713 -0.5954332 0.1872853 0.7812705 3552582 female
-0.683698 0.6134205 0.7501786 -0.05237905 0.18073 -0.982137 11449542 female
-0.5734491 -0.1655364 0.9766436 0.5610396 -0.2056859 0.8018278 1974050 female
-0.7240624 0.3387347 1.011911 -0.04275673 0.1959765 0.979676 15725567 female
-0.739264 0.07239253 0.7744308 0.1120592 -0.4444581 -0.888763 2435119 female
-0.6797405 0.2273585 1.02986 0.2651346 0.05486173 0.9626493 15002619 female
-0.9303653 0.5758394 0.8415626 -0.8139755 0.5404657 -0.2129337 5856354 female
-0.8517071 0.4100816 0.9050691 -0.9216495 -0.203005 0.330683 13620448 female
-0.6431417 0.2719811 0.7946644 0.2117057 0.1120484 -0.9708892 15200255 female
-0.7092096 -0.03328762 0.9036314 -0.9810499 -0.171206 -0.09071708 3290426 female
-0.5278822 -0.03626815 0.9017359 0.9857494 -0.1411091 -0.09157782 2105122 female
-0.5388341 0.6106272 0.8462529 0.5048345 0.8530241 0.132257 11645363 female
-0.7943971 0.1401296 1.002571 -0.3110151 -0.08202396 0.9468588 15133438 female
-0.6614735 0.7229183 0.8104689 0.858706 -0.1671204 -0.4844531 4866113 female
-0.5641761 0.4561252 0.8977824 0.9667427 -0.1520612 0.2056357 6973546 female
-0.8705814 -0.3185974 0.8398499 0.1501218 0.3524902 -0.9236959 2697774 female
-0.9323777 0.5508471 0.8243982 -0.7973104 0.3256648 -0.5081718 7171710 female
-0.7498454 0.7137381 0.8032747 -0.8045167 0.1616224 -0.5715166 10981510 female
-0.868658 -0.1116179 1.007646 -0.3278041 -0.127947 0.9360417 2171944 female
-0.5748493 0.6033578 0.8767473 0.05386394 0.6954874 0.7165165 16251135 female
-0.683879 0.5396261 0.9580814 -0.03231148 0.6877303 0.7252468 15660798 female
-0.8336437 0.01538487 0.8148207 -0.1778819 -0.5055051 -0.8442882 3157808 female
-0.7085377 0.8260326 0.9260157 -0.6889639 0.4860553 0.5376604 14072240 female
-0.6465112 -0.1858725 0.968289 -0.6373658 -0.2479601 0.7295756 2170401 female
-0.8023573 0.4110941 0.7746001 -0.4066391 -0.3663276 -0.8369282 2698546 female
-0.875266 -0.02110707 1.010332 -0.5114654 0.01754222 0.8591248 2368809 female
-0.5599515 -0.2733093 0.9380847 0.804047 -0.1853668 0.5649313 2039075 female
-0.8854874 -0.007632563 0.8461095 -0.6106371 -0.2473248 -0.7522983 2500907 female
-0.6656976 0.4077932 0.9817265 0.3294287 0.2593181 0.9078716 15791103 female
-0.575367 0.3570288 0.852592 0.9674581 -0.1583315 -0.1973727 13882588 female
-0.9179012 -0.3694173 0.9243976 -0.7227017 -0.1291731 0.678982 2565671 female
-0.6289786 -0.1861997 0.9793485 -0.3618188 -0.2466671 0.8990231 2170660 female
-0.687658 0.1794503 1.027906 0.259579 -0.1895198 0.9469429 4606287 female
-0.8412992 -0.2188113 0.8753054 0.2051517 -0.04359299 -0.9777589 2565419 female
-0.9048748 -0.6973719 0.843608 -0.181365 -0.9608148 -0.2096226 921102 female
-0.8032603 -0.2527626 0.9356571 0.9078303 -0.3010764 0.2918855 2038559 female
-0.8769909 0.08692431 0.8131889 -0.7473068 -0.02322173 -0.6640733 2565935 female
-0.9921341 0.1456269 1.088906 -0.7030389 -0.4728195 -0.5312042 15201279 female
-0.8342919 0.003398901 0.8216924 -0.1292684 -0.4336272 -0.8917719 2566447 female
-0.9084616 -0.66064 0.8245524 -0.8672205 0.2706931 -0.4179163 15717326 female
-0.5435616 0.2103289 0.9727225 -0.9156041 0.2782688 0.2902336 11381437 female
-0.6208569 -0.08391199 1.003145 -0.1106817 -0.1890906 0.9757019 2171944 female
-0.9887056 0.2510477 1.02603 -0.7717459 0.5146472 0.3735592 6250344 female
-0.562233 0.4824211 0.8671631 0.9539268 -0.1801083 0.2399681 14079966 female
-0.9606076 0.4021294 0.8889039 -0.8723176 0.3508491 0.340539 12042183 female
-0.9097069 -0.3684683 0.9338915 -0.5320424 -0.1694092 0.8295971 2631464 female
-0.8913348 -0.338169 0.8315209 -0.204166 0.2898935 -0.9350283 2302505 female
-0.8337913 0.4020124 0.8050131 -0.7651522 -0.2855467 -0.5770661 5460312 female
-0.6781796 -0.1607536 0.896402 -0.9788591 -0.1283652 -0.1592398 1841436 female
-0.5263979 0.06637281 0.9261065 0.9648848 0.06963986 0.2532736 1908257 female
-0.6527988 0.8195332 0.7467035 0.6677876 -0.1743832 -0.7236368 3420972 female
-0.5565718 0.07423634 1.09519 -0.9342692 -0.3324248 -0.1289763 9864324 female
-0.7698378 -0.04701354 0.8586178 0.6243557 -0.3141032 -0.7152056 2498854 female
-0.7604839 0.1001083 0.762355 0.04951014 -0.1846287 -0.9815605 5263457 female
-0.8984261 -0.1771336 0.9839458 -0.722628 -0.09097058 0.6852249 2170657 female
-0.8228343 0.2859774 0.8107818 -0.5446464 0.1320806 -0.8281999 5524558 female
-0.6742105 -0.1947161 0.890385 -0.9774947 -0.0624992 -0.2014892 1776155 female
-0.5697051 0.2850258 0.8670622 0.955735 0.171057 -0.2393954 4343106 female
-0.6452011 -0.3309815 0.8476315 -0.8977255 0.1728232 -0.405242 2039329 female
-0.6996579 0.5089985 0.9794191 -0.06989635 0.457174 0.8866264 14015206 female
-0.7231928 0.0383818 0.8629006 0.4908975 -0.8344412 -0.2504545 1315860 female
-0.8615907 0.6325318 0.8514465 -0.173883 0.9276501 0.3304997 12894660 female
-0.5464614 -0.0635149 0.9701771 0.8470354 -0.1059005 0.5208801 1973537 female
-0.5643436 -0.6584769 0.8372896 0.986378 0.0393028 -0.1597302 2105376 female
-0.8655029 -0.4070682 0.9243357 0.2602819 -0.2729407 0.9261515 2170913 female
-0.5927236 0.6077107 0.876667 0.1745681 0.6627481 0.7282108 10264740 female
-0.8409374 -0.2246727 0.8760803 0.2238879 -0.04475971 -0.9735866 2500140 female
-0.9326289 0.252005 0.9403436 0.6819518 -0.6757464 -0.2798366 13816027 female
-0.4926652 0.461358 0.8283899 0.963675 0.006516729 -0.2669981 15461628 female
-0.9105711 -0.6246845 0.8376968 -0.9468654 0.1125742 -0.3012856 2105120 female
-0.6743028 -0.1769689 0.8840963 -0.9407631 -0.07091231 -0.3315662 1907741 female
-0.6481237 0.01099446 1.011518 -0.2447127 -0.0272759 0.9692119 2171945 female
-0.616155 0.4261084 0.7657837 0.4137602 -0.3930862 -0.8211491 9606042 female
-0.7017995 0.7554008 0.9344692 0.2615203 -0.2248958 0.9386315 15585228 female
-0.5987138 0.1507654 0.7791262 0.528666 0.05600566 -0.8469803 12106953 female
-0.9073786 -0.7036173 0.8799725 0.06705279 -0.9882199 -0.1375695 723979 female
-0.6994806 0.6480333 0.8835816 0.1391012 0.1548626 0.9780943 13357275 female
-0.5110059 0.5641235 0.813934 0.7244912 0.3884383 -0.5694104 15724791 female
-0.8067943 -0.04352291 0.8401223 0.2127114 -0.2790156 -0.9364316 2500652 female
-0.5838552 0.5820518 0.7562268 0.4744793 0.2179608 -0.8528554 16185343 female
-0.7240076 0.7509586 0.9290614 -0.5299062 0.05228143 0.8464432 15719882 female
-0.8046383 0.003820681 1.01562 0.2519241 -0.03909788 0.9669569 2171171 female
-0.5699591 -0.551414 0.8125678 0.7619596 -0.1439993 -0.6314125 1973281 female
-0.8368067 0.5261051 0.945278 -0.6308303 0.4734252 0.6147533 13949156 female
-0.8066297 -0.233251 0.8937419 0.7710679 -0.1356521 -0.6221357 2236967 female
-0.6916814 0.3020826 1.016506 0.1509733 0.1851251 0.9710488 6316394 female
-0.588386 0.124469 1.118075 0.6092499 0.6312035 0.4799965 14468016 female
-0.8676828 0.5251964 0.8873658 0.4902922 -0.3946804 0.777072 8684168 female
-0.6556272 0.2405345 1.018844 0.4406071 0.1362544 0.8872993 13357798 female
-0.5733441 0.5198215 0.898263 0.789448 -0.2285053 0.5696992 14080999 female
-0.8766047 -0.7065204 0.9568142 0.935386 -0.3228735 0.1442419 6706519 female
-0.6478858 0.4468702 0.747644 0.1363441 -0.3036365 -0.942982 15462391 female
-0.7399043 0.5405748 0.9603611 0.1103577 0.6834362 0.7216206 15396344 female
-0.6097109 0.4889503 0.9842672 0.5031544 0.2997747 0.8105373 7895428 female
-0.6849045 -0.01537517 0.8424507 -0.6173151 -0.2856143 -0.7330393 2302243 female
-0.7093259 0.5037806 0.7405717 -0.09617257 0.2262485 -0.9693103 15396607 female
-0.5730084 -0.5880831 0.8645025 0.6977054 -0.104973 0.7086521 1907998 female
-0.6629764 0.70371 0.8541823 0.8642682 -0.1031699 0.4923377 14993595 female
-0.5698078 -0.4959781 0.8842577 0.4209505 -0.2267151 0.8782943 2171428 female
-0.6547613 0.2594715 1.014197 0.451347 0.1854516 0.8728652 12895958 female
-0.5992202 0.5993119 0.8859606 0.185475 0.6080578 0.7719228 10987956 female
-0.7091895 -0.02075616 0.9414282 -0.9664193 -0.1721755 0.1907599 1907741 female
-0.6325826 0.05007135 0.7810453 0.1528843 -0.4557554 -0.8768771 2368300 female
-0.5380245 -0.005189529 0.9593149 0.8910605 -0.03261375 0.4527113 1973537 female
-0.54864 0.2800698 0.8956032 -0.9538947 0.1548191 0.2571301 9147032 female
-0.6231761 0.86048 0.8315344 0.9783332 0.1655611 0.1243125 2368292 female
-0.5374218 0.4700091 0.7888222 0.1116707 -0.1693518 -0.9792086 5920355 female
-0.8476611 0.3016137 0.9398754 -0.8322213 0.2378074 0.5008547 14146793 female
-0.8873032 -0.3189992 0.9521586 -0.2584749 -0.2915389 0.9209755 2301987 female
-0.9643359 -0.6965294 0.9588745 -0.4315626 0.8404928 0.3276059 1249037 female
-0.5391053 0.03486224 0.9610124 0.8679994 0.0392127 0.4950145 1973537 female
-0.5328417 0.05061609 1.066008 -0.3205492 0.02236366 0.9469678 8217185 female
-0.5077428 0.5781189 0.8415855 0.8048005 0.5835283 -0.1085863 13883363 female
-0.8560187 -0.6072218 0.8499722 0.995454 0.0164151 -0.09381822 2105893 female
-0.5787532 -0.5729591 0.8708237 0.4261066 -0.1177288 0.89698 2171172 female
-0.8499475 0.3911368 0.9059575 -0.94113 0.00522446 0.3380045 12369863 female
-0.6766835 0.6324055 0.8828311 0.2779762 0.6263705 0.7282783 15396082 female
-0.901712 -0.6431655 0.8991808 -0.6326452 0.6324338 0.4469761 2302243 female
-0.8903571 0.6154443 0.8206362 -0.6621861 0.6588515 -0.3569653 11711421 female
-0.6960868 0.2513795 0.7849276 0.01628311 0.2983903 -0.954305 13948650 female
-0.5289761 0.5563373 0.8903669 0.2312894 0.2228626 0.947015 5789280 female
-0.9080261 0.321106 0.8654686 0.6885411 -0.4985172 -0.5266799 9147031 female
-0.8256799 -0.4369344 0.872618 0.978511 -0.190144 0.07975944 1842720 female
-0.8569945 0.03769477 0.8122936 -0.4690984 -0.3880593 -0.7933201 2631465 female
-0.662552 0.5342419 0.96267 0.0294334 0.6754063 0.7368582 14606319 female
-0.5727751 -0.6171305 0.862949 0.8069475 0.04173031 0.589147 2829616 female
-0.607789 -0.1070386 0.8347604 0.07678137 -0.07329305 -0.9943504 2106409 female
-0.9585236 -0.6941329 0.9451948 -0.4385791 0.898183 0.03026047 15651273 female
-0.7937909 0.3340421 0.7906713 -0.3436655 -0.1930327 -0.9190389 15398143 female
-0.9002836 -0.6602274 0.9233961 -0.2119554 0.8557919 0.4719059 16443357 female
-0.5841076 -0.09373526 0.8391965 0.3678797 -0.05929257 -0.9279811 2171945 female
-0.5684337 -0.3271188 0.9250876 0.4919924 -0.219012 0.8426015 1777187 female
