# .PCD v0.7 - Point Cloud Data file format
VERSION 0.7
FIELDS x y z normal_x normal_y normal_z rgb label
SIZE 4 4 4 4 4 4 4 4
TYPE F F F F F F U U
COUNT 1 1 1 1 1 1 1 1
WIDTH 170
HEIGHT 1
VIEWPOINT 0 0 0 1 0 0 0
POINTS 170
DATA ascii
-0.9507465 0.1512111 -0.2510373 -0.7399884 0.05767876 -0.6701419 14936567 female
-0.6773946 0.16717 -0.281039 0.5736474 0.07200392 -0.8159314 9803174 female
-0.9550036 -0.422799 -0.1106043 0.3386915 -0.2693935 0.9015071 2170913 female
-0.6209744 0.1165766 -0.05951113 -0.9464236 0.09511357 -0.3086031 9603460 female
-0.666264 -0.3170251 -0.2516569 0.07495842 0.3252579 -0.9426497 2237738 female
-0.6738455 -0.177826 -0.08944584 0.1944181 -0.2288287 0.9538548 2171688 female
-0.9143896 0.3521349 -0.2377013 -0.7579518 -0.1678122 -0.6303555 6251625 female
-0.9755813 -0.6985077 -0.1317527 0.2490056 -0.959759 -0.1298416 3946293 female
-0.9390597 -0.5348435 -0.1777229 0.9838452 -0.1788717 -0.007321994 1776929 female
-1.022292 0.1900059 -0.03949289 0.9277924 -0.3662063 -0.07137378 12764108 female
-1.02978 0.4822676 -0.1718772 -0.9787712 0.1265146 0.1612487 7829376 female
-0.9021347 0.3314404 -0.2487729 -0.6090678 -0.08126697 -0.7889436 7566207 female
-0.9929964 -0.4643857 -0.2055952 -0.4200661 -0.01864013 -0.9073021 1973537 female
-0.9783646 0.3801174 -0.1411603 0.7009366 -0.061702 0.7105495 14213617 female
-0.5868394 0.5563791 -0.2399902 0.9074013 0.402045 -0.1224035 13620701 female
-0.6259723 0.02437925 -0.104428 0.8567478 0.05609491 0.5126759 1973536 female
-0.9835892 0.1467115 0.1051269 0.9453345 -0.1827691 -0.2700707 10783107 female
-0.9408354 0.04513179 -0.03358443 -0.3982766 0.1837707 0.8986679 2500651 female
-0.8938379 -0.2348484 -0.08252876 0.8482653 -0.2925137 0.4414541 2105120 female
-0.6661753 -0.5602119 -0.1879561 0.001821917 -0.03790348 0.9992797 2171937 female
-0.9866135 0.4192639 -0.1325518 0.3198029 0.04075756 0.9466071 13288397 female
-0.9357669 0.4241671 -0.1362195 -0.8569123 -0.3533319 0.3753105 14082023 female
-1.069641 0.2270226 -0.06135558 -0.9977974 -0.06420632 -0.0166732 5397866 female
-0.6682173 0.3445709 -0.1451009 0.89385 0.129491 0.4292602 3420469 female
-0.9404782 0.4094248 -0.1660568 -0.9634143 -0.2108416 0.1654655 3553086 female
-0.6233739 0.3702028 -0.2039526 -0.2849267 -0.04373873 0.9575509 7829371 female
-0.7110921 0.2680498 -0.06893352 0.6453046 0.1771063 0.743112 6184287 female
-0.7256095 0.2242343 -0.2865928 0.1386708 0.3077752 -0.9412995 11844804 female
-0.7284686 0.8787807 -0.260029 0.8127968 0.4262187 -0.3971133 2631463 female
-0.715301 0.4995703 -0.07576684 0.158082 0.4930515 0.8555175 15593213 female
-0.5718485 0.2573563 -0.2345742 0.571894 -0.4296428 -0.6988164 9738144 female
-0.6215211 -0.4185516 -0.2326791 0.9443495 -0.04166788 -0.326294 1579808 female
-0.9671255 -0.03668118 -0.1907262 -0.557852 -0.2234224 -0.7993019 2631470 female
-0.8985049 -0.2015273 -0.1510546 0.6209444 -0.1237216 -0.774029 2171688 female
-0.6371644 -0.6736049 -0.2151389 0.9450905 0.159356 -0.2853236 13087919 female
-0.8249344 0.8296559 -0.3082185 -0.3418624 -0.1120464 -0.9330465 14338761 female
-0.7269971 0.7732866 -0.2122805 0.9256945 -0.2164661 0.3102131 16046798 female
-0.9154458 0.650337 -0.2496272 -0.5291987 0.6880658 -0.4965019 12437462 female
-0.9532008 0.1807993 -0.09015493 -0.6894907 0.2035111 0.6951157 7039086 female
-0.7927129 0.6073585 -0.3018841 -0.2306348 0.2030947 -0.9516092 15528188 female
-0.6443546 -0.1638293 -0.1014854 0.6651008 -0.1831159 0.7239541 1974050 female
-0.7923825 0.3506779 -0.05027451 0.08416419 0.2289567 0.9697914 15067640 female
-0.8581159 0.06185584 -0.2788738 0.003698109 -0.4835062 -0.8753331 2566703 female
-0.7478376 0.2252553 -0.03688929 0.3821493 0.04065424 0.9232059 15002619 female
-1.01867 0.5540421 -0.1599945 -0.8241609 0.3721932 0.4268852 7304056 female
-0.9224771 0.4190895 -0.1182767 -0.7614087 -0.3980318 0.5116907 9672086 female
-0.7107126 0.2890908 -0.2675683 0.3714133 -0.02365515 -0.9281663 13488354 female
-0.7844846 -0.06331946 -0.1569383 -0.968565 -0.2453375 0.04112519 2433573 female
-0.6126733 -0.0543339 -0.1638677 0.9925335 -0.1098438 -0.05302443 1908509 female
-0.6502303 0.6144611 -0.2094194 0.2080475 0.8195395 0.5339207 13422293 female
-0.8632985 0.1098426 -0.04799698 0.1301738 0.08047315 0.98822 2566703 female
-0.7541428 0.7257159 -0.2402191 0.7839758 -0.1377129 -0.6053239 4866113 female
-0.6589381 0.4489512 -0.2633239 0.8373719 -0.3323958 -0.43396 13619671 female
-0.9664391 -0.3138872 -0.1884472 0.0595448 0.3516802 -0.9342245 2697774 female
-0.9912223 0.5253262 -0.2347875 -0.3189086 -0.03232122 -0.9472342 9671839 female
-0.8389716 0.7245564 -0.2402944 -0.8608174 0.07447261 -0.5034353 5984074 female
-0.9449484 -0.1048646 -0.02772176 -0.2208838 -0.08662866 0.9714453 2171944 female
-0.6426805 0.6035014 -0.1972588 0.2190365 0.6812563 0.6985075 15330803 female
-0.784449 0.5324311 -0.09057979 0.1405755 0.6656822 0.7328749 14146792 female
-0.8996416 -0.04208506 -0.2053301 0.106201 -0.3177467 -0.9422093 2500651 female
-0.7826945 0.8353301 -0.118545 -0.08798222 0.01866932 0.9959471 15654094 female
-0.7173886 -0.1857659 -0.1001635 -0.5305229 -0.2510938 0.8096278 2170401 female
-0.8978777 0.4148954 -0.2698083 -0.5160795 -0.3329717 -0.7891716 2698546 female
-0.9493899 -0.01415555 -0.02783941 -0.408874 0.06027161 0.9105984 2368809 female
-0.6334559 -0.2714435 -0.1404441 0.8751471 -0.1508234 0.4597498 2039075 female
-0.9779471 -0.006162144 -0.1910862 -0.6979641 -0.2556539 -0.6689448 2500907 female
-0.7180602 0.4004735 -0.09295505 0.5899364 0.1652595 0.7903571 15724543 female
-0.6661323 0.3341281 -0.1469267 0.9049728 0.1600207 0.3942304 13752800 female
-0.989372 -0.2830107 -0.1688809 -0.3748658 0.409847 -0.8315655 2303275 female
-0.698567 -0.185548 -0.09147849 -0.2351578 -0.2413248 0.9415217 2170660 female
-0.7546151 0.170182 -0.04021324 0.4009298 -0.2111006 0.8914549 15133177 female
-0.9348581 -0.2160469 -0.1572828 0.09833322 -0.06702472 -0.9928939 2565419 female
-0.979641 -0.6938299 -0.1788948 0.01000627 -0.996901 -0.07802755 593934 female
-0.8908383 -0.2487637 -0.100395 0.9312576 -0.3026995 0.2028107 2038559 female
-0.9634227 0.09437611 -0.2381102 -0.7575711 0.01465061 -0.6525882 3025454 female
-1.037939 0.115523 0.03571857 0.9495836 -0.3132612 0.01258719 6642776 female
-0.9211754 -0.01911925 -0.2138634 -0.1226799 -0.3549133 -0.9268151 2697516 female
-1.003553 -0.6719819 -0.2124349 -0.916225 0.03318478 -0.3992876 14269620 female
-0.5791492 0.1507725 -0.07625663 0.2773568 0.5926322 0.7562144 6841955 female
-0.6897016 -0.08306033 -0.06941105 0.02202557 -0.1806585 0.9832993 2171944 female
-1.056898 0.2541572 -0.04817019 -0.5617803 0.5335276 0.6322588 13424860 female
-0.6477814 0.4831916 -0.2076662 0.9777706 -0.1859885 0.09681436 14079966 female
-1.030166 0.3902044 -0.1358885 -0.5235778 0.2856153 0.8026769 14016221 female
-0.9696671 -0.3970939 -0.09755329 0.1326896 -0.268121 0.9542036 2169889 female
-0.9667107 -0.3100437 -0.1869193 0.05406194 0.3637111 -0.9299417 2697516 female
-0.9236565 0.3893791 -0.2372535 -0.8308646 -0.1314147 -0.5407348 6710377 female
-0.7587514 -0.1624123 -0.1675384 -0.987999 -0.1516575 -0.02928988 1841436 female
-0.6098909 0.06701215 -0.1593561 0.9883693 0.08351028 0.1270913 1908257 female
-0.7552432 0.8254605 -0.2999152 0.56177 -0.1326301 -0.8165928 3420972 female
-0.601263 0.04961058 0.0003795419 -0.6743005 -0.5409247 -0.5027119 7168348 female
-0.8603725 -0.0220161 -0.2025661 0.4630486 -0.3850314 -0.7983337 2697257 female
-0.8623565 0.1005729 -0.2922839 -0.07399508 -0.1850153 -0.979946 5263457 female
-0.9788014 -0.1707939 -0.04493193 -0.6431905 -0.05522594 0.763712 2170657 female
-0.9459969 0.2768799 -0.2031247 -0.8328118 0.4030849 -0.3794034 7698044 female
-0.7589566 -0.1475328 -0.1856602 -0.9439469 -0.161026 -0.2881577 2170913 female
-0.6579009 0.282983 -0.2116159 0.9214161 0.1619091 -0.3532391 4343106 female
-0.7282518 -0.3341474 -0.2167426 -0.9473635 0.1375395 -0.2891111 2039329 female
-0.7806427 0.4802417 -0.06731714 0.1218701 0.1251923 0.984619 14013410 female
-0.814935 0.03050126 -0.1831422 0.8083606 -0.5113959 -0.2915941 2170913 female
-0.95112 0.6362001 -0.2013791 -0.4924515 0.8612561 0.1254173 12370114 female
-0.6212639 -0.08971917 -0.1227742 0.941674 -0.1078068 0.318791 1841953 female
-0.6405659 -0.6602337 -0.2252754 0.9546196 0.05428124 -0.2928394 2105376 female
-1.003408 -0.5666153 -0.174542 -0.9928869 -0.1055346 -0.05511842 1579291 female
-0.6071559 0.5950131 -0.2354101 0.683858 0.7251586 -0.0805188 10132378 female
-0.9344211 -0.221732 -0.1563633 0.118379 -0.06652902 -0.9907373 2500140 female
-1.013567 0.2211159 -0.09048204 0.7799268 -0.5694809 -0.2596259 9474457 female
-0.5824907 0.472243 -0.2553992 0.9699466 0.03012321 -0.2414459 7171191 female
-0.9996388 -0.6566623 -0.1155765 -0.5970693 0.7326226 0.3267603 16311770 female
-0.7548313 -0.1937719 -0.1622803 -0.9881296 -0.108718 0.1085369 1579291 female
-0.7179914 0.01124535 -0.05827267 -0.1155737 -0.02149726 0.9930663 2171945 female
-0.7553756 0.4422731 -0.3122526 -0.009038322 -0.2700912 -0.9627923 12237251 female
-0.7765987 0.7610222 -0.1097804 0.4437355 0.05150212 0.8946766 11766154 female
-0.7338866 0.2009473 -0.2948796 0.09593169 0.2810726 -0.9548797 15200255 female
-1.020397 -0.6857922 -0.1573783 -0.9142533 -0.03278219 -0.4038146 13414826 female
-0.7538843 0.6457477 -0.1829838 0.6090912 0.3142639 0.7281801 13751003 female
-0.6122772 0.5719018 -0.271919 0.589286 0.4094661 -0.6964765 8027273 female
-0.8893186 -0.03101709 -0.2084924 0.1835276 -0.3490229 -0.9189672 2105124 female
-0.6869898 0.5872392 -0.3118851 0.3261245 0.2560039 -0.9100026 16185343 female
-0.8103904 0.774812 -0.1153701 -0.2162476 -0.001706431 0.976337 16048080 female
-0.877978 0.009224143 -0.03197062 0.3605726 -0.01055605 0.9326714 2171171 female
-0.6497222 -0.5793269 -0.244946 0.7996888 -0.1226304 -0.5877581 1841948 female
-0.8835031 0.5189407 -0.07158174 -0.2724333 0.5994279 0.7526395 15133430 female
-0.898532 -0.2304437 -0.1422674 0.7002357 -0.1580357 -0.6962001 2236967 female
-0.7798846 0.3003571 -0.04507587 0.1508511 0.1425989 0.9782175 7434876 female
-0.622187 0.1138494 -0.01066997 0.001029822 0.9203984 0.3909805 16771038 female
-0.9506519 0.5026584 -0.1492125 0.6981153 -0.3311147 0.6348213 15725559 female
-0.7416208 0.2927894 -0.05365778 0.4346825 0.1651229 0.8853166 11053494 female
-0.6541424 0.5190179 -0.1740694 0.8626336 -0.251619 0.4388064 14080999 female
-0.9687145 -0.7131259 -0.07502896 0.4043907 -0.9114869 -0.07523169 723723 female
-0.7423292 0.4529727 -0.31556 0.04173528 -0.2766338 -0.9600687 15725567 female
-0.767283 0.5448797 -0.1075646 0.01869875 0.6513668 0.7585326 9145496 female
-0.7022377 0.5497828 -0.1263848 0.3562629 0.6226066 0.6967336 15724543 female
-0.7764329 -0.017557 -0.2210349 -0.7017615 -0.302268 -0.6451085 2302243 female
-0.8107599 0.5089596 -0.3120249 -0.2284707 0.2657067 -0.9365901 15396607 female
-0.6457101 -0.5778158 -0.2001003 0.7857758 -0.1047617 0.6095747 2434085 female
-0.748743 0.7191658 -0.1968133 0.9331048 -0.2453029 0.2629486 12429467 female
-0.6441793 -0.4960478 -0.1840818 0.539525 -0.1811356 0.8222547 2171428 female
-0.7258779 0.2756912 -0.05916482 0.5612316 0.1799505 0.8078595 14342371 female
-0.6802872 0.5982734 -0.1802205 0.3171513 0.569249 0.7585319 10987956 female
-0.7870145 -0.02250559 -0.119655 -0.929772 -0.188704 0.3160931 1907741 female
-0.7227049 0.03745222 -0.2823953 0.08090058 -0.5641739 -0.821683 2171945 female
-0.6078508 0.01022134 -0.1756066 0.9939677 -0.05846094 -0.09279269 1776161 female
-0.6035525 0.2147022 -0.2101281 -0.2366008 -0.6334043 -0.7367626 3947321 female
-0.7189546 0.8746622 -0.2345398 0.9219886 0.3522459 -0.1608099 2039327 female
-0.6293065 0.4613334 -0.2941157 0.08115017 -0.07291517 -0.9940312 14473451 female
-0.9242026 0.3018002 -0.104322 -0.759897 0.2372403 0.6052054 14146793 female
-0.9616087 -0.3060341 -0.06880703 0.04903463 -0.4420337 0.8956572 1776669 female
-1.04474 -0.6938205 -0.08340605 -0.8386601 0.5378361 -0.0859158 12559774 female
-0.6172848 0.03621884 -0.122924 0.9237471 0.05815659 0.3785619 1973537 female
-0.5788472 0.02826523 -0.07199746 -0.2012504 -0.2953384 -0.9339558 9863808 female
-0.6018221 0.5877873 -0.2344976 0.7403795 0.6697557 -0.057145 8619406 female
-0.9514323 -0.6003208 -0.1907327 0.9629943 -0.03554276 -0.2671677 1908771 female
-0.6526451 -0.5737445 -0.1931377 0.5442374 -0.07282744 0.8357642 2171172 female
-0.9195549 0.4095671 -0.1192545 -0.7898918 -0.2597878 0.5555007 14343396 female
-0.7852036 0.6265067 -0.1591234 0.08828907 0.5043142 0.8589949 16120317 female
-0.992 -0.622151 -0.1448279 -0.7920496 0.2702463 0.5473795 2236968 female
-0.9798924 0.6140125 -0.2050996 -0.7116174 0.6612793 -0.2372981 11711421 female
-0.7814469 0.272741 -0.2730282 -0.1418521 0.1975814 -0.9699689 15201279 female
-0.6181518 0.5787218 -0.1914246 0.4036299 0.3493027 0.8456184 8947088 female
-1.005232 0.3949859 -0.2157651 -0.1931862 -0.2290156 -0.9540603 12897242 female
-0.917678 -0.4317108 -0.1603144 0.9829207 -0.1836387 -0.01198916 1842720 female
-0.931322 -0.01764897 -0.2125837 -0.2148169 -0.3526598 -0.9107606 2763826 female
-0.7430251 0.5350438 -0.09951826 0.1065185 0.6528016 0.7500026 15659774 female
-0.6426058 -0.6157584 -0.2055205 0.9534771 0.02294008 0.3005914 2369581 female
-0.6983505 -0.1078788 -0.238241 -0.05169342 -0.08231241 -0.995265 2106409 female
-1.023889 -0.6826901 -0.09164956 -0.4033485 0.9013551 0.1576989 16242386 female
-0.8957321 0.350725 -0.2552005 -0.5614412 -0.1883381 -0.8057993 10330288 female
-0.9878803 -0.6519941 -0.110663 -0.2993908 0.827075 0.4757227 16774119 female
-0.674602 -0.0940299 -0.2369792 0.2450268 -0.06143758 -0.9675677 2171945 female
-0.64211 -0.325734 -0.1503974 0.6042393 -0.1758889 0.7771474 1777187 female
