# .PCD v0.7 - Point Cloud Data file format
VERSION 0.7
FIELDS x y z normal_x normal_y normal_z rgb label
SIZE 4 4 4 4 4 4 4 4
TYPE F F F F F F U U
COUNT 1 1 1 1 1 1 1 1
WIDTH 170
HEIGHT 1
VIEWPOINT 0 0 0 1 0 0 0
POINTS 170
DATA ascii
-0.8801917 0.1383298 0.824763 -0.8319396 0.09438004 -0.5467806 8618891 female
-0.5772126 0.168458 0.7963641 0.6713767 0.07730535 -0.7370734 9803174 female
-0.8982688 -0.4649308 0.9083074 -0.3448102 -0.2570557 0.9027892 2171174 female
-0.5608128 0.1331452 1.037837 -0.7623438 0.2389794 -0.6014323 13354698 female
-0.5757731 -0.314674 0.8230976 0.2080247 0.3516486 -0.9127261 2237738 female
-0.6026136 -0.1788069 0.9853387 0.06039548 -0.2407674 0.968702 2171688 female
-0.8107529 0.371465 0.7905312 -0.5306869 -0.2722304 -0.8026594 15199223 female
-0.9242135 -0.716091 0.925202 0.02518711 -0.9956025 -0.09022862 789772 female
-0.8366918 -0.1644456 0.9995948 0.2387591 -0.2107705 0.9479293 2039072 female
-0.9479749 0.2316035 0.9401582 0.2589044 -0.8188147 -0.5123582 10921901 female
-0.9337464 0.4814761 0.8227691 -0.8124409 -0.002206663 -0.5830393 13553631 female
-0.8738607 0.2593542 0.9108851 -0.8887835 0.4015441 0.2209665 13753065 female
-0.9025072 -0.4675258 0.8227114 -0.5350066 -0.03801567 -0.8439921 2170401 female
-0.9223285 0.3798113 0.9087196 0.1039376 0.1476267 0.9835666 8224648 female
-0.4958216 0.5559432 0.8458672 0.9136324 0.4058762 0.02324482 13620701 female
-0.5432807 -0.01124154 0.9728273 0.8352944 -0.02217455 0.5493555 1973536 female
-0.9286118 0.1694786 1.162216 0.3375695 -0.9411049 -0.01919067 7890015 female
-0.8668519 0.03770853 1.006317 -0.5092567 0.1382942 0.8494306 2500651 female
-0.801547 -0.2565663 0.930918 0.9111186 -0.3082565 0.2735706 2169889 female
-0.6007341 -0.6110085 0.875409 -0.5528419 0.2212071 0.8033887 2171686 female
-0.8875052 0.4022036 0.8917665 0.7372965 -0.06910758 0.6720254 13224148 female
-0.855979 0.4304478 0.9089625 -0.8925982 -0.3409396 0.2950062 10987703 female
-0.9920428 0.2206906 0.9911878 -0.9078374 -0.3124478 -0.2796564 13028569 female
-0.6548867 0.3493512 0.9941503 0.5166375 0.1820734 0.8366211 15200255 female
-0.8540396 0.3793347 0.8587077 -0.9894394 -0.05686919 -0.133325 15001836 female
-0.5224739 0.4244757 0.889164 0.1466801 0.1132243 0.9826826 14541801 female
-0.6496313 0.248474 1.014455 0.4735503 0.1621491 0.8657123 13620456 female
-0.6054977 0.2259032 0.7926958 0.4057967 0.3113715 -0.8592886 6514804 female
-0.629616 0.8742749 0.7867114 0.8666543 0.4007832 -0.297125 2631463 female
-0.6549928 0.4855003 0.995575 -0.07937834 0.229285 0.9701173 14606327 female
-0.4832469 0.2577764 0.8744109 0.6892943 -0.4733051 -0.5485031 9738144 female
-0.535806 -0.4175122 0.8443745 0.9790524 -0.0523382 -0.1967666 1579808 female
-0.87207 -0.0380423 0.8447139 -0.4505124 -0.2024964 -0.869502 2631470 female
-0.8039231 -0.2038567 0.8835875 0.7076555 -0.09036907 -0.7007546 2171688 female
-0.5581356 -0.6724758 0.8507388 0.9779505 0.1468696 -0.1484659 13087919 female
-0.7189839 0.8235108 0.7277429 -0.2088465 -0.1559139 -0.9654398 14338761 female
-0.6446762 0.770103 0.8851797 0.9322476 -0.2115681 0.293519 16574163 female
-0.8039044 0.6393127 0.7660699 -0.3132792 0.5164669 -0.7969429 12369607 female
-0.854098 0.1520615 0.9778481 -0.5131704 0.2584855 0.8184384 14015981 female
-0.6743289 0.5937243 0.7447344 -0.09563784 0.188721 -0.9773626 13094624 female
-0.5715193 -0.1652308 0.9774373 0.5587152 -0.2019667 0.8043922 1974050 female
-0.7231708 0.3386776 1.011575 -0.04580478 0.1967916 0.9793748 15725567 female
-0.7372416 0.07224185 0.774047 0.1171254 -0.4435464 -0.8885652 2435119 female
-0.6807114 0.2208648 1.030722 0.2503085 0.009614365 0.9681184 12700887 female
-0.9288405 0.5747393 0.839035 -0.8147296 0.5370374 -0.2186473 5856354 female
-0.8503733 0.4100544 0.9041915 -0.9229536 -0.2018872 0.3277167 13620448 female
-0.6415271 0.2717895 0.7947006 0.2155634 0.1119207 -0.9700547 15200255 female
-0.7074541 -0.03359733 0.9036485 -0.9801692 -0.1743416 -0.09419814 3290426 female
-0.5261 -0.03601158 0.9024518 0.9865254 -0.1382159 -0.08754442 2105122 female
-0.5635654 0.6146026 0.8614322 0.1088117 0.8475786 0.5193945 13422293 female
-0.7936203 0.1396167 1.001922 -0.3162763 -0.08460081 0.9448873 15133438 female
-0.6599035 0.7227597 0.8099974 0.8595858 -0.1677039 -0.4826879 4866113 female
-0.5642491 0.4461423 0.8117076 0.888523 -0.3476468 -0.2994469 13619671 female
-0.8684844 -0.3199975 0.8368305 0.1540113 0.3460361 -0.9254942 2697774 female
-0.9304234 0.5500552 0.8214558 -0.7917176 0.3277932 -0.5154948 7171710 female
-0.7482646 0.7135417 0.8026718 -0.8034594 0.1602596 -0.5733845 10981510 female
-0.8675934 -0.1126587 1.005153 -0.3343083 -0.1337463 0.9329255 2171944 female
-0.5581266 0.6043677 0.8751844 0.09274413 0.7176631 0.6901871 15330803 female
-0.6826925 0.5394854 0.9577002 -0.03470699 0.687746 0.7251213 15660798 female
-0.8315974 0.01531049 0.8135928 -0.1714846 -0.5027105 -0.8472752 3157808 female
-0.7092997 0.8204516 0.9276123 -0.7165526 0.5126123 0.4730549 14072493 female
-0.6444795 -0.1858281 0.9688491 -0.6391308 -0.2482828 0.7279199 2170401 female
-0.8005451 0.4108837 0.7738866 -0.403809 -0.3669767 -0.8380134 2698546 female
-0.8744214 -0.02219485 1.008353 -0.5177206 0.01161818 0.8554709 2368809 female
-0.557503 -0.2729957 0.9391743 0.8028445 -0.1795408 0.568512 2039075 female
-0.8835487 -0.007853575 0.8442811 -0.6049726 -0.2448549 -0.7576637 2500907 female
-0.6646466 0.4077225 0.98151 0.3264619 0.2603537 0.9086466 15791103 female
-0.5734663 0.3608186 0.8504331 0.9651394 -0.1725219 -0.1968303 15199990 female
-0.9162127 -0.3701631 0.9216372 -0.7251295 -0.1228599 0.6775638 2565671 female
-0.6269879 -0.1860652 0.9799729 -0.3641814 -0.2456136 0.8983573 2170660 female
-0.6894848 0.1472399 1.022017 0.2795077 -0.2379332 0.9301953 14541297 female
-0.8390837 -0.2194147 0.8720922 0.210853 -0.04283984 -0.9765786 2565419 female
-0.9114344 -0.6943367 0.8377967 -0.5871385 -0.7256465 -0.3587556 1051664 female
-0.8023555 -0.2133583 0.9563041 0.8307406 -0.2665008 0.4887202 1841436 female
-0.8751447 0.08666072 0.8120677 -0.7437379 -0.02291479 -0.6680785 2565935 female
-0.9950529 0.1420135 1.072992 -0.8318556 -0.3439376 -0.4355723 15068664 female
-0.8322451 0.00333626 0.8203619 -0.1225061 -0.4300851 -0.8944378 2566447 female
-0.9062819 -0.669655 0.8173034 -0.8689225 0.2516128 -0.4262213 15124160 female
-0.5212098 0.1620349 1.0352 0.1357997 0.6435081 0.7532967 6841955 female
-0.6842149 -0.06044941 0.9710309 -0.7857911 -0.25228 0.5647008 1973534 female
-0.9910176 0.2340252 1.021068 -0.8555979 0.4249732 0.2955506 11647164 female
-0.5607515 0.4823084 0.8671539 0.9534111 -0.179767 0.2422624 14079966 female
-0.9584678 0.3999369 0.8824884 -0.8799734 0.3371657 0.3346135 12042183 female
-0.9080468 -0.3691612 0.9311482 -0.53505 -0.1623637 0.8290715 2631464 female
-0.8892649 -0.3396226 0.8285956 -0.2003997 0.2836897 -0.937742 2302505 female
-0.8320913 0.4018511 0.8041983 -0.7632054 -0.2858472 -0.5794902 5460312 female
-0.6772034 -0.1571128 0.9022079 -0.9846596 -0.147129 -0.09380039 1775899 female
-0.5250376 0.06660644 0.9266425 0.9636915 0.07258865 0.2569622 1908257 female
-0.651199 0.8192319 0.7460006 0.6690518 -0.1755309 -0.7221901 3420972 female
-0.5520064 0.07667954 1.090954 -0.8168574 -0.4852123 -0.3119502 9404028 female
-0.7678823 -0.0470577 0.8573781 0.6298989 -0.3091389 -0.712503 2498854 female
-0.7584582 0.09992381 0.761877 0.05443978 -0.184031 -0.9814117 5263457 female
-0.878243 -0.1512001 0.9962659 -0.4331979 -0.1404568 0.8902873 2172969 female
-0.8213039 0.2857526 0.8101152 -0.5413626 0.1313851 -0.8304604 5524558 female
-0.6718805 -0.1949681 0.8908527 -0.9765202 -0.06640463 -0.204936 1776155 female
-0.5683933 0.2848371 0.8673577 0.9566239 0.1709496 -0.2358962 4343106 female
-0.6422224 -0.3314815 0.848779 -0.8971997 0.1667887 -0.4089184 2039329 female
-0.6985265 0.5088949 0.9789696 -0.07272373 0.4575653 0.8861971 14015206 female
-0.7214747 0.03819898 0.8625683 0.4848982 -0.8379084 -0.2505657 1315860 female
-0.8605163 0.6318164 0.8503551 -0.1830202 0.9241279 0.3353971 12894660 female
-0.5448356 -0.06315847 0.9708866 0.8454117 -0.1020936 0.5242671 1973537 female
-0.5599095 -0.6587771 0.8405991 0.9866055 0.04191324 -0.1576478 2105376 female
-0.8638977 -0.4079165 0.9220437 0.2567069 -0.2665701 0.9290005 2170913 female
-0.5167024 0.5945876 0.8444257 0.6828824 0.7305183 0.003830161 10132378 female
-0.8387311 -0.2253216 0.8728477 0.2293697 -0.04457695 -0.9723181 2500140 female
-0.9306265 0.2479374 0.9299684 0.6899866 -0.6624594 -0.291661 13816027 female
-0.488846 0.4708651 0.8373405 0.9980009 0.02348406 -0.05867574 7171191 female
-0.9091702 -0.626108 0.8369805 -0.9456891 0.1116107 -0.3053116 2105120 female
-0.6720018 -0.1772308 0.884528 -0.939262 -0.07495689 -0.3349155 1907741 female
-0.6469004 0.01107787 1.011702 -0.2482255 -0.02627888 0.9683458 2171945 female
-0.6534497 0.4378149 0.7500132 0.1222994 -0.3066973 -0.9439172 12237251 female
-0.6940868 0.7485287 0.9299419 0.4324112 -0.05608384 0.8999307 16246750 female
-0.5968431 0.1507585 0.7794374 0.532496 0.05678691 -0.8445255 12106953 female
-0.9333448 -0.704935 0.88233 -0.522861 -0.7328034 -0.4354486 1051920 female
-0.6980721 0.6479291 0.8831791 0.1366646 0.1553222 0.9783648 13357275 female
-0.5152251 0.5694001 0.8089714 0.7014515 0.3794628 -0.6033024 8027273 female
-0.8047292 -0.04353644 0.8386448 0.2198385 -0.2736427 -0.936371 2500652 female
-0.5826228 0.5818816 0.7556981 0.4706276 0.2175032 -0.8551035 16185343 female
-0.7373148 0.796862 0.9200891 -0.3511061 0.2019197 0.9143046 16573655 female
-0.8039065 0.002833534 1.014337 0.2448607 -0.04415955 0.9685521 2171171 female
-0.5648922 -0.5771348 0.8225712 0.8701427 -0.1220602 -0.4774442 1841948 female
-0.8327131 0.5193233 0.9549513 -0.6021717 0.5126288 0.6120465 14935794 female
-0.8045084 -0.2338621 0.8907165 0.7743574 -0.1348583 -0.6182103 2236967 female
-0.6908844 0.3019775 1.016306 0.14766 0.1857668 0.9714357 6316394 female
-0.5804403 0.1294576 1.091646 -0.4074258 0.9075786 0.1015154 16773092 female
-0.8664291 0.5238732 0.8850417 0.4818788 -0.4032975 0.77791 8684168 female
-0.6549122 0.2404184 1.018839 0.436845 0.1371023 0.8890272 13357798 female
-0.5718619 0.5196768 0.8981903 0.7887524 -0.2285676 0.5706369 14080999 female
-0.9036919 -0.7191059 0.9684317 -0.06863236 -0.9970965 0.03298752 526089 female
-0.6398523 0.4482063 0.7481284 0.1731649 -0.3142533 -0.9334124 15725567 female
-0.7387487 0.5404073 0.9598044 0.1076153 0.6834458 0.7220255 15396344 female
-0.608582 0.4888524 0.9841232 0.5005553 0.3003883 0.8119183 7895428 female
-0.6829752 -0.01567773 0.8424913 -0.6134809 -0.2881437 -0.7352648 2302243 female
-0.7074563 0.5036257 0.7401218 -0.09324754 0.2260801 -0.9696353 15396607 female
-0.5670074 -0.5771019 0.8675782 0.693611 -0.141337 0.7063481 2434085 female
-0.6614739 0.7036364 0.8537583 0.8633468 -0.1018919 0.494217 14993595 female
-0.5662067 -0.4959783 0.886638 0.4193439 -0.219747 0.8808302 2171428 female
-0.6540191 0.2593552 1.014176 0.44784 0.1863331 0.8744823 12895958 female
-0.5919307 0.6009779 0.8820075 0.1890728 0.6162417 0.7645245 11646908 female
-0.7146259 0.01421221 0.9202874 -0.9980536 -0.05896773 0.02029289 2169889 female
-0.6305935 0.04994266 0.7811698 0.157526 -0.455621 -0.876125 2368300 female
-0.5365646 -0.004859277 0.95993 0.8894218 -0.02903751 0.4561641 1973537 female
-0.5194008 0.2167411 0.895211 -0.09995941 -0.6820312 -0.7244596 3947321 female
-0.6217501 0.8604143 0.8307781 0.978 0.1667342 0.1253622 2368292 female
-0.5277335 0.456879 0.7913249 0.2627906 -0.1395689 -0.9547049 14473451 female
-0.8465959 0.3015162 0.9391271 -0.8338022 0.2385163 0.4978793 14146793 female
-0.8855982 -0.3196302 0.9490706 -0.2623196 -0.285438 0.9217991 2301987 female
-0.9489641 -0.6923333 0.9327245 -0.4487816 0.8935576 0.01224223 16243156 female
-0.5377812 0.03516091 0.9615494 0.8659623 0.04257041 0.4982942 1973537 female
-0.5289032 0.05032503 1.047836 -0.7624081 -0.4025198 -0.5066673 8022116 female
-0.5115933 0.5874894 0.8466673 0.734868 0.6769962 0.04056077 8619406 female
-0.8546507 -0.6086198 0.8493639 0.9957955 0.01469948 -0.09041733 2105893 female
-0.5747492 -0.5730976 0.8736682 0.4240674 -0.1111534 0.8987835 2171172 female
-0.8486394 0.3911257 0.9051262 -0.942264 0.006597034 0.3348059 12369863 female
-0.6752295 0.6322875 0.8825108 0.2766881 0.6263109 0.7288198 15396082 female
-0.8943815 -0.6466299 0.9057975 -0.3046343 0.7336187 0.6074549 5196879 female
-0.888855 0.6147968 0.819096 -0.6620063 0.6575123 -0.3597573 11711421 female
-0.6944304 0.2511834 0.7847707 0.02003662 0.2980913 -0.954327 13948650 female
-0.5350662 0.580499 0.8863989 0.2467926 0.3998815 0.8827163 8947088 female
-0.9049407 0.3198363 0.8580966 0.6994517 -0.4797939 -0.5296839 9147031 female
-0.8239718 -0.4382481 0.870681 0.9778774 -0.1914304 0.08432147 1842720 female
-0.8549901 0.03755637 0.811021 -0.4635311 -0.3863302 -0.7974257 2631465 female
-0.6537777 0.5400094 0.9560376 0.07912054 0.6893855 0.7200608 12765138 female
-0.5638683 -0.614874 0.8612793 0.9037972 -0.007288775 0.4278989 2369581 female
-0.6055317 -0.1071684 0.8353212 0.08074512 -0.07512663 -0.9938995 2106409 female
-0.9565214 -0.7001128 0.9788623 -0.1190044 0.917071 0.3805504 1052430 female
-0.7921977 0.3338441 0.7901305 -0.3405908 -0.1935724 -0.9200693 15398143 female
-0.9228069 -0.6858649 0.9499795 -0.3039677 0.9090431 0.285034 16506325 female
-0.5819087 -0.09377596 0.839821 0.3715562 -0.05999635 -0.9264699 2171945 female
-0.5605338 -0.318342 0.925231 0.6191582 -0.1954982 0.7605416 2040353 female
