# .PCD v0.7 - Point Cloud Data file format
VERSION 0.7
FIELDS x y z normal_x normal_y normal_z rgb label
SIZE 4 4 4 4 4 4 4 4
TYPE F F F F F F U U
COUNT 1 1 1 1 1 1 1 1
WIDTH 170
HEIGHT 1
VIEWPOINT 0 0 0 1 0 0 0
POINTS 170
DATA ascii
-0.947144 0.1504892 -0.2519 -0.7301797 0.06059887 -0.6805626 14936567 female
-0.6733963 0.1667771 -0.2778808 0.5852015 0.07601189 -0.8073174 9803174 female
-0.9521874 -0.425584 -0.1133325 0.329788 -0.2530703 0.9095027 2170913 female
-0.6166922 0.1178735 -0.05855393 -0.9150145 0.3227538 -0.24203 12890545 female
-0.6338856 -0.5533902 -0.200947 0.8881633 -0.1523924 0.4335235 2171937 female
-0.6726532 -0.1789779 -0.08754488 0.1814634 -0.230737 0.9559453 2171688 female
-0.9110581 0.3514843 -0.2372015 -0.7500627 -0.1655424 -0.6403137 6251625 female
-1.009065 -0.7138051 -0.0957056 0.02261831 -0.9970014 -0.07400474 855565 female
-0.9359035 -0.5389048 -0.178002 0.9835157 -0.1807503 0.005115403 1776929 female
-1.022455 0.179869 -0.04790875 0.9286515 -0.3640481 -0.07124149 12238536 female
-1.026627 0.4806723 -0.1904941 -0.9864992 0.09404187 -0.1340727 10133932 female
-0.904124 0.3295756 -0.2429375 -0.6570082 -0.05078158 -0.7521712 4078919 female
-0.9894089 -0.4688918 -0.2078037 -0.4117785 -0.03496512 -0.9106129 1973537 female
-0.9751395 0.3762205 -0.147356 0.698522 -0.07709543 0.7114235 15133945 female
-0.5836682 0.5355192 -0.2564605 0.8361216 0.2855815 -0.4683417 7632259 female
-0.6186233 -0.01096608 -0.107522 0.8953092 -0.005586429 0.4454102 1973536 female
-0.9843535 0.1359685 0.09801139 0.9939438 -0.07922249 -0.0761546 10126725 female
-0.9402227 0.04229434 -0.03547699 -0.4133456 0.1714466 0.8942882 2500651 female
-0.8909707 -0.2369536 -0.08763073 0.8428402 -0.2903704 0.4531064 2105120 female
-0.6735997 -0.613331 -0.1829868 -0.4532447 0.2403775 0.8583636 2171686 female
-0.9841353 0.4169086 -0.137365 0.2974744 0.01845256 0.9545515 13288397 female
-0.9335731 0.4234365 -0.1360115 -0.8622245 -0.3524667 0.3637804 14082023 female
-1.064995 0.2553999 -0.0807856 -0.9143537 0.2590222 0.3112312 11913167 female
-0.6660972 0.3433824 -0.1414566 0.8884315 0.1277853 0.4408632 3420469 female
-0.9379248 0.4087444 -0.165903 -0.9658149 -0.2093995 0.1528184 3553086 female
-0.606942 0.4290968 -0.1980491 0.2649381 0.01366484 0.9641686 6578796 female
-0.7101424 0.2667583 -0.06593598 0.6351203 0.1750265 0.7523217 6184287 female
-0.7216032 0.2237841 -0.2838875 0.1519614 0.3116593 -0.9379638 11844804 female
-0.7243512 0.8780242 -0.2562501 0.8176502 0.426369 -0.386856 2631463 female
-0.7197739 0.4908102 -0.06793349 0.08169151 0.3803995 0.9212072 12369609 female
-0.5539688 0.2577167 -0.2141737 0.9025697 -0.1733469 -0.394105 9013397 female
-0.6196609 -0.439888 -0.2309919 0.9437792 -0.07522956 -0.3219026 1579553 female
-0.9481968 -0.03957229 -0.2011505 -0.3703233 -0.2368582 -0.8981976 2105896 female
-0.8973326 -0.2015154 -0.1580488 0.5794485 -0.1157409 -0.8067486 2171944 female
-0.6330168 -0.6749056 -0.2107834 0.9477677 0.1597986 -0.2760451 13087919 female
-0.8202463 0.8289723 -0.3056211 -0.3309035 -0.1111881 -0.9370913 14338761 female
-0.7278525 0.7596324 -0.1958557 0.9318777 -0.3419514 -0.1211335 14535868 female
-0.9114679 0.6498876 -0.2484653 -0.5208156 0.6904712 -0.5019968 12437462 female
-0.9520367 0.1791396 -0.09090405 -0.7000421 0.1976599 0.6862009 7039086 female
-0.7744249 0.5863632 -0.3080413 -0.2624385 0.2147206 -0.9407555 14739705 female
-0.6429915 -0.1649773 -0.0991293 0.6551046 -0.184936 0.7325549 1974050 female
-0.7836036 0.3467383 -0.0483491 0.118698 0.2171749 0.968889 12633296 female
-0.853994 0.06145775 -0.2788772 0.01743581 -0.4782231 -0.8780653 2566703 female
-0.7489753 0.2175903 -0.03342041 0.3581926 -0.00711369 0.9336206 12700887 female
-1.016247 0.552303 -0.16224 -0.8362914 0.3594211 0.4140449 7304056 female
-0.920527 0.4183424 -0.1178936 -0.7685902 -0.3972382 0.5014689 9672086 female
-0.7360276 0.2715476 -0.2717967 0.1057248 0.1260437 -0.9863748 15200255 female
-0.7895749 -0.03635033 -0.1563543 -0.9814821 -0.1899817 0.02448857 3290426 female
-0.610382 -0.05536337 -0.1607337 0.9931165 -0.1102024 -0.03968711 1908509 female
-0.6372389 0.611517 -0.2075237 0.2865195 0.8346241 0.4704351 12699337 female
-0.8626621 0.1078659 -0.04801935 0.1145332 0.07233254 0.9907826 2566703 female
-0.7503165 0.7249591 -0.236889 0.7908924 -0.1371281 -0.5963934 4866113 female
-0.6588043 0.4501327 -0.2675525 0.7981717 -0.3440517 -0.4945203 13553878 female
-0.9626185 -0.3179689 -0.1934727 0.06920843 0.3357257 -0.9394139 2697774 female
-0.9697015 0.5196021 -0.2395798 -0.1448765 -0.1972403 -0.9695912 12895180 female
-0.8351454 0.7238589 -0.2379579 -0.8547223 0.07576551 -0.5135264 5984074 female
-0.9436675 -0.1077854 -0.03160568 -0.2359007 -0.09881722 0.9667399 2171944 female
-0.6635051 0.5961115 -0.1830956 0.2543377 0.5751715 0.7774896 13751265 female
-0.7827186 0.531276 -0.08814937 0.1321687 0.6634014 0.7364985 14146792 female
-0.8959799 -0.04274526 -0.2073656 0.1226204 -0.3063355 -0.943993 2500651 female
-0.7824776 0.8146071 -0.10435 -0.5703825 0.5321783 0.6256596 14071981 female
-0.7160516 -0.1868831 -0.09888713 -0.5414041 -0.2525015 0.8019505 2170401 female
-0.893964 0.4142788 -0.2691075 -0.506251 -0.331141 -0.796276 2698546 female
-0.9485672 -0.01713984 -0.03062716 -0.4236321 0.04744093 0.9045912 2368809 female
-0.6322389 -0.2626879 -0.1343708 0.8725109 -0.1327751 0.470208 2171174 female
-0.9746806 -0.007352462 -0.1939823 -0.6862057 -0.2512825 -0.6826265 2500907 female
-0.716503 0.3993651 -0.08991776 0.5800658 0.1639237 0.7979051 15724543 female
-0.6640101 0.3329431 -0.1432603 0.9000319 0.1583322 0.4060463 13752800 female
-0.9856352 -0.2865702 -0.1747444 -0.3654822 0.397928 -0.8414725 2303275 female
-0.6973495 -0.1866805 -0.0899441 -0.2478442 -0.2429726 0.9378366 2170660 female
-0.7562292 0.1767698 -0.03580619 0.3595409 -0.1988043 0.9117057 4606287 female
-0.9180863 -0.259099 -0.154871 0.3871551 -0.04885331 -0.9207194 2631471 female
-0.9939708 -0.6968238 -0.1807568 -0.1870419 -0.965026 -0.1836851 921102 female
-0.8877284 -0.2509999 -0.1055032 0.92909 -0.3009739 0.2149571 2038559 female
-0.9599379 0.09358901 -0.2395176 -0.7479175 0.01764875 -0.6635571 3025454 female
-1.053484 0.1642411 0.02106816 -0.4570054 0.5678973 0.684572 8092544 female
-0.9175144 -0.01980466 -0.2159253 -0.1064376 -0.3451243 -0.9325021 2697516 female
-0.9995142 -0.6603382 -0.1998096 -0.9009375 0.2577473 -0.3491102 15717326 female
-0.6136912 0.2257803 -0.1591721 -0.870951 0.1291207 0.4741015 7830410 female
-0.7576203 -0.06249258 -0.09206475 -0.7073754 -0.2629427 0.6561106 1973534 female
-1.05575 0.248162 -0.05965277 -0.5776324 0.5095512 0.637729 13424860 female
-0.6460867 0.4756594 -0.2394436 0.9214804 -0.3839584 -0.05873619 11777205 female
-1.027424 0.3877126 -0.1424103 -0.5434639 0.2620092 0.7974949 14016221 female
-0.9933297 -0.3662026 -0.09561774 -0.4591244 -0.1558466 0.8745952 2631464 female
-0.9628925 -0.3140852 -0.1920265 0.06373502 0.3479621 -0.9353396 2697516 female
-0.92023 0.3887439 -0.2368638 -0.8240589 -0.1295583 -0.5514902 6710377 female
-0.7571259 -0.1594755 -0.1612082 -0.9857934 -0.165932 0.02603876 1775899 female
-0.6059777 0.03324986 -0.1477072 0.9855046 0.01826471 0.1686629 1974307 female
-0.7506587 0.824743 -0.2965021 0.5713121 -0.1318601 -0.8100712 3420972 female
-0.5921857 0.06538191 -0.03876894 -0.9056661 -0.2724015 -0.3249097 7563619 female
-0.8568801 -0.0225781 -0.2036661 0.4770836 -0.3743542 -0.7951416 2697257 female
-0.8581142 0.1001417 -0.2921245 -0.05947482 -0.1800602 -0.9818559 5263457 female
-0.9768374 -0.173443 -0.0503191 -0.6539342 -0.06393362 0.7538452 2170657 female
-0.9461361 0.2720769 -0.200874 -0.8246521 0.4356337 -0.3607939 9607587 female
-0.7525482 -0.1973853 -0.173179 -0.992567 -0.08690598 -0.08519446 1776155 female
-0.6550186 0.282054 -0.2078415 0.9261906 0.1622953 -0.34034 4343106 female
-0.715056 -0.2769185 -0.2106047 -0.5652529 0.03425188 -0.8242063 2170913 female
-0.779271 0.4791498 -0.06504613 0.109175 0.1234816 0.986323 14013410 female
-0.8120382 0.02979998 -0.1828625 0.8143555 -0.5061773 -0.2839183 2170913 female
-0.9479889 0.635375 -0.2009723 -0.4962943 0.8593864 0.1230726 12370114 female
-0.6195583 -0.09085857 -0.1198518 0.9371657 -0.1091755 0.3313625 1841953 female
-0.6363357 -0.661586 -0.2210156 0.9576476 0.05494022 -0.2826532 2105376 female
-1.000343 -0.5704992 -0.1747964 -0.9925492 -0.1047085 -0.06230786 1579291 female
-0.6148063 0.6035137 -0.2347079 0.6250646 0.7725561 -0.1115853 9013393 female
-0.9214523 -0.2555359 -0.1558909 0.3418344 -0.04885113 -0.9384897 2698289 female
-1.011366 0.2167312 -0.1020986 0.786921 -0.5588447 -0.2616254 9474457 female
-0.5778093 0.4695972 -0.2317056 0.9821658 0.02627708 0.1861715 5790560 female
-1.00088 -0.624189 -0.1869649 -0.969356 0.1017022 -0.2236195 2105120 female
-0.7537532 -0.1796919 -0.179456 -0.9709849 -0.09587408 -0.2190808 1907741 female
-0.7170856 0.009933839 -0.05635813 -0.1291299 -0.02457784 0.9913231 2171945 female
-0.7509215 0.4415413 -0.3096758 0.002831358 -0.2684446 -0.963291 12237251 female
-0.7666284 0.7453215 -0.1137219 0.6093367 -0.07276014 0.7895662 16246742 female
-0.7297239 0.2005598 -0.29239 0.1095013 0.2852683 -0.952172 15200255 female
-0.9934809 -0.702648 -0.1442468 0.06711633 -0.9890102 -0.131736 723979 female
-0.750801 0.6448495 -0.1797782 0.6009425 0.3113804 0.7361457 13751003 female
-0.631233 0.5342602 -0.2936524 0.2212567 -0.125769 -0.9670717 12041154 female
-0.8974909 -0.04473273 -0.2070073 0.1141661 -0.3015533 -0.9465895 2500652 female
-0.6777045 0.5603241 -0.3107144 0.3655235 0.01296596 -0.9307117 11383490 female
-0.8002273 0.7519103 -0.1113676 -0.4707112 -0.008602483 0.8822454 14798784 female
-0.8772608 0.006582282 -0.03322319 0.3454919 -0.0202556 0.9382031 2171171 female
-0.6526181 -0.5428885 -0.2550425 0.4953241 -0.1371838 -0.8578081 2302502 female
-0.8820554 0.5178413 -0.07050267 -0.2816041 0.5974519 0.7508331 15133430 female
-0.8936933 -0.2458194 -0.1415443 0.7916322 -0.2232658 -0.5687449 2105124 female
-0.7432653 0.3123917 -0.05326641 0.425485 0.1486184 0.8926786 13225949 female
-0.611728 0.1083054 -0.009100132 0.5238259 0.6868845 0.5037819 15319226 female
-0.967476 0.583335 -0.1365262 -0.1268692 0.3183523 0.9394445 12303555 female
-0.7408201 0.2915228 -0.05102972 0.4230778 0.162984 0.8913143 11053494 female
-0.6551704 0.5250749 -0.1606136 0.812008 -0.06861845 0.5795986 14606311 female
-0.9565414 -0.7042068 -0.07017608 0.9482594 -0.3097157 0.06986018 6706519 female
-0.7378285 0.4522685 -0.3128039 0.05337523 -0.2748564 -0.9600027 15725567 female
-0.76533 0.5437312 -0.1048683 0.009666228 0.6489447 0.7607742 9145496 female
-0.6760998 0.4753022 -0.07955131 0.6212638 0.1242947 0.7736809 12434381 female
-0.7732434 -0.01829891 -0.2200447 -0.692731 -0.299572 -0.6560339 2302243 female
-0.796113 0.5055171 -0.3144103 -0.2755307 0.1678062 -0.9465326 13618138 female
-0.6407945 -0.5613056 -0.1946869 0.747314 -0.1355512 0.650498 2171682 female
-0.7454169 0.7183431 -0.1934221 0.9298168 -0.2460046 0.2737195 12429467 female
-0.6590699 -0.4272407 -0.1615978 0.05403535 -0.197799 0.9787521 2171431 female
-0.7370244 0.2709084 -0.04847234 0.446544 0.1784173 0.8767928 4539471 female
-0.6719751 0.5991812 -0.1809561 0.3148978 0.5741536 0.7557691 11646908 female
-0.7956284 0.01157449 -0.1389558 -0.9877312 -0.07049883 0.1393445 2169889 female
-0.7186044 0.0369665 -0.280495 0.09277606 -0.5606386 -0.8228469 2171945 female
-0.6053489 0.009238568 -0.1722505 0.9951316 -0.05856774 -0.07926498 1776161 female
-0.6204028 0.2320343 -0.2064409 -0.8432599 -0.428216 -0.324875 13553880 female
-0.7107348 0.8621759 -0.2143245 0.9848517 0.1732803 0.006413904 2368292 female
-0.6315095 0.4749011 -0.2922987 -0.01443709 -0.06966151 -0.9974662 7696766 female
-0.9226977 0.3008193 -0.1040784 -0.7674817 0.2367584 0.5957494 14146793 female
-0.9589318 -0.3081511 -0.07396315 0.03915877 -0.4287379 0.9025799 1776669 female
-1.031848 -0.6900851 -0.08766606 -0.4570925 0.8883497 0.04360429 16243156 female
-0.6154953 0.03507287 -0.1195968 0.9184591 0.05664034 0.3914394 1973537 female
-0.5650901 0.03908721 -0.07008561 0.9274385 -0.1342823 -0.3490359 16574943 female
-0.6475857 0.5250301 -0.2952752 0.1809712 -0.3338008 -0.9251089 13158352 female
-0.9446211 -0.5871245 -0.181969 0.9925974 -0.08757917 -0.08414465 1973022 female
-0.6583855 -0.5208476 -0.1804109 0.1144791 -0.147059 0.9824806 2499878 female
-0.9176107 0.408825 -0.1188312 -0.7974432 -0.2588314 0.5450602 14343396 female
-0.7844605 0.619378 -0.1523768 0.113394 0.556008 0.8234057 11974596 female
-0.9869481 -0.6417921 -0.1261879 -0.6002245 0.6326724 0.4893425 2302243 female
-0.9766604 0.6131859 -0.2055062 -0.7075022 0.6625397 -0.2459305 11711421 female
-0.7777236 0.2720682 -0.2709429 -0.1287094 0.2006815 -0.9711646 15201279 female
-0.5954583 0.5593392 -0.1982125 0.6310021 0.2818875 0.7227557 7369078 female
-1.000677 0.3946518 -0.2215831 -0.1697952 -0.2057344 -0.963765 12897242 female
-0.9144185 -0.4354938 -0.1625445 0.9826458 -0.1854913 0.0004963923 1842720 female
-0.9162123 0.007509783 -0.2276198 -0.1487783 -0.4965569 -0.8551586 2895412 female
-0.7411768 0.5338548 -0.09655088 0.09763426 0.6503598 0.7533258 15659774 female
-0.6368259 -0.5868896 -0.2215766 0.9745272 -0.1220803 -0.1881305 1578779 female
-0.6874526 -0.0926293 -0.2370494 0.06976901 -0.07223986 -0.994944 2106409 female
-1.035897 -0.6925517 -0.07295832 -0.3405272 0.9328614 0.1175195 15518401 female
-0.8921841 0.3500648 -0.2544537 -0.5512452 -0.1862433 -0.813291 10330288 female
-0.9834652 -0.6585703 -0.1019923 -0.1825194 0.8593318 0.4777401 16443357 female
-0.6744686 -0.1283961 -0.2337852 0.1966127 -0.07581297 -0.9775458 2171688 female
-0.6351764 -0.3180822 -0.1501845 0.7115996 -0.1549954 0.6852754 2040353 female
