# .PCD v0.7 - Point Cloud Data file format
VERSION 0.7
FIELDS x y z normal_x normal_y normal_z rgb label
SIZE 4 4 4 4 4 4 4 4
TYPE F F F F F F U U
COUNT 1 1 1 1 1 1 1 1
WIDTH 170
HEIGHT 1
VIEWPOINT 0 0 0 1 0 0 0
POINTS 170
DATA ascii
-0.9524326 0.1509968 -0.249784 -0.7423651 0.05852551 -0.6674345 14936567 female
-0.6791788 0.1667163 -0.2807329 0.5707766 0.07203482 -0.8179395 9803174 female
-0.9576979 -0.4222714 -0.1084157 0.3400234 -0.2750932 0.8992818 2170913 female
-0.6200477 0.1207273 -0.06562806 -0.8603917 0.2688353 -0.4329591 13354698 female
-0.674285 -0.3001267 -0.2472233 -0.05237853 0.3664789 -0.9289508 2698289 female
-0.6457832 -0.1920772 -0.1076464 0.6669863 -0.1778042 0.7235433 2170145 female
-0.9158095 0.351715 -0.2366873 -0.7585433 -0.1680911 -0.6295693 6251625 female
-0.9785643 -0.6976649 -0.1310189 0.2471455 -0.9598118 -0.1329679 3946293 female
-0.9419374 -0.5339171 -0.1763126 0.9836841 -0.1796256 -0.01000967 1776929 female
-1.024882 0.1911799 -0.03510278 0.9264437 -0.3699648 -0.06948498 12764108 female
-1.031568 0.4821539 -0.1700749 -0.9778439 0.1316421 0.1627625 7829376 female
-0.9035648 0.3310636 -0.2477628 -0.6103514 -0.0807769 -0.7880014 7566207 female
-0.9958735 -0.4632481 -0.2036221 -0.4215849 -0.01282485 -0.9066983 1973537 female
-0.9804763 0.3800606 -0.1386511 0.7024744 -0.05859851 0.7092926 14213617 female
-0.5883075 0.5558172 -0.238365 0.9080093 0.402017 -0.1179045 13620701 female
-0.6271489 0.02363226 -0.1048038 0.8592774 0.05377703 0.5086751 1973536 female
-0.9862148 0.1461713 0.1149976 0.8042104 -0.581423 -0.1232596 5193276 female
-0.9419574 0.04562961 -0.032044 -0.3938922 0.1895533 0.899399 2500651 female
-0.8962998 -0.2346881 -0.07951985 0.8489308 -0.2945703 0.4387992 2105120 female
-0.667482 -0.5605786 -0.1908883 0.00671989 -0.04191977 0.9990984 2171937 female
-0.9885502 0.4193059 -0.1303385 0.3223176 0.04720937 0.9454536 13288397 female
-0.9371897 0.4236526 -0.1352105 -0.8564774 -0.353958 0.3757128 14082023 female
-1.072155 0.2281354 -0.05724027 -0.9980275 -0.0611424 -0.01424111 5397866 female
-0.7269887 0.3442606 -0.0722014 0.625074 0.1495675 0.7661018 15200255 female
-0.9418988 0.4089083 -0.1650401 -0.9631655 -0.2116347 0.1659008 3553086 female
-0.6249297 0.3697695 -0.2018494 -0.290853 -0.04047188 0.9559114 7829371 female
-0.7212818 0.2451743 -0.05513535 0.585077 0.1395747 0.7988766 13620456 female
-0.7273178 0.2238354 -0.286071 0.1357147 0.3083813 -0.941532 11844804 female
-0.7303783 0.8783163 -0.2599523 0.8126407 0.4265608 -0.3970655 2631463 female
-0.7168148 0.4993421 -0.0748356 0.1575713 0.4940536 0.8550335 15593213 female
-0.5869744 0.2554098 -0.2371193 0.2870704 -0.5351993 -0.7944509 12237763 female
-0.6231771 -0.4186978 -0.2352338 0.9428142 -0.03937933 -0.3309844 1579808 female
-0.9691578 -0.03681549 -0.1887456 -0.5619527 -0.2251065 -0.79595 2631470 female
-0.9010844 -0.2015593 -0.1481882 0.6180019 -0.1276964 -0.7757366 2171688 female
-0.6384714 -0.6738005 -0.2186629 0.9433553 0.1618958 -0.289604 13087919 female
-0.8266893 0.8289028 -0.3081614 -0.3401394 -0.115099 -0.9333045 14338761 female
-0.7267982 0.7699794 -0.2154925 0.7680636 -0.1629909 0.6192837 16442065 female
-0.917047 0.6496603 -0.2491113 -0.5299236 0.6865821 -0.4977811 12437462 female
-0.9542202 0.1806628 -0.08895798 -0.6865954 0.205555 0.6973764 7039086 female
-0.7792884 0.5986465 -0.3072589 -0.2354423 0.2282648 -0.9447021 13094624 female
-0.6271403 -0.1792858 -0.1357969 0.9503242 -0.1026426 0.293851 2105377 female
-0.7935953 0.3502052 -0.04939603 0.08519837 0.228438 0.9698234 15067640 female
-0.860039 0.06148668 -0.2779347 -0.0004602421 -0.4837309 -0.8752167 2566703 female
-0.7484404 0.2378828 -0.0381216 0.3857155 0.1274027 0.913779 12502226 female
-1.018904 0.5704597 -0.1809962 -0.8461112 0.5290111 -0.06513818 4934995 female
-0.9313793 0.4089939 -0.133086 -0.8726349 -0.2100454 0.440896 13620448 female
-0.7122262 0.2887447 -0.2669467 0.3693142 -0.02322637 -0.9290143 13488354 female
-0.7859201 -0.0638086 -0.1569603 -0.9683586 -0.2454965 0.04486642 2433573 female
-0.6137466 -0.03527214 -0.1833989 0.9671395 -0.1219907 -0.2230684 2105122 female
-0.6283737 0.6101785 -0.2287896 0.5361001 0.8401631 0.08199199 11645363 female
-0.8642703 0.1097308 -0.04701233 0.1344624 0.08254247 0.9874749 2566703 female
-0.7558172 0.7252566 -0.2397657 0.7851623 -0.1381701 -0.6036797 4866113 female
-0.6469374 0.4548585 -0.1767745 0.9851102 -0.1580248 0.06772102 6973546 female
-0.9347609 -0.2896532 -0.158687 0.591408 0.2946545 -0.75061 2697257 female
-0.9816809 0.5228695 -0.2365506 -0.2274788 -0.1578223 -0.9609087 11053749 female
-0.8406437 0.7239582 -0.2399649 -0.8602387 0.07182614 -0.5048072 5984074 female
-0.9331177 -0.1108628 -0.02417855 0.004392365 -0.1091112 0.9940199 2171944 female
-0.6589047 0.6018423 -0.192711 0.1861206 0.6590208 0.7287323 16251135 female
-0.786001 0.5321792 -0.08974267 0.1396825 0.6670078 0.7318398 14146792 female
-0.9017416 -0.04253054 -0.2036221 0.1011856 -0.322437 -0.9411672 2500651 female
-0.7941985 0.7985221 -0.103704 -0.8343657 0.2749647 0.4777324 13872292 female
-0.7237045 -0.1913403 -0.1069769 -0.6020696 -0.2520896 0.7576034 2170913 female
-0.8993508 0.4144164 -0.2688103 -0.5162055 -0.3334015 -0.7889076 2698546 female
-0.9507278 -0.01356076 -0.02594204 -0.4048948 0.06643111 0.9119468 2368809 female
-0.6348071 -0.271997 -0.1423221 0.877547 -0.152513 0.4545889 2039075 female
-0.9798551 -0.00625428 -0.189234 -0.7015319 -0.2560098 -0.6650654 2500907 female
-0.7316189 0.4061182 -0.0858987 0.4745178 0.1304903 0.87052 15200255 female
-0.6714678 0.3251845 -0.1344947 0.8575021 0.1760297 0.483429 6183780 female
-0.9920836 -0.2822061 -0.165717 -0.3762254 0.4141485 -0.8288158 2303275 female
-0.7015306 -0.1978784 -0.09669399 -0.2938739 -0.2380345 0.9257309 2170401 female
-0.7555403 0.169601 -0.03958423 0.4039546 -0.2124058 0.8897777 15133177 female
-0.9375052 -0.2158346 -0.1541555 0.09481238 -0.06807816 -0.9931646 2565419 female
-0.9827105 -0.6928547 -0.1781528 0.008172324 -0.9966996 -0.08076593 593934 female
-0.8947618 -0.233157 -0.08204834 0.8677976 -0.2864226 0.4060657 1973534 female
-0.9651394 0.09415624 -0.236791 -0.759948 0.01534497 -0.6498027 3025454 female
-1.065171 0.1270958 0.0206507 -0.8040731 -0.3393846 -0.488144 7171965 female
-0.9232079 -0.01950691 -0.2122139 -0.1277259 -0.3583963 -0.9247909 2697516 female
-0.9963013 -0.6437163 -0.2128721 -0.8204714 0.3239005 -0.4710787 15716301 female
-0.6106299 0.2007746 -0.1312974 -0.8374588 0.2409755 0.4905033 11381437 female
-0.6906716 -0.08401422 -0.07006542 0.02702158 -0.1855098 0.9822708 2171944 female
-1.050014 0.2723315 -0.05438971 -0.2108226 0.6150253 0.7598011 14872823 female
-0.6492707 0.4828361 -0.2066658 0.9777531 -0.1854551 0.09800676 14079966 female
-1.032226 0.3904013 -0.1333349 -0.5205142 0.2943877 0.8014991 14016221 female
-0.9723206 -0.3966347 -0.09517913 0.1341047 -0.2739553 0.9523468 2169889 female
-0.9694636 -0.3091116 -0.1839701 0.05265538 0.3686192 -0.9280879 2697516 female
-0.9276944 0.376397 -0.2300175 -0.8476281 -0.1913761 -0.4948755 10066337 female
-0.760249 -0.1628621 -0.1682294 -0.9881325 -0.1515757 -0.02488079 1841436 female
-0.6113579 0.06650546 -0.1595697 0.9889588 0.08280588 0.1228972 1908257 female
-0.7570037 0.8248483 -0.2997382 0.563311 -0.1339621 -0.8153128 3420972 female
-0.6015239 0.06093345 -0.01910577 -0.8595624 -0.474886 -0.1887743 9404028 female
-0.8623715 -0.02255537 -0.2011693 0.4585131 -0.3898275 -0.798624 2697257 female
-0.8642563 0.1002682 -0.2913437 -0.07781073 -0.1847124 -0.9797075 5263457 female
-0.9808567 -0.1702607 -0.04203084 -0.6406797 -0.05018593 0.7661664 2170657 female
-0.9473637 0.2765665 -0.201933 -0.8335833 0.4039027 -0.3768309 7698044 female
-0.7605441 -0.1478905 -0.1862664 -0.9454315 -0.1596395 -0.2840329 2170913 female
-0.6592909 0.2825873 -0.2111184 0.9206544 0.1620292 -0.3551646 4343106 female
-0.7299262 -0.3344717 -0.2184297 -0.9488757 0.1378433 -0.2839616 2039329 female
-0.7697223 0.4855662 -0.0687248 0.02767159 0.2021891 0.9789555 15396603 female
-0.8166454 0.02996936 -0.1822495 0.8058922 -0.5140036 -0.2938332 2170913 female
-0.9526665 0.6356761 -0.2007552 -0.492231 0.861717 0.1230958 12370114 female
-0.6220068 -0.06221274 -0.1130122 0.9118229 -0.08375684 0.4019499 1973537 female
-0.6419438 -0.6604028 -0.228735 0.9530318 0.05679264 -0.2974979 2105376 female
-1.006307 -0.5656544 -0.1732208 -0.9930599 -0.104462 -0.05403567 1579291 female
-0.6767687 0.6065401 -0.1893462 0.3015312 0.6263252 0.7188851 10264740 female
-0.9370742 -0.2214811 -0.153221 0.1149969 -0.067153 -0.9910934 2500140 female
-1.013519 0.2396688 -0.1134312 0.6513672 -0.6422045 -0.4040966 13816027 female
-0.5838092 0.4716502 -0.2534317 0.9714049 0.03002397 -0.2355229 7171191 female
-1.004248 -0.6530794 -0.1231852 -0.6694929 0.6828568 0.2923795 15785175 female
-0.7563093 -0.1942567 -0.1631639 -0.9875361 -0.1094449 0.1131118 1579291 female
-0.7189242 0.01026726 -0.05827801 -0.1106206 -0.02623768 0.9935163 2171945 female
-0.7161307 0.4292718 -0.3015364 0.2984984 -0.3626525 -0.8828261 9606042 female
-0.7879494 0.7731047 -0.1057856 -0.08759011 0.08653367 0.992391 15324104 female
-0.7356653 0.2005505 -0.2943524 0.09278305 0.28162 -0.9550295 15200255 female
-1.023407 -0.6848145 -0.156533 -0.9152319 -0.03006488 -0.401804 13414826 female
-0.7555107 0.6453841 -0.1823562 0.6077947 0.316668 0.7282218 13751003 female
-0.614726 0.5832678 -0.2617677 0.6334862 0.5078651 -0.5837537 15856379 female
-0.8913794 -0.03150368 -0.2069111 0.1785234 -0.3536901 -0.9181681 2105124 female
-0.6881505 0.5865561 -0.3109339 0.3304442 0.2536794 -0.9090948 16185343 female
-0.8034797 0.7611101 -0.1140948 -0.5017493 0.153374 0.8513073 11177865 female
-0.8440744 -0.008593075 -0.05586627 0.7263929 -0.1639215 0.6674452 2170913 female
-0.6538879 -0.5544103 -0.2558179 0.6718506 -0.1484726 -0.7256532 1973281 female
-0.8850295 0.5186235 -0.07072255 -0.2731031 0.6003354 0.7516729 15133430 female
-0.9011706 -0.2303096 -0.1392431 0.6979084 -0.160524 -0.6979656 2236967 female
-0.7809764 0.2998762 -0.04426055 0.152522 0.1419819 0.9780481 7434876 female
-0.628123 0.1154774 -0.01582757 -0.4769553 0.8425881 0.2501177 16774119 female
-0.9523019 0.5023695 -0.1478036 0.6984983 -0.3291231 0.6354353 15725559 female
-0.7388808 0.2517748 -0.04568978 0.4558558 0.1600062 0.8755532 5130576 female
-0.6650075 0.5342918 -0.1574019 0.7224113 0.1174078 0.6814229 9343641 female
-0.9608268 -0.6827084 -0.09070125 0.9526627 0.2415483 0.1846299 10850699 female
-0.7499485 0.4508792 -0.3145406 0.007413027 -0.267411 -0.9635541 15462391 female
-0.7688437 0.5446316 -0.1067537 0.01774735 0.6528405 0.7572875 9145496 female
-0.7067236 0.5565522 -0.1306031 0.3312256 0.6222856 0.7092604 2697265 female
-0.7633194 -0.05078044 -0.2219891 -0.6321324 -0.2361498 -0.7379986 2237481 female
-0.8122061 0.5082963 -0.3111663 -0.2282113 0.2639305 -0.9371554 15396607 female
-0.647058 -0.5781109 -0.2032032 0.7888721 -0.1063101 0.6052926 2434085 female
-0.7504806 0.7188328 -0.1963459 0.93312 -0.2431128 0.2649214 12429467 female
-0.6455255 -0.4964136 -0.1868478 0.5436833 -0.1839562 0.8188825 2171428 female
-0.7269328 0.2752054 -0.05849416 0.563052 0.1790404 0.8067942 14342371 female
-0.6819949 0.5979059 -0.1793155 0.3143441 0.5708814 0.7584736 10987956 female
-0.7882642 -0.02316705 -0.1194591 -0.9281979 -0.1901186 0.3198492 1907741 female
-0.7246977 0.03721412 -0.282079 0.07710769 -0.5627139 -0.8230478 2171945 female
-0.6167359 -0.004151006 -0.1250418 0.9442616 -0.01280452 0.328947 1973537 female
-0.6313059 0.2761268 -0.2001115 -0.8819333 0.1208025 0.4556318 9147032 female
-0.7208943 0.8742839 -0.2344379 0.921636 0.3533903 -0.1603193 2039327 female
-0.6301677 0.4509419 -0.2917334 0.08402898 -0.08809412 -0.9925616 6710639 female
-0.9267851 0.2854727 -0.09826006 -0.7352208 0.28832 0.6134509 9145493 female
-0.9641417 -0.3057207 -0.06584307 0.05044694 -0.4462198 0.8935004 1776669 female
-1.044064 -0.6913421 -0.09488843 -0.8129338 0.5622175 -0.1518222 14598074 female
-0.6477293 0.1201095 -0.1010822 0.6918194 0.2280376 0.6851166 15330809 female
-0.5867354 0.03779678 -0.06735806 -0.8421043 -0.3796107 -0.3830876 8022116 female
-0.5990813 0.5777694 -0.2407293 0.7808187 0.5827238 -0.225289 13883363 female
-0.954379 -0.599327 -0.1897329 0.9624739 -0.03513416 -0.2690902 1908771 female
-0.661146 -0.3778062 -0.1571001 0.1421428 -0.1888513 0.9716638 2170403 female
-0.9209461 0.4090464 -0.1182475 -0.789337 -0.2605711 0.5559224 14343396 female
-0.7868114 0.6261509 -0.1584932 0.08729631 0.5062218 0.8579736 16120317 female
-0.994886 -0.6213152 -0.1438569 -0.7906748 0.2688178 0.5500639 2236968 female
-0.9814351 0.6134791 -0.2043117 -0.7121888 0.6603229 -0.2382451 11711421 female
-0.7955306 0.2517832 -0.2768835 -0.09985872 0.3105861 -0.9452854 13948650 female
-0.6198904 0.578286 -0.1900847 0.3991654 0.3516179 0.8467773 8947088 female
-1.020266 0.40738 -0.2098993 -0.5417129 -0.09704933 -0.8349422 5589847 female
-0.9204633 -0.430914 -0.1582334 0.9827324 -0.1844458 -0.01472173 1842720 female
-0.9333459 -0.01799604 -0.2108926 -0.2197756 -0.3557736 -0.9083633 2763826 female
-0.7445844 0.5348215 -0.09867036 0.1055933 0.6542079 0.7489073 15659774 female
-0.6478308 -0.618432 -0.2033227 0.8791662 0.08040302 0.4696831 2829616 female
-0.7001995 -0.1079781 -0.2389374 -0.05681085 -0.07738706 -0.9953812 2106409 female
-1.02676 -0.6818981 -0.09076793 -0.4018039 0.9014222 0.1612193 16242386 female
-0.8971726 0.3503363 -0.2542068 -0.5623516 -0.1882423 -0.8051866 10330288 female
-0.99075 -0.6512201 -0.1097706 -0.2971455 0.8260303 0.4789347 16774119 female
-0.6764434 -0.09413854 -0.2377254 0.2400459 -0.05669228 -0.9691047 2171945 female
-0.6434715 -0.3262369 -0.1524657 0.6081507 -0.1787497 0.7734347 1777187 female
