# .PCD v0.7 - Point Cloud Data file format
VERSION 0.7
FIELDS x y z normal_x normal_y normal_z rgb label
SIZE 4 4 4 4 4 4 4 4
TYPE F F F F F F U U
COUNT 1 1 1 1 1 1 1 1
WIDTH 170
HEIGHT 1
VIEWPOINT 0 0 0 1 0 0 0
POINTS 170
DATA ascii
-0.891884 0.1340129 0.8323486 -0.8579036 0.1129961 -0.5012317 14079973 female
-0.5863754 0.1666362 0.7924335 0.6543655 0.07315886 -0.7526311 9803174 female
-0.8714594 -0.4280783 0.9203577 0.276738 -0.2816743 0.9187359 2170913 female
-0.580172 0.1336291 1.042148 -0.7417314 0.005024714 -0.6706783 11974331 female
-0.5935453 -0.298498 0.8218508 0.06934131 0.4024342 -0.912819 2698289 female
-0.6097162 -0.1812176 0.9798778 0.07951766 -0.2503065 0.9648956 2171688 female
-0.8231474 0.3607843 0.7985262 -0.6085186 -0.2672231 -0.7471927 12172489 female
-0.9285756 -0.7157386 0.9265195 0.01762336 -0.9953335 -0.09487206 855565 female
-0.8511363 -0.5392964 0.8530552 0.981913 -0.1807514 0.05635466 1776929 female
-0.9498494 0.2369444 0.9564035 0.2384167 -0.8465348 -0.4759585 10921901 female
-0.9401758 0.4816701 0.8300565 -0.8316286 -0.01148192 -0.5552135 13553631 female
-0.8146613 0.3275238 0.7986984 -0.5170067 -0.1092249 -0.8489841 7566207 female
-0.9030112 -0.468377 0.8225157 -0.358078 -0.006264348 -0.9336706 1973537 female
-0.9282876 0.3823903 0.9177366 0.08577786 0.1855802 0.978878 9079699 female
-0.5105811 0.4870289 0.802324 0.6952253 0.0096904 -0.7187266 8289676 female
-0.5550091 0.0206176 0.9736829 0.7951956 0.02981664 0.6056194 1973536 female
-0.9165627 0.1925876 1.173328 0.9165206 -0.3053691 -0.2583404 10652550 female
-0.8705253 0.03823011 1.010584 -0.4811983 0.1472612 0.8641541 2500651 female
-0.8125448 -0.2397356 0.9560738 0.8141257 -0.2946814 0.500362 2105120 female
-0.5999832 -0.5606192 0.8665035 -0.116557 -0.08229186 0.989769 2171937 female
-0.8927784 0.391952 0.8981143 0.7980582 -0.07271688 0.5981768 7040379 female
-0.861685 0.4243346 0.9022552 -0.8957291 -0.3424121 0.2835899 14082023 female
-0.9935256 0.2395679 1.005514 -0.980243 -0.1659847 -0.1075765 4868692 female
-0.6617153 0.355117 0.9921606 0.5040939 0.1906565 0.8423417 15199231 female
-0.8628559 0.4083626 0.8727291 -0.9761188 -0.2090564 0.05905572 3553086 female
-0.5478309 0.3703696 0.8872907 -0.473105 0.03209322 0.8804213 7829371 female
-0.6535658 0.2471763 1.012152 0.4929138 0.1596809 0.8552999 13620456 female
-0.6343471 0.2230329 0.7816772 0.2333456 0.3031237 -0.9239404 11844804 female
-0.633391 0.8729637 0.7880737 0.8659574 0.3959998 -0.3054537 2631463 female
-0.7182575 0.4052128 0.9896925 0.04208667 0.3574788 0.9329725 6184292 female
-0.4929979 0.2488415 0.8891628 0.7564666 -0.4801247 -0.4441156 11317177 female
-0.5470986 -0.4185085 0.8346071 0.9748134 -0.0537345 -0.216452 1579808 female
-0.881114 -0.03898341 0.8498281 -0.4786857 -0.2096509 -0.8525881 2631470 female
-0.8121464 -0.2041355 0.8889264 0.6854386 -0.09197053 -0.7222987 2171688 female
-0.5703608 -0.6731917 0.8378132 0.9750675 0.1479373 -0.1654023 13087919 female
-0.7241249 0.823744 0.7298411 -0.22437 -0.142596 -0.9640148 14338761 female
-0.6463935 0.7571258 0.8519447 0.931647 -0.3633616 -0.001482805 14535868 female
-0.8104846 0.63903 0.7675976 -0.3254252 0.5203509 -0.7895147 12369607 female
-0.8639245 0.1644355 0.9739155 -0.5783265 0.1900641 0.7933562 3552582 female
-0.6884873 0.6124002 0.7493944 -0.06113774 0.1852009 -0.980797 11449542 female
-0.5786999 -0.1677569 0.9714145 0.5747949 -0.2128443 0.7901316 1974050 female
-0.7271917 0.3375242 1.01079 -0.02685368 0.1963321 0.9801697 15725567 female
-0.7474777 0.07115377 0.7739672 0.09326457 -0.4457517 -0.8902849 2435119 female
-0.6826757 0.2260943 1.028085 0.2826269 0.05458467 0.9576756 15002619 female
-0.9207295 0.5812393 0.8218423 -0.6491917 0.4914843 -0.5805113 15200255 female
-0.8505153 0.419687 0.9218937 -0.8162951 -0.3833004 0.4321378 9672086 female
-0.6500539 0.2703418 0.7922678 0.195307 0.110278 -0.9745224 15200255 female
-0.7152992 -0.0345197 0.9018061 -0.9830898 -0.1675153 -0.0739805 3290426 female
-0.5340743 -0.03809739 0.896612 0.9834635 -0.1436492 -0.1102926 2105122 female
-0.5692334 0.6125978 0.8604549 0.1117041 0.8458053 0.5216661 13422293 female
-0.797846 0.1393916 1.003151 -0.2909096 -0.07969757 0.9534253 15133438 female
-0.664811 0.7214512 0.8100298 0.8508579 -0.1706751 -0.4969013 4866113 female
-0.5713198 0.4442438 0.8087434 0.8815703 -0.35197 -0.3145643 13619671 female
-0.8773701 -0.3180253 0.843273 0.1240763 0.3650698 -0.922675 2697774 female
-0.9365168 0.5355722 0.8220598 -0.7719499 0.1940092 -0.6053543 15199223 female
-0.7533458 0.7130947 0.8039137 -0.8103734 0.1734017 -0.5596667 10981510 female
-0.871526 -0.1121507 1.011088 -0.3035795 -0.1246445 0.944618 2171944 female
-0.5638876 0.6023188 0.8741677 0.09455194 0.7157628 0.6919129 15330803 female
-0.6868246 0.5377204 0.9569669 -0.01879809 0.6846998 0.7285828 15660798 female
-0.8413891 0.01427303 0.8166152 -0.1981817 -0.5077492 -0.8384001 3157808 female
-0.7094178 0.8239371 0.9271443 -0.6779367 0.4868154 0.550829 14072240 female
-0.6519977 -0.1878175 0.9642249 -0.6250663 -0.2513685 0.7389899 2170401 female
-0.8085408 0.4105911 0.7745388 -0.420222 -0.3615598 -0.8322788 2698546 female
-0.8780792 -0.02159809 1.013523 -0.4893095 0.02088802 0.87186 2368809 female
-0.5662658 -0.2752574 0.9318902 0.8135014 -0.1910692 0.5492796 2039075 female
-0.9118094 -0.1242026 0.8894494 -0.8723319 -0.04859915 -0.4864927 2170145 female
-0.6690342 0.405887 0.9797621 0.3437437 0.2547507 0.9038486 15791103 female
-0.5804011 0.3591459 0.8469357 0.9607052 -0.1761622 -0.2145049 15199990 female
-0.9221467 -0.3702136 0.9282415 -0.704227 -0.1430744 0.6954093 2565671 female
-0.6342633 -0.1882773 0.9749735 -0.346626 -0.2520152 0.9035146 2170660 female
-0.690707 0.1781792 1.026384 0.2763505 -0.1900374 0.9420807 4606287 female
-0.8476676 -0.2193565 0.8788702 0.1798534 -0.04036122 -0.982865 2565419 female
-0.9091253 -0.696923 0.8427588 -0.1825336 -0.9594188 -0.2149348 921102 female
-0.8079939 -0.2532725 0.9381055 0.9160445 -0.2990739 0.2672403 2038559 female
-0.8845066 0.08606983 0.8155333 -0.7609871 -0.02258498 -0.6483738 2565935 female
-0.9880143 0.1489246 1.09659 -0.7123199 -0.4878875 -0.5045455 15201279 female
-0.8419079 0.002270826 0.8235886 -0.1508942 -0.4364709 -0.8869747 2566447 female
-0.913461 -0.65999 0.8241924 -0.8805929 0.2704706 -0.3891037 15717326 female
-0.5534063 0.2174854 0.9676148 -0.8927295 0.3162338 0.3209834 14147056 female
-0.6253296 -0.08613356 0.9992737 -0.09389798 -0.1952139 0.9762554 2171944 female
-0.9868804 0.2531342 1.031641 -0.7648625 0.5178731 0.3831354 6250344 female
-0.5639982 0.4719037 0.8289074 0.9173268 -0.3928688 0.0645413 11777205 female
-0.9631527 0.4014054 0.8921414 -0.8674044 0.3478751 0.3557985 12042183 female
-0.9137191 -0.3693366 0.9375378 -0.5095004 -0.184053 0.8405557 2631464 female
-0.8777301 -0.314194 0.8448246 0.1184017 0.3771251 -0.9185628 2697516 female
-0.8410677 0.3732646 0.8113763 -0.7841297 -0.2146215 -0.5823043 10066337 female
-0.6848747 -0.162077 0.8930947 -0.9819711 -0.1243172 -0.1424012 1841436 female
-0.5318283 0.06442899 0.9216048 0.9695239 0.06534109 0.2361229 1908257 female
-0.6561117 0.8186164 0.7470475 0.6566133 -0.1736238 -0.7339712 3420972 female
-0.5703366 0.07796291 1.104461 -0.561309 -0.7127931 0.4205451 2168856 female
-0.7766182 -0.04810627 0.8591906 0.6064515 -0.3170669 -0.7291675 2498854 female
-0.768783 0.0988783 0.7622978 0.03015114 -0.1861421 -0.9820601 5263457 female
-0.9018875 -0.1778831 0.9885117 -0.7049387 -0.09056972 0.7034619 2170657 female
-0.8627231 0.2740128 0.8413399 -0.7916842 0.3881732 -0.4717603 7698044 female
-0.681151 -0.1960356 0.8867606 -0.9811113 -0.05846573 -0.184397 1776155 female
-0.5753323 0.2830933 0.8634388 0.9523405 0.1665498 -0.2555555 4343106 female
-0.6583645 -0.3634535 0.848451 -0.9982315 0.04924598 -0.03329967 1776161 female
-0.7146858 0.5022186 0.9806511 0.0083665 0.3954548 0.9184473 14738420 female
-0.7298047 0.03735674 0.8619089 0.4970564 -0.827934 -0.2597313 1315860 female
-0.8652812 0.6320885 0.8531425 -0.1651218 0.9271304 0.3363985 12894660 female
-0.5514887 -0.06575841 0.9651381 0.8559411 -0.1120002 0.5047978 1973537 female
-0.572328 -0.6594281 0.8278251 0.9835253 0.04253357 -0.1756957 2105376 female
-0.9155816 -0.5709674 0.8515375 -0.9872487 -0.1022598 -0.1219954 1579291 female
-0.5224955 0.5923397 0.8437145 0.6867846 0.7267798 0.01086355 10132378 female
-0.8472768 -0.2251563 0.8796342 0.1987302 -0.04069836 -0.9792088 2500140 female
-0.9330242 0.2526746 0.9445098 0.6784657 -0.6775185 -0.2839946 13816027 female
-0.4982304 0.4582072 0.826923 0.9647105 -0.006882931 -0.263223 15461628 female
-0.9153749 -0.6242108 0.8377876 -0.9555943 0.1102592 -0.2732809 2105120 female
-0.6812886 -0.178227 0.8806098 -0.9468003 -0.06581479 -0.31502 1907741 female
-0.6521183 0.008843048 1.008796 -0.2274761 -0.03271506 0.973234 2171945 female
-0.6616178 0.4368272 0.7482987 0.1051333 -0.3033293 -0.9470683 12237251 female
-0.700827 0.753019 0.9339632 0.3508824 -0.2027957 0.9141966 15717586 female
-0.6064953 0.1489885 0.7759748 0.5128002 0.05307658 -0.8568657 12106953 female
-0.9104786 -0.7036038 0.8791263 0.06777745 -0.9862872 -0.1504785 723979 female
-0.7025598 0.6464734 0.8831138 0.1520658 0.1486662 0.9771256 13357275 female
-0.5153642 0.5613702 0.8121178 0.7284026 0.382002 -0.5687742 15724791 female
-0.8140183 -0.04467805 0.8416094 0.1893365 -0.2828503 -0.9402911 2500652 female
-0.5827551 0.5535958 0.7542769 0.5104614 -0.03288845 -0.8592715 11383490 female
-0.7255084 0.7489782 0.929706 -0.5181848 0.04896981 0.8538656 15719882 female
-0.8073573 0.003367901 1.016855 0.2766946 -0.03499049 0.9603207 2171171 female
-0.5784007 -0.5522442 0.8040853 0.7515547 -0.1384072 -0.6449876 1973281 female
-0.8399211 0.5253135 0.9459973 -0.6199622 0.474915 0.6245819 13949156 female
-0.8125003 -0.233736 0.8963634 0.7555683 -0.131818 -0.6416702 2236967 female
-0.6948116 0.30079 1.014922 0.1674356 0.1848539 0.9683979 6316394 female
-0.6049427 0.1295201 1.120389 0.5122202 0.7399054 0.4360855 14797496 female
-0.8760449 0.5331597 0.8934087 0.3141733 -0.297444 0.9015665 14079966 female
-0.6587531 0.2391553 1.01664 0.4568226 0.1349448 0.8792627 13357798 female
-0.5824602 0.5250769 0.9045221 0.7313315 -0.04332189 0.680645 14606311 female
-0.8774581 -0.7072104 0.955058 0.9405332 -0.3198612 0.114395 6706519 female
-0.6479174 0.4471405 0.7462661 0.1567254 -0.3110157 -0.9373934 15725567 female
-0.742796 0.5390503 0.9599395 0.1239189 0.6795219 0.7231143 15396344 female
-0.6171076 0.5101154 0.9682328 0.422151 0.5821938 0.6948662 14607854 female
-0.6920594 -0.01636022 0.8403882 -0.6317049 -0.2802326 -0.7227854 2302243 female
-0.7151787 0.5029759 0.7396234 -0.1062451 0.2310638 -0.9671202 15396607 female
-0.5806075 -0.5893239 0.8557283 0.7093942 -0.1100606 0.6961657 1907998 female
-0.6659132 0.7018936 0.8536162 0.8696396 -0.1148356 0.4801454 14993595 female
-0.5770509 -0.4974326 0.8762735 0.4353332 -0.234254 0.8692583 2171428 female
-0.6579631 0.2580609 1.01199 0.4671274 0.1838472 0.8648654 12895958 female
-0.597496 0.5990348 0.8807749 0.1935434 0.6131774 0.7658684 11646908 female
-0.7145531 -0.02222793 0.9396375 -0.9633852 -0.1702973 0.2070939 1907741 female
-0.6407025 0.04864031 0.7785708 0.134899 -0.4559849 -0.8797045 2368300 female
-0.5430594 -0.007347026 0.9545677 0.8989709 -0.03818835 0.4363404 1973537 female
-0.5573856 0.2788265 0.8945341 -0.9537309 0.1784113 0.2420057 9147032 female
-0.6250092 0.8585156 0.8318503 0.9813019 0.155862 0.1129317 2368292 female
-0.5427527 0.4674236 0.7871027 0.1128855 -0.1726851 -0.9784869 5920355 female
-0.8558957 0.2898584 0.9394475 -0.8348539 0.2781548 0.475025 7960958 female
-0.8807835 -0.3119257 0.9630406 -0.01373315 -0.4560806 0.8898325 1776669 female
-0.9650945 -0.6975978 0.9596058 -0.4373873 0.8319491 0.3413988 1249037 female
-0.5439889 0.03274045 0.956549 0.8769139 0.03375029 0.479461 1973537 female
-0.5523091 0.05065712 1.066555 -0.8895425 -0.1293006 0.438173 12297634 female
-0.5119627 0.5753126 0.8398091 0.8102195 0.5763646 -0.1065278 13883363 female
-0.8594651 -0.5873989 0.8469672 0.9958338 -0.08597624 -0.0303812 1973022 female
-0.5862478 -0.5742662 0.8622773 0.4408963 -0.1247773 0.8888425 2171172 female
-0.8474427 0.4099739 0.921685 -0.8487662 -0.2452101 0.4684741 14343396 female
-0.6799233 0.6307381 0.8820126 0.2905139 0.6210644 0.7279291 15396082 female
-0.9046193 -0.643376 0.8988304 -0.6229512 0.6235217 0.4723902 2302243 female
-0.8946466 0.6151527 0.8227671 -0.6662173 0.6617752 -0.3438139 11711421 female
-0.7032692 0.2499509 0.7834577 0.000681234 0.2974387 -0.9547406 13948650 female
-0.5334009 0.5537423 0.8885012 0.2321999 0.2206794 0.9473034 5789280 female
-0.9106935 0.3205107 0.8678635 0.6807213 -0.4998019 -0.5355525 9147031 female
-0.8308479 -0.436389 0.8731645 0.9814333 -0.1846284 0.05197235 1842720 female
-0.8319243 0.007454718 0.8206218 -0.07455108 -0.4872532 -0.8700726 2895412 female
-0.665484 0.5321724 0.9612715 0.04290655 0.6719459 0.7393563 14606319 female
-0.5804036 -0.6183218 0.8539108 0.8165296 0.03867616 0.5760067 2829616 female
-0.577582 -0.06137777 0.8388263 0.4923955 -0.1371929 -0.859491 2303275 female
-0.9596734 -0.6950747 0.9458321 -0.4408296 0.8961521 0.05079976 15651273 female
-0.8077359 0.346569 0.7921492 -0.4658459 -0.217839 -0.8576326 10330288 female
-0.9023343 -0.6606943 0.9228325 -0.2022393 0.8495485 0.4872029 16443357 female
-0.5916044 -0.09497669 0.8346872 0.3509282 -0.05437845 -0.9348221 2171945 female
-0.5750089 -0.3289335 0.9185836 0.5058653 -0.226525 0.832338 1777187 female
