# .PCD v0.7 - Point Cloud Data file format
VERSION 0.7
FIELDS x y z normal_x normal_y normal_z rgb label
SIZE 4 4 4 4 4 4 4 4
TYPE F F F F F F U U
COUNT 1 1 1 1 1 1 1 1
WIDTH 170
HEIGHT 1
VIEWPOINT 0 0 0 1 0 0 0
POINTS 170
DATA ascii
-0.9204289 0.152196 -0.2305078 -0.7047836 0.07038509 -0.7059221 14936567 female
-0.6454029 0.1640141 -0.2466361 0.6148832 0.06357595 -0.7860514 9803174 female
-0.9266616 -0.4267039 -0.09256025 0.3296265 -0.2406721 0.9129202 2170913 female
-0.6233292 0.1152738 -0.001921014 -0.8413589 -0.3933855 -0.3706252 6773335 female
-0.6616806 -0.3034419 -0.2201326 0.001917445 0.3806894 -0.924701 2698289 female
-0.6646192 -0.1843337 -0.06172835 0.1384811 -0.2565956 0.9565467 2171688 female
-0.8999664 0.3350419 -0.1890464 -0.8890929 0.07124183 -0.4521487 12238278 female
-0.983336 -0.7138653 -0.07011231 0.01118751 -0.9983659 -0.0560389 855565 female
-0.9064951 -0.5180722 -0.1434432 0.9504384 -0.2214328 0.2182528 1841948 female
-0.978779 0.1972969 -0.03409338 0.8231003 -0.5306368 -0.2023125 8092802 female
-0.9928246 0.482834 -0.175914 -0.9838626 0.07564163 -0.1621504 10133932 female
-0.8952928 0.3159105 -0.2008761 -0.8007221 0.08102518 -0.5935311 4342604 female
-0.9638554 -0.4713089 -0.1864198 -0.4117855 -0.04759859 -0.9100369 1973537 female
-0.9884521 0.4151939 -0.1286648 -0.6077968 0.2341358 0.7587909 11056058 female
-0.5495152 0.5478234 -0.2052161 0.8908035 0.3713892 -0.2618 14608367 female
-0.6024358 -0.01823562 -0.07633556 0.8781768 -0.0517243 0.4755314 1973536 female
-0.9568465 0.1642592 0.1221007 -0.8400152 -0.4394954 0.3181484 11771030 female
-0.8533197 0.06495094 -0.01447843 0.2618311 0.180828 0.9480219 2434601 female
-0.8656128 -0.2372889 -0.06854627 0.8410408 -0.2854101 0.4595558 2105120 female
-0.6792905 -0.616028 -0.1675193 -0.4637316 0.2413141 0.852479 2171686 female
-0.9381464 0.4156412 -0.1278295 0.595419 -0.06111339 0.8010876 11250613 female
-0.9075067 0.4052228 -0.1390024 -0.9749106 -0.1038817 0.1968702 14672877 female
-1.025726 0.2324986 -0.04765904 -0.9940202 -0.1084862 -0.01243308 5397866 female
-0.6409456 0.3411293 -0.1098569 0.8678597 0.1186778 0.4824262 3420469 female
-0.9144989 0.4501419 -0.1190778 -0.9527165 -0.1855979 0.2405924 5394262 female
-0.5768721 0.418049 -0.1573096 0.2235189 0.04163342 0.97381 14541801 female
-0.6889757 0.2658428 -0.03598244 0.6057944 0.1713661 0.7769471 6184287 female
-0.6924267 0.2216268 -0.2545135 0.1915095 0.305341 -0.9327866 11844804 female
-0.681792 0.8763592 -0.2233603 0.8506823 0.4137974 -0.3242089 2631463 female
-0.6991842 0.477462 -0.03548976 -0.01085193 0.188724 0.9819703 14606327 female
-0.558632 0.2514385 -0.1893859 0.3545422 -0.5941647 -0.7219891 12237763 female
-0.6153983 -0.4240435 -0.2076347 0.9542354 -0.06867622 -0.2910644 1579808 female
-0.9238806 -0.03897144 -0.1797114 -0.3534429 -0.2308358 -0.906528 2105896 female
-0.8766457 -0.2235055 -0.1369194 0.5142667 -0.1040679 -0.8512929 2303014 female
-0.639847 -0.6781592 -0.1955013 0.955976 0.1370871 -0.2594551 13087919 female
-0.7750517 0.8298512 -0.2798051 -0.2679266 -0.09431878 -0.9588113 14338761 female
-0.6917785 0.7573945 -0.1649027 0.9309308 -0.359864 -0.06217597 14535868 female
-0.8740137 0.6516793 -0.2303817 -0.4768318 0.7018728 -0.529156 12437462 female
-0.9348544 0.1909259 -0.07590748 -0.7752779 0.2065122 0.5969061 13687008 female
-0.7400968 0.6174413 -0.2720073 -0.1126439 0.2319232 -0.9661899 11449542 female
-0.6340003 -0.1714341 -0.07205001 0.621393 -0.2273533 0.7497874 1974050 female
-0.7704431 0.3505667 -0.02284874 0.02939755 0.2373435 0.9709809 15067640 female
-0.8278852 0.06225748 -0.2542139 0.04061643 -0.4771488 -0.8778834 2566703 female
-0.7293203 0.2169767 -0.005100236 0.3221903 -0.00842636 0.9466374 12700887 female
-0.9843403 0.555442 -0.1484808 -0.8500892 0.3570831 0.3870918 7304056 female
-0.9113079 0.3332229 -0.1473502 -0.9875674 0.1541524 -0.0307841 14607077 female
-0.7062329 0.2693284 -0.2428855 0.1474232 0.117442 -0.9820763 15200255 female
-0.7723962 -0.03535676 -0.1314607 -0.9887028 -0.1493395 -0.01282527 3290426 female
-0.592056 -0.04217589 -0.148438 0.9715759 -0.1605238 -0.17399 2105122 female
-0.6140023 0.6107096 -0.1694046 0.1675677 0.8132855 0.5572141 13422293 female
-0.8370684 0.1253532 -0.02485998 -0.1320044 -0.08374562 0.9877052 2435117 female
-0.7121159 0.7236174 -0.207858 0.826357 -0.1467338 -0.5436941 4866113 female
-0.6246566 0.4468974 -0.2347325 0.8200137 -0.3589772 -0.4457723 13553878 female
-0.9027342 -0.2953461 -0.1480497 0.6010575 0.2746837 -0.750519 2697257 female
-0.9600857 0.5349216 -0.2190503 -0.3703364 0.01831928 -0.9287171 10725043 female
-0.80092 0.7155895 -0.2100945 -0.835302 0.2011017 -0.5116919 10981510 female
-0.9069797 -0.1154142 -0.009853922 -0.02700515 -0.1366762 0.9902477 2171944 female
-0.6077054 0.5995767 -0.1567287 0.1621152 0.6737068 0.7209978 15330803 female
-0.7441717 0.531247 -0.06571892 0.04682063 0.6644255 0.7458864 14278121 female
-0.9016696 0.01578829 -0.2088351 -0.2518675 -0.5089785 -0.8231061 3157808 female
-0.7531012 0.8087018 -0.07624745 -0.6853792 0.4907393 0.5379872 13808297 female
-0.7079484 -0.1900862 -0.07466692 -0.5786822 -0.2440559 0.7781796 2170401 female
-0.8399613 0.4024345 -0.2559704 -0.3205891 -0.27785 -0.9055507 15198199 female
-0.9265836 -0.01853137 -0.009273572 -0.4369466 0.03246475 0.8989013 2368809 female
-0.6262857 -0.2687339 -0.1090157 0.8526791 -0.1786298 0.4909478 2171174 female
-0.9508437 -0.00694556 -0.1727903 -0.6724921 -0.2498863 -0.6966429 2500907 female
-0.6932284 0.3979089 -0.06128508 0.5406145 0.1583756 0.8262282 15724543 female
-0.6388928 0.3306816 -0.1114704 0.8820328 0.1486973 0.4471099 13752800 female
-0.959978 -0.2883247 -0.1560384 -0.3637266 0.3888374 -0.8464683 2303275 female
-0.6895463 -0.1908912 -0.06509978 -0.2901113 -0.2499438 0.9237767 2170660 female
-0.736746 0.1759219 -0.007579071 0.321937 -0.2040884 0.9245023 4606287 female
-0.8923169 -0.2600332 -0.1361622 0.3921458 -0.05137381 -0.9184674 2631471 female
-0.9688397 -0.6986696 -0.1555478 -0.1949073 -0.9670683 -0.163677 921102 female
-0.8622109 -0.2514167 -0.08648577 0.9292462 -0.2959099 0.2212211 2038559 female
-0.9347103 0.09536278 -0.2183767 -0.7257449 0.0269154 -0.6874372 3025454 female
-0.9892389 0.1285765 0.05595686 0.9637745 -0.2646513 0.03314262 6642776 female
-0.9018269 0.003658846 -0.2016705 -0.2060524 -0.439742 -0.8741678 2566447 female
-0.9742584 -0.6625645 -0.1753484 -0.9018848 0.2560185 -0.3479345 15717326 female
-0.5704679 0.1467038 -0.01738739 0.573285 0.4441875 0.688507 15727607 female
-0.7441611 -0.06399879 -0.06683477 -0.7404861 -0.2434939 0.6264112 1973534 female
-1.014217 0.2608913 -0.03616012 -0.5860516 0.5454379 0.5992002 13424860 female
-0.6129332 0.4722236 -0.2055969 0.9149885 -0.4034776 -0.001408748 11777205 female
-1.000025 0.4193915 -0.1468505 -0.9165053 0.23432 0.3242099 5001303 female
-0.9413981 -0.4005715 -0.08049971 0.1231358 -0.2375358 0.9635425 2169889 female
-0.9372859 -0.3161331 -0.1728936 0.06477436 0.3369462 -0.9392931 2697516 female
-0.8753647 0.3943843 -0.2342916 -0.6454748 -0.180226 -0.7422134 15133430 female
-0.7450143 -0.1634616 -0.1433279 -0.9911906 -0.1067285 -0.07842379 1841436 female
-0.5864164 0.05993981 -0.1227123 0.9832736 0.04525426 0.1764229 1908257 female
-0.7063177 0.8240811 -0.2660053 0.6226332 -0.1344157 -0.7708828 3420972 female
-0.6059586 0.06716015 0.03752661 -0.9491704 -0.3103887 -0.05229288 10193288 female
-0.8347665 -0.04720196 -0.1693288 0.5611563 -0.3269671 -0.7603921 2498854 female
-0.7905515 0.07167319 -0.2520762 -0.07695504 -0.511002 -0.8561278 2565678 female
-0.95262 -0.1746558 -0.03143372 -0.6622118 -0.07653791 0.7453975 2170657 female
-0.9033523 0.2767302 -0.2013191 -0.6926545 0.3633802 -0.6230446 12371154 female
-0.742404 -0.1975735 -0.1502581 -0.9920571 -0.04212405 -0.1185252 1776155 female
-0.6206303 0.2675343 -0.1515557 0.9661505 0.2561217 -0.03090044 14673128 female
-0.7197567 -0.3361711 -0.1942439 -0.9300631 0.1760025 -0.3224993 2039329 female
-0.7553063 0.4974515 -0.04540719 0.05922804 0.3588964 0.9314963 14738420 female
-0.7877358 0.03908194 -0.1777786 0.2613548 -0.9309872 -0.2548656 1842204 female
-0.9133859 0.6381556 -0.1849368 -0.4809372 0.8716242 0.09471416 12370114 female
-0.6054462 -0.0700392 -0.0791814 0.8845113 -0.1311232 0.4477125 1973537 female
-0.6426927 -0.6647192 -0.2056215 0.9636212 0.03104413 -0.2654629 2105376 female
-0.9747472 -0.572432 -0.1519315 -0.9927139 -0.1046441 -0.05973938 1579291 female
-0.5690456 0.590777 -0.191302 0.6984742 0.7155919 -0.007876454 10132378 female
-0.8956782 -0.2564583 -0.1372106 0.3471904 -0.05130862 -0.93639 2698289 female
-0.9732443 0.210274 -0.04088705 0.9351738 -0.3515042 -0.04352941 7171699 female
-0.5456091 0.4668342 -0.2083916 0.9910099 -0.002107546 -0.1337723 7171191 female
-0.9753577 -0.6262347 -0.1632204 -0.9698939 0.1009946 -0.2215983 2105120 female
-0.7425987 -0.179665 -0.1562293 -0.9664536 -0.04876359 -0.2521695 1907741 female
-0.7017007 0.005916433 -0.02834668 -0.1653341 -0.03716731 0.9855371 2171945 female
-0.7147874 0.439754 -0.2825992 0.05257984 -0.2710629 -0.9611245 12237251 female
-0.7363187 0.7429623 -0.08573604 0.5524598 -0.09431732 0.8281862 16246742 female
-0.6667623 0.1469755 -0.2620884 0.467458 0.04754465 -0.8827358 12106953 female
-0.9680415 -0.7037968 -0.1189301 0.05866296 -0.9918017 -0.1135254 723979 female
-0.7180666 0.6431786 -0.1518353 0.5563391 0.2965637 0.7762324 13751003 female
-0.5651969 0.5617761 -0.2252967 0.6825089 0.4058391 -0.6078456 15724791 female
-0.8731036 -0.04361731 -0.1847485 0.1327331 -0.2911761 -0.9474167 2500652 female
-0.6366795 0.5579486 -0.2771363 0.4417701 0.009714433 -0.8970757 11383490 female
-0.7698671 0.7502109 -0.08557042 -0.5301321 -0.008912462 0.8478682 14798784 female
-0.8195453 -0.01079941 -0.0347174 0.7054568 -0.1701212 0.6880331 2170913 female
-0.6500235 -0.5583259 -0.231626 0.6958874 -0.1634728 -0.6992978 1973281 female
-0.8633409 0.5269762 -0.06157816 -0.3555056 0.5948748 0.7209297 5724514 female
-0.8679417 -0.2462439 -0.1225834 0.7966118 -0.2187891 -0.5635077 2105124 female
-0.7587845 0.2999237 -0.01617437 0.09648924 0.1494796 0.9840455 7434876 female
-0.6334391 0.117775 0.06310876 0.672541 0.5992971 0.4342023 14468016 female
-0.9371389 0.5868497 -0.1213288 -0.1618024 0.3264159 0.9312748 12303555 female
-0.7201487 0.2915109 -0.02249721 0.3862574 0.1657366 0.9073789 11053494 female
-0.6219019 0.5145971 -0.1363417 0.8204513 -0.2712851 0.5032535 14080999 female
-0.9575399 -0.7156613 -0.03023373 -0.06508002 -0.995827 0.06397847 526089 female
-0.7073368 0.4488015 -0.2852997 0.06994839 -0.2671078 -0.9611247 15462391 female
-0.7692921 0.5420533 -0.07563104 0.1980222 0.6445985 0.7384307 3419956 female
-0.6535422 0.4803757 -0.04984477 0.5593593 0.2548457 0.7887781 7895428 female
-0.7526721 -0.01705879 -0.1940839 -0.6805257 -0.2634479 -0.6837251 2302243 female
-0.76792 0.5083594 -0.2857896 -0.1517274 0.2750852 -0.9493719 15396607 female
-0.646207 -0.5827745 -0.1791637 0.7599651 -0.1390917 0.6349066 2434085 female
-0.7112687 0.7019388 -0.1651267 0.891228 -0.1388858 0.4317679 14993595 female
-0.6424791 -0.5014875 -0.1613818 0.5017846 -0.2132235 0.8383006 2171428 female
-0.7165359 0.2706432 -0.01964747 0.4121027 0.1791073 0.8933599 4539471 female
-0.6410813 0.5965042 -0.1473309 0.2600929 0.568717 0.7803286 11646908 female
-0.7768345 0.0124493 -0.1135049 -0.993898 -0.03653511 0.1040764 2169889 female
-0.7034726 0.04725172 -0.2584201 0.07511821 -0.4530597 -0.8883097 2368300 female
-0.5967441 -0.0117694 -0.08973477 0.9239628 -0.05809921 0.3780441 1973537 female
-0.5821632 0.2128673 -0.1598744 -0.1718346 -0.6693776 -0.7227769 3947321 female
-0.6714097 0.8597564 -0.1807955 0.9853076 0.1529514 0.07599253 2368292 female
-0.5968307 0.4706806 -0.254113 0.02087453 -0.1012423 -0.9946428 5920355 female
-0.9046273 0.2712937 -0.07398045 -0.7412482 0.3299294 0.5845491 3289402 female
-0.9334559 -0.3088474 -0.05491188 0.03771782 -0.4193142 0.9070573 1776669 female
-1.005811 -0.6897745 -0.06249062 -0.4468486 0.8941381 0.02904121 16243156 female
-0.5968865 0.02827765 -0.08737293 0.9057319 0.01381455 0.4236258 1973537 female
-0.5865169 0.04641274 0.005628741 -0.0786536 -0.3585836 0.9301782 8743785 female
-0.5591736 0.5738649 -0.1971516 0.8089476 0.569671 -0.1451853 13883363 female
-0.9226698 -0.6067514 -0.166652 0.9646387 -0.04751228 -0.2592582 1908771 female
-0.6532564 -0.578576 -0.1724039 0.511776 -0.1024917 0.8529835 2171172 female
-0.8868192 0.4234181 -0.08235075 -0.6999867 -0.4921537 0.5174972 14079205 female
-0.7513937 0.6245488 -0.1305744 0.03283213 0.4974409 0.8668763 16120317 female
-0.961046 -0.6427787 -0.1021725 -0.593964 0.644787 0.4810992 2302243 female
-0.9592534 0.6063426 -0.1704715 -0.6911621 0.7181215 -0.0812192 14607335 female
-0.7478177 0.2704923 -0.2437616 -0.08530661 0.195259 -0.9770346 15201279 female
-0.5767143 0.5494087 -0.148085 0.3182292 0.1533581 0.9355273 5789280 female
-0.9501446 0.3600866 -0.1924604 0.4846198 -0.4088208 -0.7733105 2763818 female
-0.8888629 -0.4372635 -0.1416442 0.9827058 -0.1851457 0.003237139 1842720 female
-0.8920205 0.00878964 -0.2052681 -0.1295813 -0.4908119 -0.8615755 2895412 female
-0.7233936 0.5250853 -0.06265017 0.0258674 0.6154018 0.787789 10395047 female
-0.6483247 -0.6228483 -0.1800603 0.8633718 0.04999321 0.5020853 2829616 female
-0.678727 -0.1102359 -0.2096755 -0.006929824 -0.05978994 -0.9981869 2106409 female
-1.009833 -0.691856 -0.0477587 -0.3288308 0.9389277 0.1014159 15518401 female
-0.8197455 0.2408508 -0.2478026 -0.1053662 0.3047989 -0.9465704 15201018 female
-0.9573483 -0.6590921 -0.07763175 -0.172997 0.8693324 0.4629615 16443357 female
-0.6544443 -0.09749223 -0.2069729 0.2889232 -0.05279562 -0.9558954 2171945 female
-0.6308954 -0.32354 -0.1262687 0.6867949 -0.1980576 0.6993468 2040353 female
