# .PCD v0.7 - Point Cloud Data file format
VERSION 0.7
FIELDS x y z normal_x normal_y normal_z rgb label
SIZE 4 4 4 4 4 4 4 4
TYPE F F F F F F U U
COUNT 1 1 1 1 1 1 1 1
WIDTH 170
HEIGHT 1
VIEWPOINT 0 0 0 1 0 0 0
POINTS 170
DATA ascii
-0.8787546 0.1479937 0.851629 -0.895081 0.1132187 -0.4312904 11844802 female
-0.550851 0.1559158 0.8320698 0.8060957 0.05606232 -0.5891238 11121347 female
-0.8877344 -0.4674604 0.9138532 -0.3622314 -0.2436997 0.8996659 2171174 female
-0.5532326 0.1089772 1.066048 -0.9307272 -0.2095277 -0.2997416 13285294 female
-0.5453137 -0.5516868 0.8740922 0.8152155 -0.1844159 0.5490122 2171937 female
-0.6393817 -0.1924221 0.9704977 -0.7076412 -0.2554755 0.6587687 2170913 female
-0.8359825 0.2536014 0.9790108 -0.7279444 0.2541334 0.6367992 8553609 female
-0.9253175 -0.7187543 0.9545798 -0.1041024 -0.9940079 0.03333014 526344 female
-0.8282606 -0.1671719 1.004754 0.2218554 -0.2224414 0.9493682 2039072 female
-0.9433873 0.2291202 0.9435256 0.2667462 -0.8016978 -0.5349085 10921901 female
-0.9367965 0.4853596 0.8650133 -0.9901631 0.1362939 0.03163717 7829376 female
-0.8640901 0.2561495 0.932411 -0.8771669 0.3766352 0.2978662 14476786 female
-0.890355 -0.4712874 0.8282718 -0.5189164 -0.04957987 -0.8533859 2170401 female
-0.9163583 0.3790236 0.9169512 0.08444684 0.1302531 0.9878779 8224648 female
-0.4841135 0.5193275 0.836174 0.9190885 0.1816018 -0.3497098 15262960 female
-0.5353944 -0.01204567 0.9848585 0.8285559 -0.02677024 0.5592661 1973536 female
-0.9252744 0.1620285 1.163535 0.7605928 -0.6380542 -0.1199398 7101012 female
-0.8601043 0.03447428 1.01451 -0.5258421 0.120819 0.8419577 2500651 female
-0.7911524 -0.2584828 0.935303 0.9067145 -0.3061113 0.2901115 2169889 female
-0.5761877 -0.6131449 0.8872229 0.05804653 0.2220704 0.9733013 2499110 female
-0.8811988 0.4016648 0.9010195 0.7236542 -0.08090889 0.6854039 13224148 female
-0.8489882 0.4305256 0.9227932 -0.894033 -0.3397009 0.2920761 10987703 female
-0.9886926 0.2166564 0.9930877 -0.9025787 -0.2971753 -0.3115101 13028569 female
-0.581591 0.3479431 0.9456419 0.8241237 0.1587085 0.5437202 3420469 female
-0.8477092 0.3921506 0.8844394 -0.9981341 -0.06088936 0.004566805 10922672 female
-0.5178144 0.3956902 0.899232 -0.02425225 0.07141821 0.9971516 15725047 female
-0.6329072 0.2704861 1.016964 0.5323437 0.1978799 0.8230758 6184287 female
-0.5966954 0.2272216 0.8073208 0.41415 0.3238907 -0.8506318 6514804 female
-0.6214276 0.8730503 0.7963203 0.8683245 0.3939565 -0.3013484 2631463 female
-0.7075875 0.406749 1.005171 0.01799473 0.3617318 0.9321085 6184292 female
-0.5021421 0.2508429 0.8650792 0.1132806 -0.5786105 -0.8076988 11053232 female
-0.5254593 -0.4374986 0.8507439 0.9788581 -0.08154152 -0.1875842 1579553 female
-0.8454686 -0.03978701 0.8463802 -0.2493734 -0.2041648 -0.9466413 2105896 female
-0.792935 -0.2050513 0.8884678 0.7207864 -0.07999564 -0.6885257 2171688 female
-0.5447491 -0.6728044 0.8602192 0.9804614 0.1483451 -0.1291863 13087919 female
-0.7105851 0.8211693 0.7380269 -0.2048388 -0.1755965 -0.9629158 14338761 female
-0.6366043 0.7581262 0.8861203 0.9426735 -0.2770447 0.1860456 16048595 female
-0.8007267 0.6498866 0.7909098 -0.3992626 0.6548613 -0.6416744 13293286 female
-0.8472995 0.1495903 0.9881248 -0.5272723 0.2435246 0.8140514 14015981 female
-0.6760659 0.5658336 0.7556643 -0.174332 0.1236735 -0.9768896 12830678 female
-0.5872222 -0.1528672 0.9995462 0.1794205 -0.2517158 0.9510244 1842723 female
-0.7175352 0.3542884 1.022235 -0.05340211 0.2551945 0.9654139 15067640 female
-0.7272283 0.07328002 0.7851489 0.1311565 -0.4304527 -0.8930333 2435119 female
-0.6776742 0.1979621 1.043868 0.231661 -0.1395654 0.962733 4734801 female
-0.9222018 0.5736037 0.8513974 -0.8225281 0.5311067 -0.2034041 4934995 female
-0.8433706 0.4099931 0.9180378 -0.9246024 -0.2012658 0.323423 13620448 female
-0.6245241 0.2694761 0.8111008 0.2955415 0.1590639 -0.9419947 13752817 female
-0.6869264 -0.08039496 0.9201688 -0.9674708 -0.2498132 -0.03992148 2237218 female
-0.5208839 -0.05566646 0.9322734 0.9881826 -0.1245679 0.08931975 1908509 female
-0.5690542 0.6137027 0.87697 0.1360431 0.7684723 0.625254 15922171 female
-0.7870594 0.1372017 1.012963 -0.3296641 -0.09977297 0.9388114 15133438 female
-0.6385692 0.7543771 0.8266936 0.8949 -0.3825275 -0.2298403 3551790 female
-0.559624 0.4471229 0.8180134 0.8536145 -0.3659709 -0.3706852 13553878 female
-0.8736418 -0.3430401 0.8325416 -0.1256773 0.27433 -0.9533877 2434089 female
-0.9226131 0.5505955 0.8321906 -0.7806354 0.334512 -0.5279301 7171710 female
-0.7404148 0.7129107 0.8151706 -0.8020435 0.1511199 -0.5778313 10981510 female
-0.859692 -0.1158364 1.010728 -0.3508929 -0.1509236 0.9241733 2171944 female
-0.5688465 0.5941393 0.8967872 0.07922418 0.5893841 0.8039589 14540519 female
-0.6755302 0.5397328 0.9717632 -0.03458645 0.6912464 0.7217909 15660798 female
-0.8213567 0.01534999 0.822304 -0.1539506 -0.490987 -0.857456 3157808 female
-0.7044798 0.8212611 0.9329075 -0.7851924 0.4802643 0.390921 14138543 female
-0.5314584 -0.1969254 0.9124261 0.9967753 -0.01669471 -0.07848728 2170921 female
-0.7928901 0.4105617 0.7880328 -0.3992781 -0.368818 -0.839375 2698546 female
-0.8496325 -0.03409914 1.022414 -0.2771513 -0.0521651 0.9594092 2500142 female
-0.5678964 -0.2668489 0.9692194 0.4493504 -0.3104008 0.8376966 2170402 female
-0.87352 -0.008611452 0.8515537 -0.5895234 -0.2370786 -0.7721761 2500907 female
-0.6390516 0.4047603 0.9884095 0.4740544 0.2017082 0.8570801 15724543 female
-0.5844496 0.3291092 0.9558266 0.7790419 0.2045992 0.592649 6183780 female
-0.9057657 -0.3724992 0.9254169 -0.7379076 -0.1128498 0.6654001 2565671 female
-0.5656438 -0.1978126 0.981845 0.5040819 -0.1974862 0.8407738 2170403 female
-0.6973407 0.1262515 1.032632 0.1467454 -0.3241316 0.9345611 15199223 female
-0.8277202 -0.2210496 0.875904 0.229572 -0.03751511 -0.9725684 2565419 female
-0.8982401 -0.687228 0.8292486 -0.8714975 -0.1800761 -0.4561412 10389125 female
-0.7926736 -0.2152255 0.9610744 0.8225832 -0.2665641 0.5022952 1841436 female
-0.8610902 0.08552684 0.8168244 -0.7010365 -0.02772922 -0.7125862 2434093 female
-0.9940295 0.1352149 1.072106 -0.8239267 -0.3241198 -0.4648561 15068664 female
-0.8219765 0.003292312 0.8288414 -0.1041763 -0.4170139 -0.9029101 2566447 female
-0.9036376 -0.6689969 0.8506553 -0.9175748 0.2271552 -0.3262777 14862529 female
-0.518554 0.1876481 0.9895805 -0.7626068 0.4116471 0.4989766 7633286 female
-0.6595345 -0.07275432 0.9952494 -0.6368952 -0.2560495 0.7271885 2105635 female
-0.9883024 0.2289204 1.023434 -0.8601632 0.4192246 0.2904653 11647164 female
-0.5514901 0.4769381 0.8624638 0.9338484 -0.2919109 0.2066765 13026505 female
-0.9519445 0.3996593 0.8903205 -0.8860461 0.3325628 0.3229928 12042183 female
-0.8977787 -0.3713762 0.9350625 -0.5507944 -0.1504694 0.8209656 2631464 female
-0.8770008 -0.3432132 0.8324171 -0.1821537 0.2715087 -0.9450413 2302505 female
-0.8272176 0.3896177 0.822538 -0.7936383 -0.1779761 -0.5817755 9408405 female
-0.67494 -0.1032967 0.892158 -0.906664 -0.2200803 -0.3598959 2170913 female
-0.5167811 0.03325591 0.9477443 0.9549 0.004758974 0.2968895 1974307 female
-0.6428815 0.8172005 0.7566524 0.6719742 -0.1907353 -0.7155913 3420972 female
-0.5410163 0.03898128 1.11869 -0.8349621 -0.169938 -0.5234113 7232859 female
-0.7578053 -0.04716984 0.8661821 0.6447976 -0.2930411 -0.7059484 2498854 female
-0.7376472 0.08295088 0.7784136 0.1578418 -0.3022413 -0.9400725 2829884 female
-0.8699 -0.1541758 1.001023 -0.4487108 -0.156286 0.8799053 2172969 female
-0.8107163 0.290332 0.8212807 -0.5229158 0.08257028 -0.8483757 11645893 female
-0.6682253 -0.1441049 0.8966177 -0.9438768 -0.1520768 -0.2932051 2105120 female
-0.55535 0.274108 0.9075807 0.9555029 0.290947 0.04862064 14673128 female
-0.6125043 -0.2470286 0.8602275 -0.2320974 0.0007465335 -0.9726923 2565677 female
-0.7174219 0.5065835 0.9949229 0.09888122 0.4180728 0.9030159 15461623 female
-0.7116641 0.03991785 0.8656236 0.2907263 -0.9255281 -0.2426434 1842204 female
-0.8591877 0.6288966 0.8670018 -0.1916644 0.9225845 0.3348173 11117481 female
-0.5359989 -0.09193091 0.9707322 0.8835021 -0.1308264 0.449787 1841953 female
-0.5477458 -0.6507667 0.8378498 0.9596654 -0.01330939 -0.2808296 1842207 female
-0.8535324 -0.4102952 0.9273797 0.238669 -0.2537407 0.9373648 2170913 female
-0.5223248 0.6029426 0.8699932 0.5047752 0.7991388 0.3264646 9343126 female
-0.827351 -0.2270596 0.8766159 0.2479542 -0.04050729 -0.9679245 2500140 female
-0.9257224 0.2457067 0.9343439 0.6933206 -0.6557559 -0.2988157 13816027 female
-0.4876027 0.4844396 0.8769579 0.8421662 0.03148483 0.5382981 8817806 female
-0.8986951 -0.6339903 0.862289 -0.9878291 0.151693 0.03439361 1710882 female
-0.6657373 -0.1224066 0.8806268 -0.8415325 -0.1751738 -0.5110157 2038816 female
-0.5721425 -0.04382774 1.015054 0.4287921 -0.09989212 0.8978636 2039589 female
-0.6255192 0.4372448 0.7684829 0.2369315 -0.3449759 -0.9082153 8817042 female
-0.6696071 0.7280811 0.9186041 0.5986668 -0.6799856 0.4233409 15586756 female
-0.5874237 0.1523779 0.7932315 0.5422304 0.07056496 -0.8372615 12106953 female
-0.927258 -0.6969817 0.8885613 -0.8795208 0.05376064 -0.4728138 10917005 female
-0.6403763 0.6640061 0.8514596 0.7879536 0.4949705 0.3662422 12363155 female
-0.5146625 0.5623034 0.8088339 0.6542174 0.2715329 -0.7058821 9474458 female
-0.7943419 -0.04360813 0.8468533 0.2387006 -0.2567758 -0.9365299 2500652 female
-0.5634267 0.5402153 0.7740363 0.4641583 -0.1650753 -0.870234 13817830 female
-0.7389736 0.7799039 0.9262245 -0.6446547 -0.05198043 0.7627046 16770006 female
-0.8177333 -0.00188601 1.02641 0.03039391 -0.02626679 0.9991928 2172712 female
-0.556717 -0.5260012 0.8163934 0.5288309 -0.1020405 -0.8425708 2697264 female
-0.8286533 0.5262687 0.9580668 -0.6348836 0.4763729 0.6082695 13949156 female
-0.7934356 -0.2354725 0.8951134 0.7858602 -0.1289524 -0.6048099 2236967 female
-0.704872 0.3030163 1.030629 0.01233747 0.162033 0.9867082 7434876 female
-0.5368019 0.114916 1.081919 0.4614195 0.555346 0.6918691 16175807 female
-0.8585885 0.4977474 0.8890085 0.7516196 -0.2891755 0.5928284 9277338 female
-0.6622881 0.2537296 1.035746 0.3255217 0.1756321 0.9290796 5130576 female
-0.560661 0.5131568 0.9009804 0.8008004 -0.3591728 0.4792845 3815741 female
-0.8675648 -0.7094495 0.9678037 0.9261638 -0.3246265 0.1919328 6180688 female
-0.6479759 0.471121 0.7533621 0.06788377 -0.2510455 -0.9655921 15199231 female
-0.731634 0.5407807 0.9737414 0.1073409 0.686568 0.7190983 15396344 female
-0.6074206 0.5188327 0.9796614 0.3828935 0.6237402 0.6814255 13357531 female
-0.6734298 -0.0151371 0.8529091 -0.602761 -0.2797934 -0.7472583 2302243 female
-0.6817431 0.4892329 0.7495912 -0.07426061 -0.0714871 -0.9946733 15463935 female
-0.5729484 -0.3089348 0.8314093 0.06857131 0.3666078 -0.9278452 2237738 female
-0.6537144 0.7038053 0.8665869 0.8621098 -0.09391223 0.497943 14993595 female
-0.5741307 -0.4265567 0.9143006 -0.08846426 -0.2332931 0.9683741 2171431 female
-0.649018 0.2782574 1.024526 0.4410889 0.2014307 0.8745663 14342371 female
-0.5186058 0.5988511 0.8722905 0.5330576 0.7617363 0.368249 5724511 female
-0.6987324 -0.01117915 0.9655799 -0.9438401 -0.1569431 0.2907486 2434085 female
-0.6206184 0.0514679 0.7932377 0.1707185 -0.4428141 -0.8802106 2368300 female
-0.5131615 0.009631661 0.9230123 0.9963664 -0.06804959 0.05121855 1776161 female
-0.5377435 0.2592805 0.8949137 -0.9927196 -0.1171558 0.02797113 14540526 female
-0.6137668 0.860088 0.8407016 0.9775914 0.1685621 0.1261028 2368292 female
-0.5252395 0.4763346 0.7979426 0.189336 -0.08740145 -0.9780147 14539494 female
-0.8397002 0.3003622 0.9521698 -0.8390662 0.2320572 0.4920543 14146793 female
-0.875574 -0.3216864 0.9525933 -0.2798843 -0.2749816 0.9198097 2301987 female
-0.942534 -0.6988279 0.9755225 -0.2818406 0.9518851 0.1203353 14271422 female
-0.5298959 0.05731149 0.9717585 0.859866 0.07510874 0.5049644 1776675 female
-0.4966017 0.006230038 1.04808 0.9780492 -0.1639035 -0.1286683 16242896 female
-0.508235 0.5879385 0.8435465 0.7283572 0.6311655 -0.2666945 13554654 female
-0.8408601 -0.5869317 0.850871 0.9898499 -0.1348073 -0.04499027 1907745 female
-0.5771104 -0.5079318 0.8938687 -0.1450256 -0.193132 0.9703956 2301987 female
-0.841638 0.3909213 0.9189289 -0.9442149 0.00618145 0.3292718 12369863 female
-0.6675287 0.6322356 0.896232 0.2791338 0.6297379 0.7249238 15396082 female
-0.878563 -0.6679567 0.9399392 0.2383464 0.8104761 0.5350883 15848392 female
-0.8874934 0.6153259 0.8427179 -0.6326688 0.7338907 -0.2472542 12303039 female
-0.6745469 0.2723064 0.8050672 -0.01047747 0.1903443 -0.9816614 15201279 female
-0.5027989 0.5719813 0.8825991 0.6455666 0.4661213 0.6049584 13028813 female
-0.8980355 0.3199224 0.865576 0.7083644 -0.4689412 -0.5275549 9147031 female
-0.8125012 -0.4433041 0.8705664 0.9829033 -0.1780444 -0.04691752 2040358 female
-0.8448943 0.03745028 0.8196924 -0.4481988 -0.37755 -0.8102924 2631465 female
-0.6465985 0.5401826 0.970155 0.07930899 0.692554 0.716993 12765138 female
-0.547091 -0.5880079 0.8593315 0.9759106 -0.1317763 0.173878 1578523 female
-0.5876325 -0.09022695 0.8458289 0.2001218 -0.05437057 -0.9782613 2106409 female
-0.9388859 -0.6955246 0.9562141 -0.2549652 0.9538407 0.1586843 15781830 female
-0.7841889 0.333825 0.8039574 -0.3324792 -0.1902199 -0.9237283 15398143 female
-0.8938243 -0.6305419 0.8818122 -0.9166106 0.2253408 0.330222 2302502 female
-0.5757545 -0.1262386 0.8499585 0.3237005 -0.0594418 -0.9442905 2171688 female
-0.5580559 -0.3226521 0.9360043 0.4531277 -0.2440155 0.8573983 1908773 female
