# .PCD v0.7 - Point Cloud Data file format
VERSION 0.7
FIELDS x y z normal_x normal_y normal_z rgb label
SIZE 4 4 4 4 4 4 4 4
TYPE F F F F F F U U
COUNT 1 1 1 1 1 1 1 1
WIDTH 170
HEIGHT 1
VIEWPOINT 0 0 0 1 0 0 0
POINTS 170
DATA ascii
-0.966247 0.1323546 -0.24617 -0.8186615 0.05577529 -0.5715613 11910347 female
-0.6816338 0.1633133 -0.2940319 0.5647327 0.06837001 -0.822437 9803174 female
-0.9563757 -0.4196841 -0.1153987 0.4124879 -0.2881618 0.8641855 2170913 female
-0.624347 0.120206 -0.07135127 -0.8612385 0.03092274 -0.5072592 11974331 female
-0.6758783 -0.302655 -0.2560271 -0.05657409 0.3686374 -0.9278501 2698289 female
-0.6467062 -0.1943433 -0.1173917 0.6707298 -0.1704424 0.7218524 2170145 female
-0.9337777 0.3322289 -0.2190462 -0.91783 0.07012816 -0.3907303 12238278 female
-1.000025 -0.7043351 -0.1251913 0.05825586 -0.9817527 -0.1810193 657418 female
-0.943107 -0.510588 -0.170655 0.9546073 -0.2341473 0.1841193 1841948 female
-1.027027 0.1924306 -0.03508863 0.9225109 -0.3789991 -0.07302947 12238536 female
-1.031719 0.481866 -0.1925441 -0.9875502 0.1117836 -0.110675 10133932 female
-0.9296427 0.3132992 -0.231913 -0.838734 0.08275552 -0.5382164 4342604 female
-0.9839476 -0.5280009 -0.2165237 -0.1115849 0.03428379 -0.9931633 2499883 female
-0.9813185 0.3773905 -0.1484184 0.7162511 -0.07251246 0.6940651 15133945 female
-0.6039789 0.4906054 -0.2922778 0.5463404 0.07962065 -0.8337702 8289676 female
-0.6285834 0.02143242 -0.117376 0.8619679 0.06023142 0.5033721 1973536 female
-1.003205 0.154759 0.1050294 -0.5643002 -0.8063058 0.1773026 7757916 female
-0.8753515 0.06762768 -0.04774854 0.3154304 0.2147828 0.9243225 2434601 female
-0.9066241 -0.2701305 -0.1262917 0.9004259 -0.2438139 -0.3602609 1973278 female
-0.6778682 -0.5869236 -0.2026156 -0.3193381 0.07703826 0.9445043 2631471 female
-0.989176 0.4184925 -0.1390077 0.3224238 0.03570898 0.9459217 13288397 female
-0.9390215 0.3949458 -0.1680085 -0.9692535 -0.06467828 0.2374118 14607343 female
-1.073266 0.2322731 -0.06305323 -0.9983751 -0.0569254 -0.002602165 5397866 female
-0.6701438 0.3399536 -0.1568787 0.8972688 0.1170681 0.4256805 3420469 female
-0.9446934 0.445718 -0.1440163 -0.9306477 -0.201913 0.3051656 5394262 female
-0.610631 0.3610061 -0.2110674 0.02048511 -0.0004868117 0.99979 14147815 female
-0.7217437 0.2416368 -0.06828718 0.5916362 0.1333689 0.7950971 13620456 female
-0.7133067 0.2387542 -0.2886479 0.2761365 0.3290736 -0.9030278 5327965 female
-0.7257723 0.8768341 -0.256729 0.8167911 0.4323398 -0.3820139 2631463 female
-0.722056 0.4857375 -0.07951433 0.09845518 0.3623816 0.9268151 12369609 female
-0.569901 0.2471183 -0.2304906 0.6570829 -0.4352388 -0.6154748 11317177 female
-0.6251168 -0.4212597 -0.2449507 0.9407105 -0.04086508 -0.3367399 1579808 female
-0.9724175 -0.03898446 -0.1963957 -0.5764781 -0.2342997 -0.7828006 2631470 female
-0.9051381 -0.2030883 -0.1527917 0.6058592 -0.140768 -0.7830191 2171688 female
-0.6411691 -0.6762955 -0.229421 0.9426961 0.1616634 -0.2918716 13087919 female
-0.8227451 0.8304946 -0.3066595 -0.3429044 -0.07371552 -0.9364735 14338761 female
-0.7262822 0.7643137 -0.1921874 0.9671546 -0.2440733 -0.07099435 15260103 female
-0.9148278 0.6496161 -0.2545085 -0.5209834 0.7045771 -0.4818168 12437462 female
-0.9609321 0.1600105 -0.09791911 -0.6851742 0.2937691 0.6665103 6580853 female
-0.7845336 0.6177365 -0.3064422 -0.1910124 0.2450696 -0.9505026 11449542 female
-0.628225 -0.181769 -0.1457769 0.9518918 -0.09832928 0.29023 2105377 female
-0.7936613 0.3457191 -0.06120211 0.09161013 0.2166867 0.9719334 15067640 female
-0.8764964 0.08210242 -0.2986808 -0.128667 -0.2874013 -0.9491287 2960949 female
-0.753685 0.1256851 -0.06332106 0.4584182 -0.3234777 0.8277771 13686242 female
-1.019192 0.5536811 -0.1662135 -0.8162949 0.3838476 0.4316522 7304056 female
-0.9423519 0.3294341 -0.1766706 -0.9889448 0.1434617 0.03750719 14607077 female
-0.7139217 0.2859367 -0.2798969 0.3634273 -0.02084583 -0.9313893 13488354 female
-0.787421 -0.06678814 -0.1676985 -0.9676819 -0.2466024 0.05271646 2433573 female
-0.6154568 -0.0382522 -0.1953007 0.9661719 -0.1227754 -0.2267997 2105122 female
-0.6504876 0.6107782 -0.2146726 0.2081348 0.8074067 0.5520636 13422293 female
-0.8587844 0.1250073 -0.06021326 -0.07307305 -0.05991621 0.9955252 2435117 female
-0.7350739 0.7728966 -0.2474125 0.7962075 -0.4614468 -0.3913062 2499619 female
-0.6604276 0.4461323 -0.2727698 0.8341874 -0.329901 -0.4419238 13619671 female
-0.9392192 -0.2891686 -0.1624007 0.5837231 0.3001453 -0.7544403 2697257 female
-0.9923238 0.5249237 -0.2412452 -0.3212579 -0.02258782 -0.9467223 9671839 female
-0.8377934 0.7230398 -0.2427721 -0.8596162 0.1006955 -0.5009195 5984074 female
-0.9343768 -0.1103103 -0.03051612 0.02021802 -0.09079304 0.9956646 2171944 female
-0.6430413 0.5995515 -0.2027215 0.2176117 0.666077 0.7134329 15330803 female
-0.7850116 0.5269704 -0.09807836 0.1466297 0.6482999 0.7471325 14146792 female
-0.8960424 -0.0362863 -0.2153003 0.1522505 -0.3656065 -0.9182329 1841954 female
-0.7716984 0.814014 -0.1149905 0.820492 0.359708 0.4443006 14599093 female
-0.7246024 -0.1937161 -0.1163053 -0.5979378 -0.245882 0.7628973 2170913 female
-0.8794205 0.4018602 -0.2874049 -0.3798622 -0.2609258 -0.8874809 15198199 female
-0.8983325 -0.01710443 -0.03336571 0.2673692 -0.01899349 0.9634069 2170916 female
-0.7041579 -0.282948 -0.1384055 -0.5078376 -0.4319717 0.7453197 2170913 female
-0.9828139 -0.00832597 -0.1973246 -0.7136971 -0.2608383 -0.6500769 2500907 female
-0.719459 0.3950472 -0.1034584 0.5941455 0.1471083 0.7907909 15724543 female
-0.6721454 0.320923 -0.1472781 0.8613198 0.1644676 0.4807062 6183780 female
-1.007306 -0.2916431 -0.1693612 -0.5846894 0.3842674 -0.7144767 2171945 female
-0.7023698 -0.2001369 -0.1060666 -0.2887351 -0.2300535 0.9293586 2170401 female
-0.7850001 0.1076915 -0.05943874 0.1934369 -0.4540101 0.8697454 3422009 female
-0.9286935 -0.2561781 -0.1497027 0.3624709 -0.04018742 -0.9311283 2631471 female
-0.990698 -0.6900721 -0.1990719 -0.03964704 -0.9910954 -0.127114 919562 female
-0.8980197 -0.2339154 -0.08620138 0.8720332 -0.2898527 0.3943899 1973534 female
-0.9718273 0.06267142 -0.2379909 -0.756552 -0.2023038 -0.6218539 2499881 female
-1.065943 0.134082 0.01837732 -0.80898 -0.3542953 -0.4690695 7171965 female
-0.922055 -0.006094573 -0.2294291 -0.1308895 -0.4594713 -0.8784953 2763826 female
-1.005814 -0.6587567 -0.2296561 -0.8341418 0.259232 -0.4868329 16770006 female
-0.6059751 0.1990755 -0.1256109 -0.6422201 0.4625164 0.6112543 15068412 female
-0.6916549 -0.0858194 -0.08092197 0.03237388 -0.1745193 0.9841214 2171944 female
-1.050924 0.2764149 -0.0620737 -0.2010048 0.6427581 0.7392287 14872823 female
-0.6508216 0.473141 -0.2521806 0.9177787 -0.3894371 -0.07759455 11777205 female
-1.033225 0.3901254 -0.1425008 -0.5179937 0.2961435 0.8024846 14016221 female
-0.9762754 -0.3966363 -0.1003447 0.1446108 -0.2888975 0.9463752 2169889 female
-0.9371057 -0.2894201 -0.1609527 0.6086268 0.2868413 -0.7397942 2631464 female
-0.9131151 0.3928677 -0.2635357 -0.6937478 -0.1707758 -0.6996782 15133430 female
-0.7664977 -0.1253447 -0.2012893 -0.9148913 -0.2076733 -0.3461874 1972766 female
-0.6131625 0.06357932 -0.1726854 0.9896908 0.08401144 0.1159923 1908257 female
-0.7577102 0.8345842 -0.3021463 0.4914586 -0.02006062 -0.8706698 2696225 female
-0.6010256 0.06207754 -0.01252967 0.2515879 -0.9438986 -0.2139137 1642769 female
-0.8656453 -0.02576881 -0.2109404 0.4439655 -0.4061894 -0.7986895 2697257 female
-0.8368145 0.07994315 -0.2966169 -0.07898119 -0.3533174 -0.9321635 2171687 female
-0.997629 -0.2579835 -0.1547294 -0.5241133 0.343753 -0.7791913 2565673 female
-0.9372635 0.2738266 -0.2327594 -0.7352241 0.3605448 -0.5739799 12371154 female
-0.7595142 -0.1749946 -0.1916037 -0.9695945 -0.1141569 -0.2164592 2170913 female
-0.6632335 0.2884161 -0.2300044 0.9097131 0.07571984 -0.4082752 14082023 female
-0.7350816 -0.368101 -0.2191309 -0.9955068 0.02593303 0.09107015 1776161 female
-0.7692501 0.4987763 -0.08466814 0.05627275 0.4029362 0.9134964 14015206 female
-0.8368444 -0.05256301 -0.1155378 0.9517716 -0.2945883 0.08572433 2499627 female
-0.9504715 0.6351229 -0.2066548 -0.4792966 0.86642 0.1399685 12370114 female
-0.6232693 -0.06437948 -0.1244803 0.9139687 -0.07758488 0.3982988 1973537 female
-0.6446494 -0.6628683 -0.2394447 0.9521189 0.05623085 -0.3005123 2105376 female
-1.00891 -0.5698248 -0.1916643 -0.9608434 -0.0409418 -0.2740507 1579032 female
-0.6073782 0.5917659 -0.2408167 0.6863232 0.7247968 -0.06024955 10132378 female
-0.9320709 -0.2526668 -0.1505929 0.3161693 -0.04066816 -0.9478307 2698289 female
-1.01758 0.2245877 -0.09251876 0.7727431 -0.5868601 -0.2417917 9474457 female
-0.5872971 0.4601297 -0.2731845 0.896657 0.03066341 -0.4416628 15461628 female
-1.009069 -0.6525272 -0.1319766 -0.661904 0.6814721 0.3122162 15785175 female
-0.757476 -0.1543813 -0.2070619 -0.8839481 -0.1479696 -0.4435547 2170914 female
-0.6818501 -0.001624167 -0.07245322 0.2748031 -0.002084807 0.9614983 2499878 female
-0.7165096 0.4279901 -0.3123921 0.29338 -0.3476247 -0.8905534 9606042 female
-0.7903611 0.7771735 -0.1116687 -0.4146089 0.1581987 0.8961432 13611434 female
-0.7380771 0.1974436 -0.3072232 0.08613217 0.2801882 -0.9560731 15200255 female
-1.023959 -0.6910474 -0.1701458 -0.6381179 -0.6584826 -0.3990066 526344 female
-0.7535968 0.6417805 -0.1879104 0.6115748 0.2895002 0.7363192 13751003 female
-0.6371266 0.5261334 -0.3037774 0.1641867 -0.1772429 -0.970375 9409180 female
-0.8948475 -0.03460335 -0.2160499 0.1618162 -0.3703283 -0.9146979 2105124 female
-0.6816839 0.5593877 -0.3207795 0.3659097 0.02754492 -0.9302427 11383490 female
-0.7909667 0.7552366 -0.1103915 -0.3554699 0.05458735 0.9330924 11173769 female
-0.8450215 -0.009364413 -0.06598102 0.7361069 -0.1572954 0.6583349 2170913 female
-0.6564258 -0.5567612 -0.266047 0.667456 -0.1472213 -0.729951 1973281 female
-0.8841385 0.5140474 -0.07919922 -0.2662046 0.5860159 0.7653238 15133430 female
-0.9039655 -0.2441495 -0.1371678 0.7741287 -0.2319324 -0.5890095 2105124 female
-0.7812448 0.2957862 -0.05672153 0.1591581 0.1329181 0.9782645 7434876 female
-0.6328426 0.1102602 0.009781611 0.5808844 0.722386 0.3751423 14797496 female
-0.9519303 0.5012136 -0.1556635 0.6942399 -0.3440498 0.6321872 15725559 female
-0.739278 0.2481771 -0.0587257 0.4627073 0.1535687 0.8731086 5130576 female
-0.6549156 0.5142599 -0.1818406 0.860107 -0.2683526 0.4338236 14080999 female
-0.9662319 -0.6954837 -0.1035391 0.9153712 -0.4020319 -0.02158575 6641752 female
-0.750146 0.4502308 -0.3248596 0.002925324 -0.2474766 -0.9688895 15462391 female
-0.7677428 0.5396164 -0.1147398 0.02516427 0.6344228 0.7725765 9145496 female
-0.6786627 0.4702276 -0.09214421 0.6339326 0.1059495 0.7660967 12434381 female
-0.765272 -0.05440583 -0.2330926 -0.6358029 -0.2447833 -0.7320081 2237481 female
-0.8122245 0.4938101 -0.3241527 -0.1971682 0.05259985 -0.9789576 15526648 female
-0.651103 -0.5918837 -0.2131526 0.7939168 -0.06819578 0.60419 1907998 female
-0.7476806 0.7152038 -0.1993844 0.9302074 -0.2648842 0.2540681 12429467 female
-0.6650389 -0.462376 -0.1835582 0.07905843 -0.2095098 0.9746053 2105379 female
-0.7273607 0.2712479 -0.07148498 0.5693288 0.1702159 0.8042954 14342371 female
-0.6755718 0.5960311 -0.190437 0.3187735 0.5600039 0.7647086 11646908 female
-0.7865449 -0.03417491 -0.1264521 -0.9040567 -0.2131099 0.3704938 1579295 female
-0.7964539 0.07494329 -0.3058993 -0.2907892 -0.3095264 -0.905337 2764858 female
-0.6182107 -0.006533362 -0.1372954 0.9460199 -0.007948964 0.3240111 1973537 female
-0.6338412 0.2706439 -0.21224 -0.9363899 0.0619585 0.3454491 15198199 female
-0.7162853 0.8716943 -0.2314223 0.9254631 0.348633 -0.1482336 2039327 female
-0.6463527 0.4768317 -0.3014439 -0.2146869 -0.1364891 -0.9670988 12961486 female
-0.9302548 0.287986 -0.1161769 -0.7704363 0.2749798 0.5751643 7960958 female
-0.9656879 -0.292742 -0.06095965 0.0467092 -0.5264322 0.8489331 2630696 female
-1.049273 -0.6924403 -0.10515 -0.882286 0.4348598 -0.1801899 14534080 female
-0.6491157 0.1175449 -0.1144236 0.6964248 0.2326995 0.6788545 15330809 female
-0.5916163 0.03159324 -0.05953238 -0.9377016 -0.08922605 0.3357891 16377054 female
-0.6056393 0.5880907 -0.2311499 0.7064159 0.6886603 0.1634738 12369597 female
-0.9577217 -0.5785446 -0.20021 0.952081 -0.1056531 -0.2870177 2039327 female
-0.6624985 -0.3806158 -0.1664084 0.1471576 -0.193282 0.9700447 2170403 female
-0.9142916 0.4184805 -0.1102995 -0.655814 -0.5132396 0.5536183 14079205 female
-0.784983 0.6224266 -0.164458 0.09350774 0.4832645 0.8704664 16120317 female
-1.000482 -0.6676955 -0.0953325 -0.2317901 0.8734034 0.4282987 16637655 female
-0.9948802 0.6033363 -0.1895797 -0.6930715 0.7203351 -0.02773454 14607335 female
-0.7975318 0.2492261 -0.2894222 -0.1051605 0.3133819 -0.9437865 13948650 female
-0.6103898 0.5497111 -0.1975663 0.4027452 0.1472699 0.9033868 5789280 female
-1.008359 0.3944999 -0.2221568 -0.1985329 -0.2261236 -0.9536524 12897242 female
-0.920535 -0.3990872 -0.1650289 0.9831062 -0.09506338 -0.1564133 1776673 female
-0.9367303 -0.02078114 -0.2196107 -0.2364326 -0.3684094 -0.8990963 2763826 female
-0.7435754 0.5293962 -0.1069496 0.1130658 0.6355044 0.7637738 15659774 female
-0.6503332 -0.6210154 -0.2138647 0.8812979 0.07659493 0.4663123 2829616 female
-0.6650412 -0.06383958 -0.2469545 0.3867892 -0.1444497 -0.9107845 2303275 female
-1.053826 -0.697058 -0.08771983 -0.9864692 -0.006216864 -0.1638285 11112072 female
-0.8564984 0.238881 -0.2844373 -0.1672896 0.305949 -0.937235 15201018 female
-1.00799 -0.6460202 -0.140792 -0.7356037 0.6005719 0.3133695 11970722 female
-0.678095 -0.1238293 -0.2476564 0.2223131 -0.0719002 -0.9723206 2171945 female
-0.6446189 -0.3290927 -0.1616049 0.6120995 -0.1824601 0.769443 1777187 female
