# .PCD v0.7 - Point Cloud Data file format
VERSION 0.7
FIELDS x y z normal_x normal_y normal_z rgb label
SIZE 4 4 4 4 4 4 4 4
TYPE F F F F F F U U
COUNT 1 1 1 1 1 1 1 1
WIDTH 170
HEIGHT 1
VIEWPOINT 0 0 0 1 0 0 0
POINTS 170
DATA ascii
-0.9511455 0.1512755 -0.2508046 -0.7405707 0.05787174 -0.6694818 14936567 female
-0.6778156 0.1671267 -0.2810374 0.5729819 0.07183485 -0.8164138 9803174 female
-0.9559168 -0.4223448 -0.109687 0.3383747 -0.2717332 0.9009237 2170913 female
-0.6181772 0.1213391 -0.06740642 -0.8619497 0.268481 -0.4300705 13354698 female
-0.6730258 -0.2999209 -0.2458209 -0.048818 0.3636146 -0.9302694 2698289 female
-0.64495 -0.1914258 -0.1065656 0.6641947 -0.1752386 0.7267302 2170145 female
-0.9147003 0.3521375 -0.2375085 -0.7579441 -0.1676361 -0.6304116 6251625 female
-0.9765651 -0.6979223 -0.1314604 0.2483477 -0.9598008 -0.130789 3946293 female
-0.9399658 -0.5342212 -0.177119 0.983807 -0.1790756 -0.007460519 1776929 female
-1.022792 0.1910165 -0.03702118 0.9273723 -0.3672827 -0.07130298 12764108 female
-1.030294 0.4824031 -0.1709055 -0.9782087 0.1286605 0.162955 7829376 female
-0.9024401 0.3314641 -0.2485959 -0.6092691 -0.08077091 -0.7888392 7566207 female
-0.9938847 -0.463681 -0.2048081 -0.4197844 -0.01625918 -0.9074782 1973537 female
-0.9789718 0.3802965 -0.1399065 0.7024439 -0.05987331 0.7092164 14213617 female
-0.5872218 0.5565521 -0.2392345 0.907303 0.4031057 -0.1196118 13620701 female
-0.6262692 0.02427656 -0.1045783 0.8574442 0.05546256 0.5115793 1973536 female
-0.9837512 0.1486699 0.1077915 0.944491 -0.1854606 -0.2711845 10783107 female
-0.941134 0.04560865 -0.03316372 -0.3969243 0.1868668 0.8986278 2500651 female
-0.8947046 -0.2345486 -0.08123502 0.8482152 -0.2931875 0.4411032 2105120 female
-0.6667806 -0.5602177 -0.1886977 0.00341031 -0.0389872 0.9992339 2171937 female
-0.9871392 0.4194883 -0.1314267 0.3219212 0.04401911 0.9457426 13288397 female
-0.93612 0.4240339 -0.1359559 -0.8567258 -0.354182 0.3749348 14082023 female
-1.070176 0.227916 -0.05900956 -0.9978751 -0.0637028 -0.013683 5397866 female
-0.7260414 0.3446015 -0.07282729 0.6242846 0.1491833 0.7668201 15200255 female
-0.9408207 0.4093217 -0.1658093 -0.9633008 -0.2115549 0.1652149 3553086 female
-0.6236348 0.3703409 -0.2032887 -0.2877937 -0.04398683 0.9566818 7829371 female
-0.7113264 0.2679919 -0.06885175 0.6457124 0.1765634 0.7428868 6184287 female
-0.7259961 0.2242245 -0.2865414 0.1380142 0.3079059 -0.9413533 11844804 female
-0.7291389 0.8788896 -0.2594029 0.8127108 0.4273212 -0.3961032 2631463 female
-0.7157167 0.4995317 -0.07541116 0.1576498 0.4924963 0.855917 15593213 female
-0.585723 0.2561626 -0.2389221 0.2852322 -0.5343173 -0.7957058 12237763 female
-0.6221314 -0.418528 -0.2333181 0.9438145 -0.04166534 -0.3278387 1579808 female
-0.9677206 -0.03657986 -0.1900879 -0.5591496 -0.2246264 -0.7980568 2631470 female
-0.8993709 -0.2013509 -0.1498537 0.6202359 -0.1258628 -0.7742519 2171688 female
-0.6378434 -0.6735719 -0.2160445 0.9446046 0.1595897 -0.2867985 13087919 female
-0.8255134 0.8297065 -0.3077168 -0.3408735 -0.1116713 -0.9334531 14338761 female
-0.7283502 0.7731602 -0.2103562 0.9577932 -0.2221677 0.1824108 16704213 female
-0.9159182 0.6502783 -0.2492601 -0.5296155 0.6880508 -0.496078 12437462 female
-0.953418 0.18094 -0.08996115 -0.6887032 0.2046594 0.6955591 7039086 female
-0.7782723 0.5993603 -0.3075555 -0.2363717 0.2306708 -0.9438853 13094624 female
-0.6446795 -0.1639397 -0.1018031 0.66609 -0.1839949 0.7228209 1974050 female
-0.7926792 0.3505638 -0.05008997 0.08418472 0.2281849 0.9699714 15067640 female
-0.8585979 0.06183746 -0.2786901 0.00247879 -0.4839245 -0.8751063 2566703 female
-0.7477087 0.2383515 -0.03869181 0.3836217 0.1280557 0.9145688 12502226 female
-1.01906 0.5541736 -0.1593223 -0.8226547 0.3746496 0.4276412 7304056 female
-0.9228266 0.418943 -0.118018 -0.761188 -0.3989967 0.5112675 9672086 female
-0.7110385 0.2891355 -0.2674798 0.3710182 -0.0232764 -0.9283339 13488354 female
-0.7848681 -0.06333508 -0.1569601 -0.9685665 -0.2451427 0.04223663 2433573 female
-0.6125863 -0.0349252 -0.1828787 0.9679353 -0.1230216 -0.2190134 2105122 female
-0.6507359 0.614558 -0.2088277 0.2061644 0.8194588 0.5347742 13422293 female
-0.8635234 0.1100271 -0.04780871 0.1313977 0.0818696 0.9879433 2566703 female
-0.7546759 0.7257828 -0.2397314 0.7846736 -0.1365813 -0.6046758 4866113 female
-0.6458371 0.4552155 -0.1774242 0.9850971 -0.1581885 0.06752904 6973546 female
-0.932943 -0.2898245 -0.1604189 0.5926865 0.2931271 -0.7501994 2697257 female
-0.9805123 0.5235186 -0.2371904 -0.2268681 -0.1544461 -0.9616014 11053749 female
-0.8395024 0.7245379 -0.2398827 -0.860473 0.07396588 -0.5040984 5984074 female
-0.9319701 -0.1108911 -0.0256434 0.001676247 -0.1111381 0.9938036 2171944 female
-0.6577473 0.6023591 -0.1932086 0.187055 0.6572325 0.7301068 16251135 female
-0.7848856 0.5323741 -0.09022771 0.1399322 0.6653426 0.7333063 14146792 female
-0.9002575 -0.04212997 -0.2047676 0.1046015 -0.3203593 -0.9415033 2500651 female
-0.7848471 0.8108919 -0.1023199 -0.5094844 0.5565671 0.6562459 13874093 female
-0.722863 -0.1906649 -0.106181 -0.6049632 -0.2488399 0.7563717 2170913 female
-0.8982223 0.4149142 -0.2695529 -0.5159046 -0.3325024 -0.7894837 2698546 female
-0.9497888 -0.0136302 -0.02722751 -0.4077092 0.06357048 0.9108962 2368809 female
-0.6338636 -0.2715184 -0.140889 0.8758013 -0.1516774 0.4582206 2039075 female
-0.9784856 -0.006041212 -0.1905299 -0.6991056 -0.2561662 -0.6675555 2500907 female
-0.7305988 0.4064274 -0.08654013 0.4739932 0.1299039 0.8708934 15200255 female
-0.6704724 0.3255422 -0.1350437 0.8569723 0.1758554 0.4844311 6183780 female
-0.9902574 -0.2824507 -0.1675849 -0.3747097 0.4115271 -0.8308057 2303275 female
-0.7007314 -0.197168 -0.09579122 -0.2973272 -0.2342343 0.9255975 2170401 female
-0.7548249 0.1701431 -0.04013206 0.4016219 -0.2114259 0.8910662 15133177 female
-0.9357457 -0.2157605 -0.155978 0.09758133 -0.06792082 -0.9929072 2565419 female
-0.9806139 -0.6931921 -0.1786064 0.009319446 -0.9968251 -0.0790754 593934 female
-0.8931629 -0.2330137 -0.08375631 0.8671711 -0.2850218 0.4083831 1973534 female
-0.9638417 0.09443574 -0.2378416 -0.758173 0.01473426 -0.6518869 3025454 female
-1.038305 0.1170531 0.03873624 0.9493316 -0.3140352 0.01230569 6642776 female
-0.9217548 -0.01914209 -0.2133545 -0.1243027 -0.3569591 -0.9258126 2697516 female
-0.9941791 -0.6441377 -0.213433 -0.8196859 0.3221704 -0.4736257 15716301 female
-0.5713006 0.1410067 -0.07403873 0.6354656 0.4293448 0.6417527 15727607 female
-0.6899653 -0.08319104 -0.06959253 0.02333985 -0.1815988 0.9830957 2171944 female
-1.04815 0.2721607 -0.0560411 -0.211877 0.6121107 0.7618587 14872823 female
-0.6481618 0.4832815 -0.2073002 0.9778226 -0.1855439 0.09714136 14079966 female
-1.030747 0.3904876 -0.1345631 -0.5214373 0.2897802 0.8025775 14016221 female
-0.9705797 -0.3966698 -0.09657304 0.1323553 -0.2705403 0.953567 2169889 female
-0.9675903 -0.3094254 -0.1856919 0.05433244 0.3657226 -0.9291367 2697516 female
-0.9239863 0.3893653 -0.2370287 -0.8308046 -0.1312908 -0.5408571 6710377 female
-0.7591717 -0.1624248 -0.1676944 -0.9880786 -0.1513786 -0.02802233 1841436 female
-0.6102554 0.06695182 -0.1594761 0.9885468 0.08314347 0.1259457 1908257 female
-0.7558263 0.8255741 -0.2993526 0.5626703 -0.1315215 -0.816152 3420972 female
-0.5994582 0.06153021 -0.02098135 -0.859952 -0.4751313 -0.1863676 9404028 female
-0.8609458 -0.02210057 -0.2021256 0.4615761 -0.3876209 -0.7979333 2697257 female
-0.8628191 0.1005888 -0.2921159 -0.07499772 -0.1851308 -0.979848 5263457 female
-0.9795138 -0.1703111 -0.04379127 -0.6426296 -0.05256273 0.7643718 2170657 female
-0.9462908 0.2769108 -0.202928 -0.832948 0.4034218 -0.378746 7698044 female
-0.759398 -0.1475278 -0.1858019 -0.9443969 -0.1605058 -0.2869711 2170913 female
-0.6582 0.2829974 -0.2115537 0.9212722 0.1620771 -0.353537 4343106 female
-0.7288027 -0.3341069 -0.2171128 -0.9477603 0.1382136 -0.2874845 2039329 female
-0.7686431 0.4857855 -0.06933048 0.02752168 0.2006902 0.9792681 15396603 female
-0.815394 0.03043208 -0.1829156 0.8074019 -0.5128662 -0.2916683 2170913 female
-0.951543 0.6361684 -0.200975 -0.4920537 0.8614836 0.1254162 12370114 female
-0.6211284 -0.06158416 -0.1123794 0.9102795 -0.08239321 0.4057127 1973537 female
-0.6412618 -0.660196 -0.2261656 0.9541315 0.05446641 -0.2943917 2105376 female
-1.004322 -0.5659859 -0.1740409 -0.9928912 -0.1051991 -0.05567952 1579291 female
-0.6075851 0.595158 -0.2347096 0.6834506 0.7257798 -0.07835162 10132378 female
-0.9353108 -0.2214264 -0.1550482 0.1177044 -0.06721335 -0.9907714 2500140 female
-1.01418 0.2217793 -0.08824101 0.7789246 -0.5716769 -0.2578022 9474457 female
-0.5827233 0.4724257 -0.2546205 0.9706321 0.03130895 -0.2385228 7171191 female
-1.002306 -0.653327 -0.1237587 -0.6707415 0.6828606 0.2894948 15785175 female
-0.7552506 -0.1937896 -0.1624725 -0.9879979 -0.1085829 0.109863 1579291 female
-0.7182254 0.01112153 -0.05831436 -0.1142379 -0.02235148 0.993202 2171945 female
-0.7150074 0.4298011 -0.3022017 0.2985945 -0.3616053 -0.8832231 9606042 female
-0.7810469 0.7653069 -0.1077689 0.2228294 -0.2107734 0.9517992 12753048 female
-0.7342974 0.2009325 -0.2948254 0.09521535 0.2811426 -0.9549308 15200255 female
-1.021366 -0.685152 -0.1570898 -0.9142441 -0.03168369 -0.4039231 13414826 female
-0.7543851 0.6457651 -0.1825617 0.60835 0.3143906 0.7287447 13751003 female
-0.6137399 0.5840536 -0.2624661 0.6309395 0.5104067 -0.5842947 15856379 female
-0.8899153 -0.03108175 -0.2079855 0.181921 -0.351609 -0.9183006 2105124 female
-0.6872556 0.5873542 -0.3114 0.327913 0.2566501 -0.9091775 16185343 female
-0.8080741 0.7636523 -0.1160567 -0.2431914 -0.3186067 0.9161592 12955298 female
-0.8783279 0.009618849 -0.03153117 0.3616899 -0.008513729 0.9322596 2171171 female
-0.650426 -0.5792763 -0.2457341 0.7987064 -0.1222516 -0.5891711 1841948 female
-0.8839251 0.5188144 -0.07125025 -0.2729138 0.5988368 0.7529359 15133430 female
-0.8994278 -0.2301829 -0.1409716 0.6997962 -0.1594122 -0.6963282 2236967 female
-0.7801379 0.3002674 -0.04493988 0.1510916 0.1419723 0.9782715 7434876 female
-0.6260905 0.1160494 -0.01758242 -0.4767078 0.8420987 0.252229 16774119 female
-0.9510887 0.5027297 -0.1485169 0.6989837 -0.33007 0.6344096 15725559 female
-0.7381165 0.2522287 -0.04625838 0.4540289 0.1606298 0.8763879 5130576 female
-0.6638103 0.5346298 -0.1579429 0.7232274 0.1158299 0.680827 9343641 female
-0.9697128 -0.7126024 -0.07475654 0.4038185 -0.9116712 -0.0760684 723723 female
-0.748831 0.4514608 -0.3151905 0.007454555 -0.2660419 -0.9639326 15462391 female
-0.7677235 0.5448489 -0.1072033 0.01807255 0.6510037 0.7588594 9145496 female
-0.7026907 0.5498001 -0.1260009 0.3555802 0.6224547 0.697218 15724543 female
-0.7769019 -0.01753732 -0.2209983 -0.7026941 -0.301714 -0.6443521 2302243 female
-0.8111259 0.5090072 -0.3116989 -0.2283836 0.2661059 -0.936498 15396607 female
-0.6463411 -0.5778153 -0.2008942 0.7867201 -0.1056731 0.6081979 2434085 female
-0.7493128 0.7192094 -0.1963256 0.9331185 -0.244596 0.2635578 12429467 female
-0.6447469 -0.4960705 -0.1847775 0.5407673 -0.182293 0.8211821 2171428 female
-0.7261131 0.2756273 -0.05906875 0.5615771 0.179383 0.8077455 14342371 female
-0.680815 0.5983337 -0.1797368 0.3154091 0.5691295 0.7593476 10987956 female
-0.7873406 -0.02255313 -0.1196317 -0.9293937 -0.1887382 0.3171834 1907741 female
-0.7232115 0.03745985 -0.2823721 0.07981864 -0.5640006 -0.8219078 2171945 female
-0.6157873 -0.003580303 -0.1246597 0.9430531 -0.01175397 0.3324347 1973537 female
-0.6036947 0.2148644 -0.2093912 -0.2333982 -0.6335864 -0.737627 3947321 female
-0.7196426 0.8747628 -0.2339087 0.9217842 0.3532789 -0.1597115 2039327 female
-0.6291957 0.4518312 -0.2928452 0.08084296 -0.08449034 -0.9931394 6710639 female
-0.9244675 0.3017364 -0.1041434 -0.7598049 0.2367124 0.6055276 14146793 female
-0.9625111 -0.3056666 -0.06756808 0.04882875 -0.443695 0.8948467 1776669 female
-1.042836 -0.6919644 -0.09008915 -0.8357236 0.5381902 -0.1091662 13545899 female
-0.6176065 0.03613186 -0.1230712 0.9242544 0.05762488 0.3774032 1973537 female
-0.5820828 0.03089815 -0.07049645 -0.6526285 -0.2882139 -0.7007201 6838357 female
-0.5980255 0.5785077 -0.2414923 0.7794302 0.5842723 -0.2260851 13883363 female
-0.9523461 -0.5996733 -0.1903135 0.9630479 -0.03530546 -0.2670063 1908771 female
-0.6532642 -0.5737489 -0.1939163 0.5455605 -0.07390007 0.8348069 2171172 female
-0.9198976 0.4094245 -0.1190058 -0.7897439 -0.2608244 0.5552254 14343396 female
-0.7856857 0.6264893 -0.15873 0.08766627 0.5039526 0.8592708 16120317 female
-0.9929317 -0.6215707 -0.1444612 -0.7920555 0.2696316 0.5476741 2236968 female
-0.9803192 0.6139886 -0.2046309 -0.7117784 0.6612865 -0.2367946 11711421 female
-0.7942792 0.2521459 -0.2775472 -0.09786525 0.3101735 -0.9456293 13948650 female
-0.6186817 0.578844 -0.1907682 0.4011643 0.3494681 0.8467227 8947088 female
-1.005976 0.3949074 -0.2145009 -0.1955775 -0.2325271 -0.9527227 12897242 female
-0.9185784 -0.4311397 -0.1594043 0.9828773 -0.1838608 -0.012141 1842720 female
-0.9318978 -0.01765291 -0.212064 -0.2164133 -0.3545273 -0.9096569 2763826 female
-0.7434635 0.5350209 -0.09915362 0.1058984 0.6524687 0.75038 15659774 female
-0.6471726 -0.6181382 -0.2008933 0.8777022 0.08039977 0.4724136 2829616 female
-0.6988541 -0.1078389 -0.2384289 -0.0530996 -0.08132142 -0.9952725 2106409 female
-1.024865 -0.6821216 -0.09135137 -0.4028315 0.9014317 0.1585803 16242386 female
-0.896044 0.3507526 -0.2550117 -0.561495 -0.1879021 -0.8058636 10330288 female
-0.9888372 -0.6514363 -0.1103214 -0.2989525 0.826689 0.4766684 16774119 female
-0.675101 -0.09399801 -0.2371857 0.2436615 -0.06056151 -0.9679676 2171945 female
-0.6425548 -0.3257956 -0.1508929 0.6053829 -0.1770421 0.7759946 1777187 female
