# .PCD v0.7 - Point Cloud Data file format
VERSION 0.7
FIELDS x y z normal_x normal_y normal_z rgb label
SIZE 4 4 4 4 4 4 4 4
TYPE F F F F F F U U
COUNT 1 1 1 1 1 1 1 1
WIDTH 170
HEIGHT 1
VIEWPOINT 0 0 0 1 0 0 0
POINTS 170
DATA ascii
-0.968158 0.1031378 0.3253382 -0.9210355 0.0790731 -0.3813673 11844802 female
-0.6254296 0.09943565 0.3072216 0.8742354 0.0007075536 -0.4855017 3818306 female
-0.8991969 -0.5217497 0.2891363 -0.259433 -0.550611 0.7934242 2564647 female
-0.6301724 0.1912754 0.6593811 0.828914 -0.3743955 0.4156074 13743533 female
-0.6281444 -0.3859365 0.5066872 0.6214241 -0.1283169 -0.7728951 2697774 female
-0.6208178 -0.1731808 0.5559092 0.8719966 0.1171322 0.4752914 1973534 female
-0.9123821 0.2857538 0.3026449 -0.8103389 0.07659604 -0.5809336 11908813 female
-0.8533518 -0.7012184 0.2113407 0.5530849 -0.8246039 -0.1188507 5130564 female
-0.8750484 -0.217645 0.4668581 0.295605 -0.2538603 0.9209629 2039072 female
-0.9209767 0.2279509 0.5803182 0.907362 -0.3057634 -0.288449 9473941 female
-0.9451342 0.4648288 0.4348753 0.2479291 0.1075155 0.9627936 6185576 female
-0.8952307 0.2729821 0.2818748 -0.5780801 -0.03040686 -0.8154133 11382208 female
-0.9148545 -0.4756595 0.2234594 -0.6162038 0.1384212 -0.7753273 2170401 female
-0.9769442 0.3529946 0.4600537 0.07330063 0.3548269 0.9320542 8750737 female
-0.5579452 0.4648304 0.304814 0.9539242 0.1163567 -0.2765678 10790320 female
-0.6880058 0.09377421 0.4706353 0.1693699 0.5632259 0.8087586 2500910 female
-0.8814373 0.2078669 0.6610174 0.5424826 -0.6271842 -0.5588851 10329759 female
-0.8882595 -0.01199852 0.4965481 0.01092093 0.0374885 0.9992374 2171945 female
-0.8305833 -0.2965553 0.3894362 0.9615463 -0.2129685 0.1734158 2169889 female
-0.6472915 -0.5599699 0.6298958 0.4686019 0.2122591 0.8575304 2171169 female
-0.9444048 0.3458417 0.4424033 0.8221163 0.05977574 0.5661727 7041403 female
-0.9292141 0.3880496 0.3713131 -0.9525981 -0.2742842 0.1316248 8684424 female
-0.9571882 0.2350987 0.6188493 -0.9054733 0.1046152 0.4113074 13819891 female
-0.6847658 0.29662 0.4262497 0.7743973 0.0451913 0.6310837 6381674 female
-0.9232219 0.3458643 0.3300123 -0.9710318 -0.01456459 -0.238506 7369594 female
-0.610319 0.3855257 0.3717009 -0.2501608 0.1333074 0.9589831 5988713 female
-0.7172447 0.2381014 0.4673492 0.5678639 0.1616898 0.8070855 15067894 female
-0.6938627 0.1963546 0.2617475 0.3458366 0.2997818 -0.8891163 5327965 female
-0.6916399 0.8347499 0.2898863 0.7974625 0.4140696 -0.4388621 2631463 female
-0.7168795 0.4502469 0.4624664 0.07958349 0.4514392 0.8887458 9212058 female
-0.5543497 0.2179429 0.4057983 0.7071795 -0.6488089 -0.28097 14606319 female
-0.6218853 -0.4977886 0.5627084 0.9191993 -0.2558349 -0.2993678 2236709 female
-0.9500865 -0.2196773 0.3654719 -0.9026109 -0.1010264 -0.4184343 2170401 female
-0.8798052 -0.2350728 0.3365907 0.1217106 0.04598713 -0.9914997 2434601 female
-0.622144 -0.672314 0.6509817 0.8711004 0.122107 -0.4756827 12493981 female
-0.8019146 0.8238844 0.2595283 -0.6182766 0.3226775 -0.7166681 9473672 female
-0.6858001 0.7347443 0.3673468 0.9726141 -0.2284215 -0.04295873 15654861 female
-0.8277495 0.6136971 0.2733847 -0.2252226 0.5179629 -0.8252208 11635331 female
-0.9532276 0.1338648 0.4360428 -0.7582601 0.16654 0.6303221 7039086 female
-0.7872827 0.5541546 0.246121 -0.1833743 0.2091828 -0.9605292 11910862 female
-0.7392142 -0.1353678 0.538085 -0.8540989 -0.0004567287 0.5201104 1972766 female
-0.7080969 0.2888429 0.452565 0.6708758 0.07550025 0.7377163 14936826 female
-0.8047695 0.01247273 0.2675752 0.08358099 -0.6973931 -0.7117985 2301475 female
-0.7525367 0.1713873 0.4980423 0.2903024 -0.02818451 0.9565198 15133431 female
-0.9941537 0.5057684 0.3994557 -0.8945979 0.3226752 0.3091527 14015206 female
-0.9201185 0.3818427 0.3962636 -0.889333 -0.3258978 0.3207452 14474464 female
-0.6980235 0.2443697 0.2654178 0.4042957 -0.02797794 -0.9142003 13488354 female
-0.7581478 -0.1282088 0.4752316 -0.9636244 -0.2655099 0.03054022 1908513 female
-0.6388003 -0.2175839 0.4731513 0.5811127 -0.3674682 -0.7261371 2434085 female
-0.6258965 0.5520226 0.3536599 0.1381234 0.6452294 0.7513993 13685728 female
-0.9164417 0.1361872 0.4665638 -0.5236604 0.006165973 0.8519048 14607351 female
-0.7048014 0.7133336 0.3124039 0.8131453 -0.3819492 -0.4392147 3551790 female
-0.6280581 0.4238328 0.338394 0.9831315 -0.1763052 0.04867176 11316402 female
-0.9142963 -0.3561953 0.2710187 -0.2825091 0.531379 -0.7986395 2434089 female
-0.9780062 0.4776892 0.3390264 -0.5929345 -0.05072941 -0.8036512 7960964 female
-0.8131714 0.6740904 0.3339142 -0.9709125 0.1646853 -0.1738038 12890021 female
-0.9128083 -0.1693953 0.4757198 -0.290539 -0.2381835 0.9267447 2171944 female
-0.604655 0.5425134 0.3562629 0.2967136 0.5060524 0.8098592 10066849 female
-0.7301117 0.4809215 0.4439538 0.1288954 0.6054392 0.7853848 15265783 female
-0.9332972 -0.00779075 0.2968152 -0.4867271 -0.400204 -0.7764879 2434087 female
-0.7297886 0.7539089 0.4552585 0.4923904 0.1699357 0.8536237 16047056 female
-0.7333555 -0.1779022 0.5480351 -0.8780836 -0.02825331 0.4776724 1776670 female
-0.8110042 0.2361102 0.265579 -0.01216872 0.2339392 -0.9721751 11977424 female
-0.9315088 -0.08039534 0.4844392 -0.494312 -0.1132255 0.8618792 2368809 female
-0.6656959 -0.1968615 0.6004529 0.09350982 0.2327388 0.9680334 2171688 female
-0.9544448 -0.1216399 0.3468892 -0.8041078 -0.1608908 -0.5722978 1973281 female
-0.6755378 0.3488797 0.413792 0.7406911 -0.2391483 0.6278415 10921646 female
-0.6481701 0.2838887 0.3255986 0.9732655 0.0529695 -0.2234918 7237490 female
-0.9155376 -0.4348581 0.3493802 -0.3165227 -0.5290799 0.7873296 2302507 female
-0.6111258 -0.2028447 0.5120348 0.9799032 -0.08001892 -0.1827203 2236967 female
-0.7642016 0.1251286 0.4944008 0.2794857 -0.1168889 0.9530083 12303563 female
-0.8361809 -0.2888924 0.3596663 0.8655397 -0.03007634 -0.4999365 2301731 female
-0.890793 -0.6900405 0.1545978 -0.5257718 -0.7371168 -0.4245266 789516 female
-0.8354667 -0.2589728 0.4205548 0.8831154 -0.2031136 0.4229091 1841436 female
-0.9633805 0.03713941 0.3090384 -0.8136668 -0.06639566 -0.5775275 2302758 female
-0.8956913 0.1631439 0.7176737 0.9073563 -0.3824144 0.174539 11177350 female
-0.965473 0.01215185 0.3193298 -0.8062952 -0.1639507 -0.5683382 2697257 female
-0.8819472 -0.6645745 0.1336303 -0.5593022 0.1721953 -0.8108822 13677996 female
-0.6087379 0.2062048 0.5255407 -0.9231262 0.3575058 0.1415187 9870251 female
-0.7707975 -0.06416945 0.4851224 -0.9286352 -0.1175992 0.3518623 1777185 female
-0.9240538 0.2598608 0.5807535 0.8618334 0.5059726 -0.03514009 13949680 female
-0.6315432 0.4440864 0.2855954 0.5748175 -0.8169332 0.04695846 10460577 female
-0.9990978 0.4150926 0.3788305 -0.9139453 -0.02085928 -0.4053011 7237759 female
-0.9508297 -0.3675878 0.3384998 -0.9878243 -0.04968454 0.1474266 2171937 female
-0.9175888 -0.3568491 0.2710879 -0.3368545 0.5170911 -0.7868582 2302505 female
-0.8956049 0.3416771 0.2818328 -0.6748155 -0.1497027 -0.7226431 14606319 female
-0.7455681 -0.1591299 0.463356 -0.8874187 -0.3611164 -0.286501 2170913 female
-0.6140233 0.05996522 0.3256936 0.9021997 0.02406692 -0.4306467 13882587 female
-0.7234582 0.812363 0.2505681 0.4437657 0.165957 -0.880642 3946036 female
-0.6198887 0.1628283 0.6484684 -0.9372364 -0.3486312 -0.00665217 8221035 female
-0.8511722 -0.03586669 0.3093491 0.3489363 -0.4445291 -0.8250075 2697259 female
-0.8752583 0.06616487 0.2417576 -0.234974 -0.1266252 -0.9637185 8685204 female
-0.9179375 -0.2091541 0.4650628 -0.3868697 -0.2683401 0.8822275 2172969 female
-0.9462304 0.21316 0.3203314 -0.8094653 0.4274334 -0.4025748 6183777 female
-0.7384622 -0.2126887 0.4982662 -0.9317416 -0.2069681 -0.2983653 2039327 female
-0.63086 0.1888226 0.3898945 0.8909066 0.3041842 0.3372796 14738671 female
-0.708838 -0.2108483 0.4609111 -0.3997317 -0.465611 -0.78957 2500137 female
-0.776148 0.3821561 0.4660476 0.1223418 -0.2272385 0.9661238 14344168 female
-0.7982274 -0.01218267 0.3586155 0.8877379 -0.3963557 -0.2341444 1907741 female
-0.9054424 0.576431 0.4052199 0.2637981 0.6369597 0.7243569 14803432 female
-0.6091562 -0.1813269 0.51373 0.9997084 -0.02133985 0.01130436 1841953 female
-0.6432798 -0.6573462 0.6058942 0.8000587 -0.1935917 -0.5678279 2303011 female
-0.8874605 -0.4556682 0.3338575 0.2176855 -0.5279267 0.820918 2169889 female
-0.6122107 0.5555682 0.3492021 0.236873 0.6980304 0.6757549 14079710 female
-0.8357769 -0.2830321 0.3594127 0.8555579 -0.0004802826 -0.5177069 2039588 female
-0.9559339 0.262548 0.4386697 0.5939847 -0.6717039 -0.4427145 12502215 female
-0.6044464 0.4897208 0.3645937 0.05730858 0.05279788 0.9969594 12567242 female
-0.9088989 -0.7100645 0.2825406 -0.4025275 0.844951 0.3521782 16306890 female
-0.7369567 -0.1832511 0.4693778 -0.8405291 -0.3487417 -0.4145962 2170913 female
-0.7602891 0.02842693 0.4904804 -0.6614898 0.3264058 0.6751966 2367524 female
-0.7177366 0.4292166 0.2187548 0.03973807 -0.2051935 -0.9779143 15658230 female
-0.7648132 0.7924849 0.4292465 0.1463193 -0.3367754 0.9301468 9536636 female
-0.7297114 0.1774863 0.2491317 0.1029663 0.2620722 -0.9595395 11056320 female
-0.8976237 -0.7090403 0.2039306 -0.07881815 -0.9302357 -0.3583981 592137 female
-0.7093117 0.6004299 0.3510959 0.6595019 0.3669076 0.6560763 14277345 female
-0.5872867 0.4746639 0.263161 0.4223824 -0.06300805 -0.9042252 8093316 female
-0.8948603 -0.03589503 0.2992208 -0.04441188 -0.4472237 -0.8933188 2632496 female
-0.6363184 0.560867 0.2567328 0.552258 0.4836943 -0.6790074 9870768 female
-0.748825 0.673353 0.4293691 -0.07341038 -0.8503272 0.521109 14536897 female
-0.8656353 -0.04608269 0.4906285 0.2691132 -0.07183491 0.9604259 2171171 female
-0.6634268 -0.5184321 0.5398538 -0.02717324 -0.3918506 -0.9196275 2500140 female
-0.8257918 0.450699 0.4870604 0.1679366 0.4214973 0.8911438 14409448 female
-0.8613585 -0.2532865 0.3418742 0.3162989 0.1099443 -0.9422671 2565417 female
-0.7345231 0.2821742 0.4723899 0.4383051 0.1125905 0.8917466 14343914 female
-0.6181658 0.188926 0.5898271 -0.6419826 0.5771821 -0.5046971 14870776 female
-0.958898 0.5625817 0.4117021 -0.3510955 0.6213346 0.7004822 7434103 female
-0.7586691 0.2447806 0.4842773 0.2072304 0.1532333 0.9662169 13620448 female
-0.6383705 0.4531334 0.4018629 0.881254 0.2248667 0.415724 14541035 female
-0.8731825 -0.7378494 0.3010612 0.02310269 -0.9935583 -0.110942 526089 female
-0.7471569 0.4756811 0.2148513 -0.2362642 0.09056568 -0.9674591 12567247 female
-0.8609356 0.485456 0.4609089 -0.201883 0.5926298 0.7797648 7960960 female
-0.6818163 0.3847987 0.458253 0.2872157 -0.5926704 0.7524952 6711409 female
-0.7557594 -0.07012387 0.3652501 -0.606636 -0.5584993 -0.5657483 2302243 female
-0.7740256 0.4727874 0.2236778 -0.3245827 0.2574893 -0.9101347 14803441 female
-0.6115221 -0.4538763 0.5608484 0.9828823 -0.1553533 -0.09903444 1776670 female
-0.7133803 0.659027 0.3504039 0.9389578 -0.1570437 0.3060972 14993595 female
-0.6366994 -0.3978113 0.6049622 0.3831867 0.1030923 0.9178997 2171431 female
-0.7544154 0.2171119 0.4906935 0.2768995 0.2028911 0.9392347 12041417 female
-0.6408916 0.5269047 0.3697104 0.2985518 0.3298525 0.8955804 13487830 female
-0.7773282 -0.05915602 0.4657583 -0.9630338 -0.1600985 0.2166432 2170662 female
-0.7450649 0.03683716 0.2428329 -0.01404008 -0.3076286 -0.951403 2960181 female
-0.6125872 -0.1858074 0.4947549 0.9597092 -0.160796 -0.2304408 2170401 female
-0.6033399 0.2134466 0.3898362 -0.4287905 -0.8124859 -0.3949751 5329240 female
-0.6752456 0.8179251 0.3303489 0.9860478 0.1530318 -0.06550603 2368292 female
-0.6354066 0.4548713 0.2649775 0.2047555 -0.8396231 -0.5030987 1251099 female
-0.9451423 0.2361577 0.3672703 -0.912797 0.403778 0.06135992 10790318 female
-0.8951368 -0.3511445 0.4176468 0.07030876 -0.7207069 0.6896653 2499110 female
-0.9127803 -0.6995559 0.2516926 -0.6936574 0.6941875 0.192206 13283496 female
-0.6087335 0.07427953 0.4012838 0.9439249 0.2396182 0.227132 2698032 female
-0.5980072 0.1877432 0.6227498 0.591089 0.7489415 0.2995001 13810340 female
-0.5875059 0.5099656 0.2709375 0.6186696 0.2621418 -0.7406278 14999013 female
-0.8475261 -0.5825972 0.1992563 0.9818633 0.03301479 -0.1866935 1907745 female
-0.6505724 -0.4355008 0.6121987 0.1107183 0.1086763 0.9878921 2105379 female
-0.9264119 0.3147979 0.3609626 -0.9970896 0.07125799 0.02710488 14804464 female
-0.7141049 0.5765345 0.3737848 0.4162768 0.5627825 0.7141355 13620448 female
-0.8754635 -0.6779076 0.2674592 -0.1974235 0.7494431 0.6319486 16641763 female
-0.9534519 0.5743323 0.4022399 -0.3889285 0.7397292 0.5491222 12435392 female
-0.7725921 0.2580949 0.2604068 -0.2559149 -0.0286585 -0.9662744 15330303 female
-0.5786954 0.5402259 0.3135218 0.7293364 0.6772943 -0.09664855 12962517 female
-0.9905395 0.3392391 0.3843321 -0.4914056 -0.3502806 -0.7973858 13356762 female
-0.8364668 -0.4505525 0.2671154 0.9838726 0.01235831 -0.1784433 2040358 female
-0.9735578 0.04323546 0.324499 -0.8945271 -0.0009745879 -0.4470127 2500908 female
-0.8680517 0.4295511 0.4887301 -0.3547198 0.06519844 0.9326966 7697532 female
-0.6471934 -0.5142772 0.5410381 0.3706546 -0.3985282 -0.8389221 2039588 female
-0.6725127 -0.1171682 0.3856951 0.1864936 -0.5330681 -0.8252627 2171945 female
-0.9059125 -0.6956304 0.2552685 -0.6333302 0.7121499 0.3028786 12626335 female
-0.8529522 0.2112581 0.2605309 -0.1283405 0.2524195 -0.9590688 15135486 female
-0.8939227 -0.6598935 0.226965 -0.849143 0.3715665 0.3753591 2170913 female
-0.6111897 -0.05427898 0.3806873 0.8329974 -0.3717663 -0.4097622 2169889 female
-0.682926 -0.3018226 0.5966924 -0.3823001 -0.004733668 0.9240261 1776669 female
