# .PCD v0.7 - Point Cloud Data file format
VERSION 0.7
FIELDS x y z normal_x normal_y normal_z rgb label
SIZE 4 4 4 4 4 4 4 4
TYPE F F F F F F U U
COUNT 1 1 1 1 1 1 1 1
WIDTH 170
HEIGHT 1
VIEWPOINT 0 0 0 1 0 0 0
POINTS 170
DATA ascii
-0.9263406 0.124754 -0.1626691 -0.837678 0.126303 -0.5313598 8553613 female
-0.5958231 0.1395536 -0.1756412 0.8319405 0.03574679 -0.5537121 3818306 female
-0.9601355 -0.5491217 -0.1370804 -0.9707642 -0.08733992 -0.2235812 1973790 female
-0.6086449 0.1169255 0.080481 -0.7116631 -0.6262437 -0.3183621 4997694 female
-0.660544 -0.2950207 -0.190223 0.03495226 0.3999284 -0.9158797 2764082 female
-0.6752663 -0.1996865 -0.03583012 -0.16926 -0.2577728 0.9512646 2171945 female
-0.8922374 0.2597328 -0.03801773 -0.7514215 0.3550293 0.5561654 14606311 female
-0.9772798 -0.7068385 -0.06839398 -0.1033837 -0.9766408 -0.1883736 1051657 female
-0.883516 -0.4689485 -0.1051258 0.9376007 -0.2705817 0.2183815 1710362 female
-0.9261105 0.2200533 0.02160751 0.5403651 -0.7530904 -0.3753136 10001057 female
-0.9627629 0.4843924 -0.1060133 -0.9938035 0.06314307 -0.09147444 10133932 female
-0.9035419 0.279767 -0.1101313 -0.8793866 0.4649055 -0.1026745 7434100 female
-0.9421021 -0.5219656 -0.1614514 -0.3753428 0.0406382 -0.9259948 2170401 female
-0.9541129 0.4149167 -0.06212999 -0.5589458 0.1961789 0.8056633 11056058 female
-0.5398203 0.4680969 -0.1777668 0.6076033 0.00107962 -0.7942399 7830919 female
-0.6493772 0.08429777 -0.005436872 0.26237 0.1857243 0.9469258 2500910 female
-0.888223 0.2041837 0.1773268 -0.2268477 -0.1662604 0.9596341 9206387 female
-0.8432587 0.05224137 0.03215267 0.1846967 0.1562394 0.970297 2171945 female
-0.8378141 -0.2315306 -0.05338077 0.9646318 -0.1990503 -0.1728134 1973534 female
-0.6860811 -0.561853 -0.1556893 -0.3222911 -0.08872595 0.9424734 2170660 female
-0.9038334 0.4164498 -0.06461868 0.6504681 -0.07863077 0.7554525 11250613 female
-0.8854952 0.3834215 -0.1143821 -0.9971196 0.0001293136 -0.07584564 14080992 female
-0.9720698 0.2588586 0.02605083 -0.9670315 0.0162942 0.2541351 14474476 female
-0.6775162 0.3306317 0.001802217 0.5978712 0.07361248 0.798205 15200255 female
-0.8929629 0.4388261 -0.0976403 -0.9753324 -0.2148343 0.05072248 15197934 female
-0.5904509 0.3835504 -0.1133841 -0.8379895 -0.09409889 0.5375118 8880270 female
-0.662751 0.2182093 0.00686908 0.624444 0.02865913 0.7805436 5461599 female
-0.6591513 0.2385147 -0.2066998 0.3127182 0.3502683 -0.8829039 5327965 female
-0.6453257 0.8757253 -0.1210108 0.8612298 0.4299421 -0.2709852 2631463 female
-0.7338895 0.3889014 0.009378646 0.1191348 0.2503901 0.9607871 6184292 female
-0.527923 0.2628209 -0.1320114 0.5648805 -0.569953 -0.5967106 14607335 female
-0.6253301 -0.469822 -0.1773175 0.9808422 -0.1937086 -0.02062993 1776670 female
-0.9104459 -0.03948091 -0.1336854 -0.4237972 -0.2384825 -0.8737975 2105896 female
-0.8610558 -0.2216711 -0.08774421 0.4525947 -0.0864214 -0.8875186 2303014 female
-0.6541429 -0.6798842 -0.1887172 0.941062 0.1344557 -0.310361 13087919 female
-0.7503579 0.8737083 -0.1675441 -0.5036176 0.4312356 -0.7486022 9473672 female
-0.6543089 0.7650157 -0.0516283 0.9601014 -0.2630135 0.09502249 16049105 female
-0.8416656 0.6595771 -0.1173007 -0.3756203 0.8442703 0.3822525 15724535 female
-0.9293972 0.1634706 -0.04805124 -0.8679096 0.2520862 0.4280016 15397626 female
-0.7181181 0.5476031 -0.2234722 -0.2821997 0.234372 -0.9302865 2960173 female
-0.6043886 -0.1980177 -0.1022742 0.9897153 -0.1385351 0.03566126 2106145 female
-0.7444873 0.3387124 0.0224364 0.05479472 0.1680848 0.9842485 15067640 female
-0.8553442 0.1105964 -0.2233603 -0.3438053 -0.09140175 -0.9345821 13357531 female
-0.7007774 0.1435572 0.01646437 0.4401431 -0.2828797 0.8522049 13159904 female
-0.9522144 0.5751676 -0.09754287 -0.8450881 0.5340723 -0.02434784 4934995 female
-0.8852215 0.3782938 -0.09460936 -0.992825 0.02147328 0.1176319 14344426 female
-0.657801 0.2855351 -0.1956105 0.3953163 0.001061666 -0.9185445 13488354 female
-0.7450198 -0.1139587 -0.1020511 -0.9863642 -0.1610604 0.03384116 1908513 female
-0.6199605 -0.1974248 -0.1505328 0.7599249 -0.08171687 -0.6448538 2104353 female
-0.5605317 0.6037557 -0.1158409 0.5330918 0.8162308 0.2226663 11645363 female
-0.8261495 0.1337908 0.01338286 -0.1482966 -0.01037758 0.9888885 9343135 female
-0.6797486 0.7230029 -0.1256128 0.8232066 -0.100377 -0.5587981 4866113 female
-0.5992366 0.4479793 -0.1817181 0.8101423 -0.3329274 -0.4825234 13553878 female
-0.8631368 -0.2708308 -0.07508723 0.7170084 -0.1375753 -0.6833535 2170913 female
-0.9190777 0.5388741 -0.1560304 -0.2681935 -0.07028633 -0.9607976 9804198 female
-0.7642305 0.7266412 -0.1320824 -0.8134901 0.1893548 -0.5498896 5984074 female
-0.8705615 -0.1372241 0.03359579 0.2523047 -0.1575464 0.9547364 2171688 female
-0.5950561 0.5929812 -0.0847775 0.1099005 0.5885522 0.8009546 16251135 female
-0.7002457 0.5203264 -0.007241725 0.04307551 0.5748578 0.8171188 15660798 female
-0.858837 -0.04263814 -0.1431733 0.06772315 -0.3084558 -0.9488248 2500651 female
-0.7061251 0.7731305 0.0234178 0.6379772 -0.3945766 0.6612824 16244951 female
-0.6550617 -0.1920578 -0.03472605 0.1763349 -0.2793061 0.9438719 2171688 female
-0.8226172 0.4243439 -0.2056298 -0.3702059 -0.2281466 -0.9004981 9933207 female
-0.8465908 -0.01991701 0.03650687 0.2961397 -0.04392142 0.9541343 2170916 female
-0.6908157 -0.3043001 -0.08401993 -0.5261949 -0.4169337 0.7411379 2171174 female
-0.9364215 -0.006801706 -0.1254109 -0.724839 -0.2475714 -0.6428972 2500907 female
-0.6674208 0.3852148 -0.01371561 0.5560091 0.07292002 0.8279713 15724543 female
-0.6081427 0.3527836 -0.1468854 0.9338183 -0.1962423 -0.2991191 15199990 female
-0.9682906 -0.3087262 -0.1000725 -0.8620129 0.2931578 -0.4135122 1973281 female
-0.6569123 -0.1987821 -0.03577585 0.1525444 -0.2673626 0.9514449 2171688 female
-0.7103918 0.2045154 0.03375384 0.3077461 -0.07969563 0.948125 4867915 female
-0.8741025 -0.267308 -0.08280239 0.4920235 -0.002840271 -0.8705773 2632488 female
-0.9540788 -0.6784681 -0.1794092 -0.5020943 -0.7606418 -0.4114919 592905 female
-0.8402923 -0.2400229 -0.05325207 0.957974 -0.2348423 -0.1647273 1842208 female
-0.9014007 0.09788789 -0.1946219 -0.6344091 -0.01574182 -0.7728372 2698283 female
-0.9475273 0.1810623 0.1273259 -0.9675092 -0.129655 0.2170614 15267582 female
-0.880783 -0.01933723 -0.1508861 -0.1585956 -0.3443131 -0.9253626 2697516 female
-0.9374573 -0.651708 -0.19889 -0.06716378 0.2027303 -0.9769285 16242646 female
-0.5859093 0.2451498 -0.0536697 -0.9032656 0.3041999 0.3026114 14541550 female
-0.7041026 -0.08269434 -0.01967132 -0.4708315 -0.2230915 0.8535501 2170401 female
-0.9467068 0.2892475 0.02782046 0.0201054 0.7563463 0.6538624 10396585 female
-0.5866227 0.4696686 -0.1512596 0.9037646 -0.4243132 -0.05628434 10132382 female
-0.967057 0.4194456 -0.07928105 -0.8956583 0.2049091 0.3947259 5001303 female
-0.9443416 -0.3677041 -0.03127117 -0.319845 -0.2504357 0.9137731 2434085 female
-0.9004362 -0.2854097 -0.1077897 0.3873309 0.4069979 -0.8272409 2434605 female
-0.8809555 0.3441221 -0.1336004 -0.934786 0.08709358 -0.3443688 4143943 female
-0.7372613 -0.1995237 -0.11022 -0.9970195 -0.02440741 0.0731872 1579290 female
-0.5745332 0.111031 -0.09467496 0.9821863 0.1060996 0.1550898 9869727 female
-0.6712276 0.8301206 -0.1700023 0.6198899 -0.0504244 -0.783067 3420972 female
-0.6150967 0.08183277 0.1564337 0.8459294 -0.3647024 0.3890958 16375762 female
-0.8198625 -0.02221963 -0.1420267 0.4333948 -0.3768775 -0.8186162 2697257 female
-0.8165951 0.1849927 -0.2223303 -0.1371426 0.275243 -0.9515426 6647671 female
-0.9622298 -0.2443967 -0.02630282 -0.9403084 -0.0289568 0.3390895 2171171 female
-0.9132209 0.2618045 -0.108603 -0.8664843 0.493447 -0.07559787 11844028 female
-0.7383809 -0.2283348 -0.1196134 -0.9996244 -0.0227305 -0.01530469 1776161 female
-0.6189085 0.3018079 -0.1626615 0.8287634 0.04323791 -0.5579262 3947071 female
-0.7314897 -0.3989356 -0.1693449 -0.9971859 0.03112789 0.06819995 1776161 female
-0.7442706 0.4819986 0.01499637 0.2111879 0.2304925 0.9498805 13290450 female
-0.7736025 0.03809567 -0.1430733 0.2437808 -0.9301636 -0.2745298 1842204 female
-0.8773513 0.6455517 -0.1147091 -0.4589302 0.8779301 0.136462 13749452 female
-0.5983837 -0.1088929 -0.05429265 0.8834381 -0.2012216 0.4231395 1973537 female
-0.657423 -0.6662402 -0.1981806 0.9475 0.02562342 -0.3187276 2105376 female
-0.9209796 -0.4594065 -0.06621762 0.2692164 -0.3295355 0.9049469 2105377 female
-0.540653 0.5879423 -0.1198696 0.7003874 0.7097129 0.07592811 10132378 female
-0.8738144 -0.2615277 -0.08410386 0.4362719 -0.02199135 -0.8995461 2369060 female
-0.9154524 0.2158509 0.06828771 0.9730279 -0.1947192 -0.1236977 11909055 female
-0.5175906 0.4996327 -0.1183152 0.9484173 0.02088161 0.3163362 8686732 female
-0.9734168 -0.680586 -0.04548609 -0.299037 0.9168276 0.2645829 16571606 female
-0.7374951 -0.2148506 -0.1189288 -0.9993796 0.007976602 -0.03430245 1973537 female
-0.6103618 -0.07961357 -0.02854579 0.6959776 -0.1814275 0.6947657 1973536 female
-0.7206082 0.4903639 -0.2338985 -0.116051 -0.0488807 -0.9920397 8225421 female
-0.7367224 0.8038847 -0.001793234 0.04154904 0.08346449 0.9956442 11838875 female
-0.701515 0.212688 -0.2229152 0.03608642 0.3334553 -0.942075 11186111 female
-0.9713571 -0.673954 -0.1440674 -0.9680533 -0.1102679 -0.225197 9470077 female
-0.7021641 0.63914 -0.0696909 0.4892755 0.06035696 0.8700382 13685215 female
-0.5333185 0.5761031 -0.123746 0.7886348 0.6147783 -0.01014429 6512492 female
-0.8488735 -0.03134475 -0.1468141 0.147731 -0.3393151 -0.929 2105124 female
-0.6109368 0.5888127 -0.2067104 0.4372685 0.3253451 -0.8384193 16185343 female
-0.7192481 0.7056085 -0.004104498 0.05850325 -0.7552225 0.6528525 16048598 female
-0.8027378 -0.0008496591 0.01246974 0.6563718 -0.107879 0.7466848 2170145 female
-0.6617751 -0.4969511 -0.2248986 0.3418692 -0.06982973 -0.9371495 1842979 female
-0.8506268 0.5162506 -0.009765076 -0.5208008 0.4276904 0.7388149 8684427 female
-0.8719494 -0.2319337 -0.08910926 0.266464 -0.08604807 -0.9599962 2500137 female
-0.7132084 0.2861339 0.02317238 0.2494642 0.09994498 0.9632126 6316394 female
-0.5881843 0.06090006 0.1119023 0.9522288 -0.1917537 0.2376777 15980490 female
-0.8840375 0.5065961 -0.06946854 0.7147753 -0.3448537 0.6084178 15725559 female
-0.6922883 0.2597587 0.01965108 0.4338128 0.1193444 0.893064 4737107 female
-0.5947539 0.5063427 -0.07639303 0.8110587 -0.3340065 0.4802327 14080999 female
-0.9083148 -0.6763145 -0.07801466 0.9821376 -0.003488682 0.1881322 9009529 female
-0.6827218 0.4373036 -0.2276037 0.08945906 -0.213964 -0.9727366 15659005 female
-0.7262881 0.5283156 -0.01422269 0.08355831 0.6033679 0.7930733 3880764 female
-0.6308597 0.4896393 -0.004353835 0.4811911 0.4671396 0.7417787 14607854 female
-0.7178848 -0.05362537 -0.1727622 -0.491653 -0.1404162 -0.8593955 2433829 female
-0.7230853 0.4844523 -0.2332684 -0.1141805 -0.07336966 -0.990747 15660029 female
-0.6705481 -0.2665003 -0.1767471 -0.2019314 0.2712207 -0.9410967 2499882 female
-0.6781365 0.710376 -0.08301722 0.8964679 -0.3321836 0.2932564 12429467 female
-0.6627456 -0.5206562 -0.1472569 0.2597756 -0.2433837 0.934495 2302499 female
-0.6759361 0.2693439 0.008167279 0.5749019 0.1181103 0.8096528 15528188 female
-0.6186722 0.587854 -0.07493714 0.2467446 0.48796 0.8372647 10987956 female
-0.7537292 -0.04835492 -0.07148596 -0.9567244 -0.1612431 0.2422377 2170662 female
-0.7480627 0.07884292 -0.2317449 -0.2815904 -0.2677858 -0.9214107 2764858 female
-0.5832762 -0.03323781 -0.06353529 0.9365658 -0.1201489 0.3292547 1908001 female
-0.5641287 0.2019514 -0.07609439 -0.09457328 -0.7589172 -0.6442829 6579562 female
-0.6354166 0.8535024 -0.08101503 0.9889832 0.1149693 0.09324329 2368292 female
-0.5764959 0.4577487 -0.1878308 -0.1278674 -0.1258796 -0.9837704 14079966 female
-0.8781328 0.3053501 -0.04443165 -0.8113667 0.226857 0.5387207 10988987 female
-0.8951461 -0.2862776 0.006500107 0.3644855 -0.584654 0.7247965 2367780 female
-0.9738864 -0.6703458 -0.08254684 -0.687663 0.7116607 0.1437316 14335673 female
-0.6329674 0.1042595 -0.01621186 0.4335227 0.1762945 0.8837298 2829883 female
-0.5981076 0.01302797 0.103943 -0.5056982 -0.6142986 0.6057281 8413538 female
-0.5350465 0.5592883 -0.09339567 0.6240013 0.3319578 0.7074082 12633541 female
-0.9105593 -0.543017 -0.1595292 0.6343316 0.03009646 -0.772475 2565415 female
-0.6574187 -0.3933938 -0.1106944 0.1150442 -0.2585889 0.9591123 2564647 female
-0.868273 0.4280064 -0.02594091 -0.7513031 -0.5268438 0.3974661 2828844 female
-0.7108315 0.6133945 -0.05810688 0.1320136 0.442341 0.8870777 15263984 female
-0.9449747 -0.6547556 -0.06767233 -0.3101108 0.8178978 0.4846385 16575713 female
-0.923548 0.6122156 -0.1094383 -0.6830759 0.7064704 -0.1852213 14015722 female
-0.742591 0.2521248 -0.2093858 -0.06528742 0.3508634 -0.934148 13948650 female
-0.5816531 0.5314076 -0.08082028 -0.02105676 -0.2669383 0.9634835 12238277 female
-0.9159496 0.3460667 -0.1223564 0.628478 -0.3828337 -0.6770921 13027790 female
-0.868682 -0.3963251 -0.1016905 0.9922335 -0.113562 -0.05075826 2039327 female
-0.890761 -0.01794485 -0.1491611 -0.250468 -0.3421143 -0.9056619 2763826 female
-0.6715474 0.5201377 -0.01089503 0.1565275 0.5736638 0.8039957 12765138 female
-0.6420562 -0.4709814 -0.2142316 0.6936997 -0.09950851 -0.7133574 2170913 female
-0.6407852 -0.08520133 -0.1772501 0.3121626 -0.08491737 -0.9462259 2368809 female
-0.975417 -0.6717839 -0.08141099 -0.6833485 0.7190045 0.1267575 14006708 female
-0.8100964 0.2792301 -0.1941782 -0.1253391 0.2194123 -0.9675476 15265016 female
-0.9599512 -0.6194529 -0.1262628 -0.9571604 0.1444208 0.2509715 1448222 female
-0.6058154 -0.08682238 -0.1552457 0.7505969 -0.1568881 -0.6418648 1777187 female
-0.6314213 -0.3562028 -0.1090692 0.6250674 -0.1949599 0.7558316 2171945 female
