# .PCD v0.7 - Point Cloud Data file format
VERSION 0.7
FIELDS x y z normal_x normal_y normal_z rgb label
SIZE 4 4 4 4 4 4 4 4
TYPE F F F F F F U U
COUNT 1 1 1 1 1 1 1 1
WIDTH 170
HEIGHT 1
VIEWPOINT 0 0 0 1 0 0 0
POINTS 170
DATA ascii
-0.8668723 0.1361128 0.8397543 -0.8069665 0.09500245 -0.5829061 8618891 female
-0.5467362 0.1557944 0.8475467 0.8247519 0.06225185 -0.5620578 11121347 female
-0.882554 -0.4701017 0.9187017 -0.3895056 -0.2349132 0.8905623 2171174 female
-0.557073 0.103473 1.071673 -0.9204934 -0.2020687 -0.3344549 13285294 female
-0.5379628 -0.5522692 0.8912734 0.7973856 -0.1744584 0.5777028 2171937 female
-0.6379394 -0.1932819 0.9825791 -0.7277995 -0.2592781 0.634888 2170913 female
-0.7990221 0.3702742 0.8126128 -0.4983963 -0.2691459 -0.8241127 15199223 female
-0.9207272 -0.7208722 0.9611893 -0.1021315 -0.9939082 0.04142002 526344 female
-0.8274519 -0.1693571 1.009491 0.1911832 -0.2237134 0.9557202 2039072 female
-0.9404852 0.2240496 0.93896 0.2836433 -0.7753585 -0.564239 10921901 female
-0.93476 0.4833867 0.8692064 -0.9915504 0.1292659 0.01086931 7829376 female
-0.8658249 0.2559064 0.9284348 -0.901608 0.3896508 0.1878171 13753065 female
-0.8824773 -0.474902 0.8331451 -0.4917087 -0.06104728 -0.8686172 2170401 female
-0.9149001 0.3757207 0.9186326 0.05962811 0.1014962 0.9930474 8224648 female
-0.4873908 0.5048817 0.8386006 0.7871711 0.1145313 -0.6060067 11251386 female
-0.5444878 0.05567534 1.00696 0.7231256 0.09910659 0.6835695 2171430 female
-0.9378873 0.1454879 1.153364 -0.373683 -0.9266973 0.03991486 6771534 female
-0.8611369 0.03193255 1.019114 -0.5548196 0.1133821 0.8242084 2500651 female
-0.7873683 -0.2603714 0.9409077 0.8984053 -0.3003074 0.3204426 2169889 female
-0.5687301 -0.6139103 0.903754 0.023794 0.2280871 0.97335 2499110 female
-0.8795114 0.3990444 0.9041713 0.7072499 -0.09608732 0.7004033 13224148 female
-0.8488991 0.4286025 0.9299055 -0.9013557 -0.345376 0.2612914 10987703 female
-0.9863744 0.2090025 0.9872475 -0.8944938 -0.2932369 -0.3374803 13028569 female
-0.5820507 0.3470095 0.9605153 0.8060237 0.159024 0.5701202 3420469 female
-0.8449135 0.3774771 0.8792105 -0.9834628 -0.06063693 -0.170658 15001836 female
-0.5167415 0.3944132 0.9135396 -0.05270642 0.04666478 0.9975191 15725047 female
-0.6353057 0.2692066 1.030035 0.5046425 0.1969829 0.8405555 6184287 female
-0.5934567 0.2145997 0.8147972 0.4190116 0.2966251 -0.8581625 8750234 female
-0.6188574 0.8732602 0.8164228 0.8759967 0.3999901 -0.2695136 2631463 female
-0.7100535 0.4047404 1.01639 -0.01223039 0.3548701 0.9348356 6184292 female
-0.4870509 0.2506486 0.8808072 0.3654086 -0.5313833 -0.7642698 11909053 female
-0.5273189 -0.3803329 0.8476554 0.7903915 0.1041286 -0.6036874 2630440 female
-0.8403168 -0.04152068 0.8513005 -0.2157414 -0.201694 -0.9553927 2105896 female
-0.7901605 -0.2050108 0.8916902 0.6981801 -0.07213771 -0.7122784 2171944 female
-0.5305136 -0.682281 0.9035454 0.9201177 0.3817813 -0.08732968 12493985 female
-0.7061424 0.8221201 0.7547494 -0.1759968 -0.1612292 -0.9710975 14338761 female
-0.6364384 0.7569606 0.9039906 0.937371 -0.2781428 0.2096958 16048595 female
-0.7974408 0.6498278 0.8025061 -0.382202 0.6628911 -0.6438145 13293286 female
-0.8481784 0.1473392 0.9936189 -0.5555712 0.2372092 0.7969144 14015981 female
-0.6714969 0.566508 0.7697889 -0.1458612 0.1361191 -0.979896 12830678 female
-0.5869887 -0.1534513 1.013409 0.1489409 -0.2508863 0.9564897 1842723 female
-0.720354 0.3524617 1.032875 -0.08481359 0.2500813 0.964503 15067640 female
-0.7210263 0.0724852 0.7945672 0.1629033 -0.4263639 -0.8897619 2435119 female
-0.6806438 0.1963953 1.055202 0.2007075 -0.1422725 0.9692652 4734801 female
-0.920375 0.5720397 0.8582463 -0.8199716 0.5310078 -0.2137225 4934995 female
-0.84307 0.4081368 0.925127 -0.9333978 -0.2071865 0.2929885 13620448 female
-0.6202925 0.2690976 0.8245533 0.3250879 0.1643502 -0.9312931 13752817 female
-0.6843607 -0.0815334 0.9307783 -0.9641976 -0.2551194 -0.07236827 2237218 female
-0.5189568 -0.05588675 0.948417 0.9853032 -0.1191934 0.1223541 1908509 female
-0.5552089 0.6087469 0.8990478 0.06803221 0.7853201 0.6153405 12303555 female
-0.788706 0.1352175 1.020417 -0.3600635 -0.1052128 0.926976 15133438 female
-0.6366372 0.7541182 0.8444538 0.9021986 -0.3773393 -0.2089321 3551790 female
-0.5514756 0.4566695 0.9039718 0.9768449 -0.130657 0.1694193 13816538 female
-0.8662918 -0.3464945 0.8364154 -0.09646314 0.2637743 -0.9597489 2434089 female
-0.9136501 0.5445866 0.8280123 -0.6404583 0.2412376 -0.7291211 9078681 female
-0.7379978 0.7126406 0.8292996 -0.7849021 0.1580795 -0.5991157 10981510 female
-0.8594758 -0.1183395 1.014683 -0.3808482 -0.1570696 0.9111991 2171944 female
-0.5900976 0.5987645 0.9151189 0.1752972 0.6068213 0.7752669 10658478 female
-0.6773188 0.5376412 0.9854285 -0.05831981 0.6822001 0.728836 15660798 female
-0.8158699 0.01387261 0.8282923 -0.1218728 -0.4885098 -0.8640053 3157808 female
-0.7058013 0.8192626 0.9496856 -0.7974065 0.4729474 0.3747848 14138543 female
-0.5285487 -0.2025846 0.9397225 0.9913015 -0.02614349 0.1289879 1777185 female
-0.7886253 0.4100135 0.7967145 -0.3720212 -0.3627563 -0.8544051 2698546 female
-0.8504314 -0.03660553 1.027073 -0.3091062 -0.05826434 0.949241 2500142 female
-0.5660366 -0.2671744 0.9837381 0.4228968 -0.304408 0.8535187 2170402 female
-0.868764 -0.0105712 0.8556283 -0.5614759 -0.2378543 -0.7925719 2500907 female
-0.6410158 0.4030395 1.001738 0.4466515 0.1965162 0.8728596 15724543 female
-0.585151 0.3281905 0.9705731 0.7590913 0.2050576 0.6178445 6183780 female
-0.9012383 -0.3750864 0.9285887 -0.7580414 -0.108321 0.6431484 2565671 female
-0.5646017 -0.1982227 0.9963916 0.4766821 -0.194058 0.8573888 2170403 female
-0.6995919 0.1246636 1.043072 0.1174993 -0.3267456 0.93778 15199223 female
-0.8221708 -0.2231866 0.880278 0.2617152 -0.0377735 -0.9644057 2565419 female
-0.8897173 -0.6908689 0.8364156 -0.8559307 -0.1885387 -0.4814932 10389125 female
-0.7900173 -0.2170138 0.9666927 0.8070769 -0.2615055 0.5293787 1841436 female
-0.8559054 0.08389123 0.821798 -0.6769542 -0.02878479 -0.7354621 2434093 female
-0.9929534 0.1633187 1.073764 -0.9089942 0.2488263 0.3343875 7699066 female
-0.8166049 0.001783358 0.8347512 -0.07092018 -0.4139259 -0.9075438 2566447 female
-0.8958459 -0.6723834 0.8574035 -0.9072872 0.2201646 -0.35827 14862529 female
-0.5200818 0.1840587 0.9983907 -0.7794801 0.397704 0.4839859 7633286 female
-0.6595363 -0.07377022 1.006757 -0.6594099 -0.2599122 0.7054248 2105635 female
-0.9618645 0.2678274 0.9910082 -0.1040034 0.6297174 0.7698307 10396585 female
-0.5498546 0.4765541 0.8790725 0.9283134 -0.2919118 0.2302644 13026505 female
-0.9499788 0.3969087 0.8917642 -0.8957718 0.3171006 0.3115126 12042183 female
-0.8935614 -0.3738298 0.9384653 -0.5757917 -0.1435665 0.8048929 2631464 female
-0.8696451 -0.3466823 0.8361881 -0.1531637 0.260823 -0.9531591 2302505 female
-0.8211825 0.4006332 0.8257924 -0.7406074 -0.2850416 -0.6084833 5460312 female
-0.6713205 -0.104358 0.9031659 -0.8928722 -0.2249306 -0.3901096 2170913 female
-0.5158585 0.03301241 0.9639844 0.9444252 0.009631222 0.3285852 1974307 female
-0.6390095 0.8179839 0.7752974 0.6932201 -0.1786032 -0.6982455 3420972 female
-0.5466387 0.03146117 1.123449 -0.810444 -0.1782364 -0.5580432 6707029 female
-0.7533257 -0.04837178 0.8740423 0.6703585 -0.2853634 -0.6849724 2498854 female
-0.7420586 0.1001146 0.7818872 0.1008542 -0.1663118 -0.980902 5263457 female
-0.8690466 -0.1566352 1.004461 -0.4769448 -0.1623348 0.863812 2172969 female
-0.8092734 0.2843071 0.8305827 -0.5069935 0.1372261 -0.8509563 5524558 female
-0.6645431 -0.1451433 0.9078136 -0.9326214 -0.1573465 -0.3247451 2105120 female
-0.552394 0.2656544 0.9294468 0.9257368 0.3498437 0.1435991 8027774 female
-0.607069 -0.2479893 0.8731979 -0.1989565 -0.003929422 -0.9800004 2565677 female
-0.7230664 0.5001295 1.008521 0.09714711 0.3613317 0.9273629 13290450 female
-0.718179 0.01471994 0.9085969 0.951395 -0.2827775 -0.1220019 1645342 female
-0.8581318 0.627358 0.8766417 -0.2062127 0.9152983 0.3459845 11117481 female
-0.5351528 -0.0922417 0.9863594 0.8686374 -0.1261546 0.4791179 1841953 female
-0.538387 -0.6516221 0.8555907 0.9685872 -0.008274675 -0.2485364 1842207 female
-0.848974 -0.4126682 0.9326296 0.209896 -0.2424966 0.9471743 2170913 female
-0.5212559 0.6024179 0.888935 0.4930689 0.7948169 0.3537644 9343126 female
-0.8217947 -0.2292417 0.8809963 0.2798297 -0.04130375 -0.9591608 2500140 female
-0.9228787 0.2411994 0.9307718 0.7049732 -0.6351612 -0.3155679 13816027 female
-0.4862884 0.4837928 0.8943104 0.8266834 0.0211744 0.5622688 8817806 female
-0.8913722 -0.6372242 0.8687583 -0.9888544 0.1488811 0.001144061 1710882 female
-0.6614898 -0.1312812 0.8961268 -0.855288 -0.1724525 -0.4886129 2170657 female
-0.5730187 -0.04436324 1.029475 0.3991406 -0.09800563 0.9116368 2039589 female
-0.6208699 0.43758 0.782524 0.2655236 -0.3349267 -0.9040582 8817042 female
-0.6703202 0.726369 0.9350265 0.5874233 -0.6852639 0.4305198 15586756 female
-0.5820023 0.1522852 0.8075358 0.5691181 0.07665875 -0.8186746 12106953 female
-0.9205993 -0.6999431 0.8948867 -0.8639645 0.04514117 -0.5015253 10917005 female
-0.6389413 0.6634513 0.8678226 0.7753944 0.4916201 0.3963248 12363155 female
-0.5161315 0.5628155 0.822812 0.6626171 0.2499286 -0.7060271 6973303 female
-0.7892169 -0.04498031 0.8534983 0.2720624 -0.2508817 -0.9289997 2500652 female
-0.5557829 0.5423713 0.7928571 0.4786095 -0.1296109 -0.8684089 12370386 female
-0.7399945 0.7779525 0.9413632 -0.6667821 -0.06465381 0.742443 16770006 female
-0.8189331 -0.004196372 1.032293 -0.003341311 -0.03039939 0.9995322 2172712 female
-0.546358 -0.5894743 0.8441018 0.8375916 -0.08996104 -0.5388387 1974307 female
-0.8273169 0.5173286 0.9775491 -0.6229518 0.5070742 0.5956566 14935794 female
-0.788455 -0.2373883 0.9006351 0.8057975 -0.1253557 -0.5787714 2236967 female
-0.7077764 0.3013279 1.041497 -0.01974901 0.157969 0.9872465 7434876 female
-0.5411608 0.109012 1.088204 0.4385626 0.5378898 0.7199565 16175807 female
-0.8572515 0.4956 0.8954426 0.7383642 -0.3005373 0.6037347 9277338 female
-0.6684917 0.2942663 1.039612 0.2752606 0.1854793 0.9433075 11053494 female
-0.5602502 0.5121897 0.9176987 0.7876831 -0.3639297 0.4971021 3815741 female
-0.8634443 -0.711233 0.976136 0.9204265 -0.319345 0.2254633 6180688 female
-0.6429961 0.4716687 0.7670869 0.09770992 -0.2399728 -0.9658498 15199231 female
-0.7334623 0.5385137 0.9857306 0.08360003 0.6778541 0.7304279 15396344 female
-0.6227869 0.5431894 0.9748363 0.2189712 0.6639719 0.7149776 12171461 female
-0.6818197 -0.01792627 0.8762972 -0.7296163 -0.2117756 -0.6502393 2237224 female
-0.6643162 0.4862605 0.763101 -0.007427835 -0.1368722 -0.9905608 15921919 female
-0.5660809 -0.3099225 0.8460539 0.09737229 0.3621047 -0.9270377 2237738 female
-0.6528327 0.7029385 0.8831334 0.8472131 -0.09971122 0.5218119 14993595 female
-0.5691509 -0.4271265 0.9296348 -0.1197078 -0.2280099 0.9662719 2171431 female
-0.6516758 0.2768686 1.037099 0.4118495 0.1999098 0.8890535 14342371 female
-0.5324687 0.597869 0.9055482 0.2693596 0.6623983 0.6990521 9869474 female
-0.698043 -0.01241583 0.9758178 -0.9521434 -0.1623174 0.2589901 2434085 female
-0.6146262 0.05108127 0.8060954 0.201959 -0.439115 -0.8754373 2368300 female
-0.5112853 0.009434784 0.9393794 0.9944595 -0.06271879 0.08436085 1776161 female
-0.5362551 0.2581151 0.9050505 -0.9928551 -0.1190695 -0.007815185 14540526 female
-0.6159861 0.8723103 0.8640992 0.931856 0.3299254 0.1509757 2895145 female
-0.5154506 0.4744309 0.8164865 0.3382986 -0.04159841 -0.940119 13620191 female
-0.8437795 0.2870279 0.9568543 -0.865973 0.2619624 0.4259889 7960958 female
-0.8623827 -0.297807 0.9751115 -0.1155428 -0.5078747 0.853647 2499110 female
-0.9386762 -0.7007763 0.9813349 -0.2886938 0.9521192 0.1006225 14271422 female
-0.5298942 0.05696581 0.98757 0.8421521 0.07920986 0.5333908 1776675 female
-0.5017148 -0.002338014 1.05897 0.8203701 -0.03566288 0.5707197 15255487 female
-0.5064095 0.5879381 0.8626185 0.7329608 0.6380455 -0.2359374 13554654 female
-0.8339646 -0.588008 0.8477184 0.9598826 -0.1016427 -0.2613315 2301990 female
-0.5707647 -0.5086467 0.9096686 -0.1765891 -0.1882695 0.9661112 2301987 female
-0.8352847 0.4087008 0.9415198 -0.8704442 -0.2535867 0.421925 14343396 female
-0.667317 0.6310408 0.9113823 0.2557869 0.6205496 0.7412767 15396082 female
-0.873646 -0.6701252 0.9473995 0.2186213 0.8176377 0.53261 15848392 female
-0.8856402 0.6141039 0.8513157 -0.6289142 0.7355045 -0.2519919 12303039 female
-0.6701235 0.2717177 0.816911 0.02015166 0.1943923 -0.9807168 15201279 female
-0.5019782 0.5712137 0.9015018 0.6276977 0.4557237 0.6311193 13028813 female
-0.9174098 0.4079933 0.8328534 -0.4105251 -0.1140233 -0.9046921 5589847 female
-0.8060688 -0.4461581 0.8775013 0.984472 -0.1749788 -0.01404789 2040358 female
-0.8394668 0.0358454 0.8249528 -0.4184691 -0.3771408 -0.8262255 2631465 female
-0.6483499 0.5381874 0.9846922 0.05571539 0.6838566 0.7274861 12765138 female
-0.5389377 -0.5887015 0.8766998 0.9703996 -0.1230569 0.2078019 1578523 female
-0.5825856 -0.0907756 0.8597884 0.2329841 -0.05273648 -0.9710495 2106409 female
-0.934411 -0.6976746 0.9621106 -0.2629513 0.9546463 0.1396675 15781830 female
-0.787751 0.3460263 0.8137547 -0.4132175 -0.2160417 -0.884634 10330288 female
-0.8871369 -0.6335139 0.8883898 -0.9272937 0.2263243 0.2981675 2302502 female
-0.5706552 -0.1267398 0.8642851 0.3554198 -0.05743484 -0.9329405 2171688 female
-0.5546588 -0.3229841 0.9511665 0.4254315 -0.2357337 0.8737491 1908773 female
