# .PCD v0.7 - Point Cloud Data file format
VERSION 0.7
FIELDS x y z normal_x normal_y normal_z rgb label
SIZE 4 4 4 4 4 4 4 4
TYPE F F F F F F U U
COUNT 1 1 1 1 1 1 1 1
WIDTH 170
HEIGHT 1
VIEWPOINT 0 0 0 1 0 0 0
POINTS 170
DATA ascii
-0.8669844 0.1317015 0.8455021 -0.8218053 0.1092669 -0.559193 14079973 female
-0.5435296 0.1550307 0.849519 0.825635 0.05941088 -0.5610679 11121347 female
-0.8787214 -0.4697594 0.9246032 -0.3871818 -0.2434788 0.8892741 2171174 female
-0.5517786 0.09475759 1.084111 -0.7189985 -0.6918804 -0.0658994 8877942 female
-0.5368008 -0.5526301 0.8948483 0.7951434 -0.1799528 0.5791062 2171937 female
-0.6358713 -0.1933823 0.986869 -0.7305668 -0.2537541 0.6339408 2170913 female
-0.8055931 0.3475371 0.8294931 -0.63609 -0.1911058 -0.7475749 6251625 female
-0.9277759 -0.7171733 0.9870545 -0.2072991 -0.9776223 0.03580164 526344 female
-0.8243865 -0.1683609 1.015506 0.1957026 -0.2123787 0.9573901 2039072 female
-0.9361312 0.2256027 0.949512 0.2739392 -0.7854257 -0.5550348 10921901 female
-0.9311906 0.4837184 0.8759446 -0.9908525 0.1325625 0.02526627 7829376 female
-0.791131 0.3270101 0.8212326 -0.4628409 -0.1025327 -0.8804916 7566207 female
-0.8787034 -0.4739333 0.8389865 -0.4923161 -0.05746007 -0.8685179 2170401 female
-0.9108861 0.376587 0.9263146 0.07565524 0.1135843 0.9906436 8224648 female
-0.4796054 0.515887 0.8539599 0.8879072 0.1717725 -0.4267493 12434634 female
-0.5329465 -0.01257948 1.003634 0.8076663 -0.02077509 0.5892738 1973536 female
-0.9155454 0.1538377 1.172535 0.8180133 -0.5747901 -0.02169536 5193276 female
-0.8577492 0.03314327 1.022337 -0.5508496 0.1244537 0.8252733 2500651 female
-0.7846881 -0.2599504 0.9480491 0.8999448 -0.2971265 0.3190849 2169889 female
-0.5755196 -0.6092368 0.9046524 -0.4354842 0.2153291 0.8740635 2367780 female
-0.8756539 0.3996144 0.9110039 0.7180396 -0.09003664 0.690154 13224148 female
-0.8426359 0.3948747 0.9025035 -0.9949986 -0.07436474 0.0666915 14607343 female
-0.9827579 0.2433242 0.9879529 -0.9965247 0.08070255 0.02063068 14474476 female
-0.5787871 0.3460208 0.9627694 0.8049973 0.1537218 0.5730174 3420469 female
-0.8414418 0.3943367 0.8803982 -0.9840069 -0.08807054 -0.1548355 14083055 female
-0.5138261 0.3942723 0.919807 -0.07339429 0.04867344 0.9961146 15725047 female
-0.6322167 0.2684145 1.031748 0.5036771 0.193691 0.8418986 6184287 female
-0.5887834 0.2263801 0.8233662 0.4415424 0.3276581 -0.8352727 6514804 female
-0.6147482 0.8735515 0.8240623 0.8772173 0.4026876 -0.2614049 2631463 female
-0.7017376 0.4139212 1.014269 0.009226495 0.2589506 0.9658465 15200255 female
-0.4594696 0.2519698 0.9168334 0.9413318 -0.2158755 -0.2594074 13158615 female
-0.5166213 -0.4383825 0.8721337 0.9854724 -0.07723331 -0.1512582 1579553 female
-0.8377439 -0.04245986 0.8552182 -0.2202003 -0.2132468 -0.9518601 2105896 female
-0.7876992 -0.2052252 0.8982141 0.6956691 -0.07808476 -0.7141059 2171944 female
-0.5351414 -0.6737263 0.8811864 0.9837925 0.1531706 -0.09322618 13087919 female
-0.7018341 0.8232358 0.7614345 -0.1723842 -0.1488482 -0.9737185 14338761 female
-0.6319353 0.7572998 0.9069762 0.941911 -0.2787185 0.1874024 15851728 female
-0.7991005 0.6548441 0.8174192 -0.4495488 0.7747514 -0.4445964 11582152 female
-0.8496516 0.1602684 0.988573 -0.6377049 0.1696348 0.7513697 3552582 female
-0.6668741 0.5910174 0.7777009 -0.08080222 0.1827872 -0.9798265 14541555 female
-0.5849245 -0.1534255 1.017494 0.1451663 -0.2450318 0.9585855 1842723 female
-0.7094274 0.3484608 1.036087 -0.04019954 0.2345042 0.9712836 12633296 female
-0.7361308 0.06130631 0.7970305 0.1673093 -0.4634874 -0.8701649 2566703 female
-0.6776181 0.1962103 1.056903 0.1992477 -0.1414113 0.9696923 4734801 female
-0.9166976 0.5722218 0.8637775 -0.8214078 0.5329387 -0.2031395 4934995 female
-0.8350569 0.4176987 0.9440035 -0.8357747 -0.3943076 0.3821023 9672086 female
-0.6168697 0.2687062 0.8262749 0.326701 0.164705 -0.9306657 13752817 female
-0.6818118 -0.08181118 0.9339409 -0.964651 -0.253029 -0.07365248 2237218 female
-0.51641 -0.0564757 0.9519656 0.9845863 -0.1209445 0.1263415 1908509 female
-0.576552 0.6183729 0.8972982 0.1387229 0.7528872 0.6433635 9540505 female
-0.7817049 0.1028286 1.023978 -0.04353415 0.04758738 0.9979179 2566703 female
-0.632731 0.7540861 0.8505077 0.9025607 -0.3757344 -0.2102565 3551790 female
-0.5459747 0.452413 0.8865201 0.9757614 -0.1985746 0.09196638 10132127 female
-0.8464167 -0.3257539 0.8518943 0.1968683 0.3321443 -0.9224548 2697774 female
-0.9104732 0.5444852 0.8336171 -0.6506717 0.2377543 -0.7211791 9078681 female
-0.7340415 0.7127944 0.8345097 -0.782786 0.1648288 -0.6000647 10981510 female
-0.8562742 -0.1171495 1.020043 -0.3766213 -0.1445919 0.9150135 2171944 female
-0.5869491 0.5981538 0.9199957 0.166707 0.6016991 0.7811319 10658478 female
-0.6869574 0.5426005 0.9801238 -0.1024952 0.6800346 0.7259805 3553599 female
-0.8131987 0.01289544 0.8312097 -0.1252092 -0.4964647 -0.8589793 3157808 female
-0.7128711 0.8007946 0.9554927 -0.4209835 0.2214793 0.8796135 14599100 female
-0.5258709 -0.1978699 0.9328618 0.9990401 -0.01368819 -0.04161203 2170921 female
-0.7630927 0.3986611 0.7953255 -0.2139089 -0.3006277 -0.9294439 15198199 female
-0.8645403 -0.02684651 1.023596 -0.5579721 -0.001873542 0.8298576 2368809 female
-0.5641711 -0.2676744 0.9886722 0.419703 -0.3050344 0.8548704 2170402 female
-0.8661197 -0.01136259 0.8592563 -0.5649442 -0.2461596 -0.7875554 2500907 female
-0.5761288 0.4751806 0.7928393 0.5895461 -0.2930264 -0.752709 14607351 female
-0.5819314 0.3272059 0.9726819 0.7580354 0.2002394 0.6207145 6183780 female
-0.8979453 -0.374918 0.935244 -0.7566952 -0.1167676 0.6432557 2565671 female
-0.5625978 -0.198452 1.000934 0.4733753 -0.1908605 0.8599349 2170403 female
-0.6848351 0.1517571 1.049641 0.2181878 -0.2256712 0.9494559 12303563 female
-0.8197505 -0.223253 0.8873107 0.2584549 -0.04265056 -0.9650813 2565419 female
-0.8778437 -0.7059504 0.8714724 -0.06065422 -0.9889628 -0.13518 789772 female
-0.7872682 -0.2165666 0.9734008 0.8093436 -0.2565708 0.5283317 1841436 female
-0.8469147 0.08527627 0.8190936 -0.6197178 -0.01140006 -0.784742 2696745 female
-0.9893983 0.1490681 1.077149 -0.9983441 -0.04722271 -0.0328486 15267582 female
-0.8139662 0.0007900167 0.8378756 -0.07459461 -0.4231971 -0.9029617 2566447 female
-0.8894004 -0.682695 0.8507201 -0.9064136 0.1114419 -0.407425 11705240 female
-0.5267593 0.2156765 0.9639855 -0.9554343 0.1073551 0.2749915 14608118 female
-0.6732373 -0.06284026 0.9946203 -0.8103516 -0.2633108 0.523448 1973534 female
-0.956596 0.2703153 1.001124 -0.09053109 0.643536 0.7600431 10396585 female
-0.5480357 0.465349 0.8390203 0.8690367 -0.4042664 -0.2852084 13685720 female
-0.9286601 0.3749368 0.9233229 -0.2752524 0.2657796 0.9239033 14740469 female
-0.8902633 -0.3736857 0.9451227 -0.5740497 -0.1521123 0.8045675 2631464 female
-0.8666356 -0.3457494 0.8430439 -0.1558823 0.2661212 -0.9512519 2302505 female
-0.8155636 0.3850983 0.8273857 -0.7244239 -0.1532933 -0.6720946 6710377 female
-0.662113 -0.1588585 0.9252346 -0.9775437 -0.1541598 -0.1436773 1775899 female
-0.5131151 0.03250135 0.9668689 0.9435573 0.009316787 0.3310783 1974307 female
-0.6347862 0.8188064 0.7821807 0.6958444 -0.1705501 -0.6976483 3420972 female
-0.5434576 0.04893629 1.118185 -0.9076315 -0.1417786 -0.3950997 10852751 female
-0.7506728 -0.04912883 0.8776349 0.667325 -0.2945617 -0.6840401 2498854 female
-0.7389421 0.09945298 0.7838254 0.1009856 -0.1695359 -0.9803364 5263457 female
-0.8659468 -0.1556372 1.010433 -0.4732208 -0.1512929 0.8678551 2172969 female
-0.8408241 0.2721353 0.859344 -0.7640523 0.3858178 -0.5170771 7698044 female
-0.6585667 -0.1764002 0.9187127 -0.9725112 -0.1123914 -0.2039364 1710363 female
-0.5510182 0.2730398 0.9250685 0.9523622 0.293571 0.08259644 14673128 female
-0.6047947 -0.2484224 0.8780232 -0.1959773 -0.003784789 -0.9806011 2565677 female
-0.7188889 0.4828483 1.01719 0.08336337 0.1581216 0.9838943 15462395 female
-0.715297 0.01436337 0.911206 0.9505582 -0.2857425 -0.1216154 1645342 female
-0.8479761 0.6304946 0.8773791 -0.1957751 0.9165063 0.3488385 12894660 female
-0.5328378 -0.09251463 0.9901356 0.866708 -0.1251587 0.4828587 1841953 female
-0.5374324 -0.6517556 0.8586755 0.9694305 -0.009010829 -0.2452006 1842207 female
-0.8454579 -0.4122413 0.938936 0.2123596 -0.2479882 0.9452012 2170913 female
-0.5296202 0.6101577 0.8917544 0.384592 0.8572131 0.3424538 13554387 female
-0.8193591 -0.2292349 0.8880817 0.2767882 -0.04523988 -0.9598655 2500140 female
-0.9186834 0.2426038 0.9406953 0.6995285 -0.6406793 -0.3165281 13816027 female
-0.4775974 0.483572 0.8891394 0.9386999 0.03347595 0.3431063 10725291 female
-0.8864278 -0.6297653 0.8689654 -0.9961779 0.08118459 -0.03222851 1907741 female
-0.6589613 -0.1318529 0.8997777 -0.8541809 -0.1733153 -0.4902416 2170657 female
-0.6219946 0.02017105 1.041245 -0.1148622 0.01715283 0.9932333 2237481 female
-0.6170347 0.4380753 0.7855828 0.2679569 -0.3268381 -0.906298 8817042 female
-0.684525 0.7377934 0.9642593 0.4298429 -0.12363 0.8943997 15783369 female
-0.5787925 0.1515053 0.8094584 0.5700659 0.07394209 -0.8182649 12106953 female
-0.913075 -0.7119855 0.90671 -0.447737 -0.7839771 -0.4300134 921102 female
-0.6717607 0.6421825 0.9123093 0.3709951 0.2796453 0.8855287 14277095 female
-0.5202237 0.5413139 0.8156032 0.5014494 -0.05098755 -0.8636832 15200247 female
-0.7866351 -0.04594214 0.8571901 0.2678879 -0.2625408 -0.9269889 2500652 female
-0.5458614 0.537079 0.8016167 0.4545153 -0.1742557 -0.8735278 14607351 female
-0.7327985 0.7710853 0.9497793 -0.5858502 -0.08677504 0.8057603 16706518 female
-0.7947819 -0.000959463 1.033137 0.1988271 -0.04837336 0.97884 2171171 female
-0.5461851 -0.5270654 0.8367494 0.5601233 -0.1005904 -0.8222795 2697264 female
-0.8233622 0.5254955 0.9717848 -0.6088117 0.4966653 0.6186047 8684427 female
-0.7859533 -0.2372781 0.9076366 0.8044453 -0.12735 -0.5802152 2236967 female
-0.704723 0.3002807 1.043192 -0.02158933 0.1535879 0.9878991 7434876 female
-0.5546212 0.1127158 1.095539 -0.1027709 0.8921504 0.4398931 16770780 female
-0.8532526 0.495947 0.9006388 0.7466621 -0.2972535 0.5950934 9277338 female
-0.662162 0.2515925 1.049441 0.2931843 0.1709907 0.9406408 5130576 female
-0.5537416 0.4968407 0.9187637 0.9132549 -0.2108748 0.3485646 11777979 female
-0.8543719 -0.6938818 0.9615624 0.9111836 0.2540188 0.3243747 12231836 female
-0.6390498 0.4722898 0.7704234 0.1006486 -0.2313249 -0.9676563 15199231 female
-0.699335 0.5423234 0.9787058 -0.01703937 0.704105 0.7098915 3880764 female
-0.6175575 0.5354213 0.9846188 0.2371706 0.6590468 0.7137278 10921646 female
-0.6660719 -0.01688758 0.866639 -0.5748672 -0.2859585 -0.7666521 2302243 female
-0.6727396 0.4904984 0.7659407 -0.04121378 -0.05101092 -0.9978473 15463935 female
-0.5639712 -0.3100974 0.8508855 0.1011703 0.3652239 -0.9254059 2237738 female
-0.6490886 0.7024875 0.8885415 0.8454728 -0.105886 0.5234157 14993595 female
-0.5676603 -0.4276006 0.933824 -0.1230865 -0.2325463 0.9647653 2171431 female
-0.6486017 0.2760009 1.038803 0.4105029 0.1962043 0.8905006 14342371 female
-0.5204797 0.5988183 0.9030042 0.4162877 0.7352936 0.5348344 6842480 female
-0.6954399 -0.01232677 0.9784442 -0.9533593 -0.1577924 0.2573083 2434085 female
-0.6115363 0.05018163 0.8083041 0.2022185 -0.4427418 -0.8735487 2368300 female
-0.5085357 0.008769492 0.9424182 0.9940736 -0.06456003 0.08746231 1776161 female
-0.5283404 0.23461 0.9132195 -0.8602292 -0.3526021 -0.3683443 11581120 female
-0.6120594 0.8720174 0.8717265 0.9314279 0.3274875 0.1587264 2895145 female
-0.5105067 0.465954 0.8232385 0.3476356 -0.07263323 -0.9348122 9277854 female
-0.8421138 0.2654902 0.9686742 -0.8164372 0.2992185 0.493861 3289402 female
-0.8690441 -0.3237199 0.9631357 -0.3051943 -0.2734123 0.9121963 2301987 female
-0.931009 -0.6972438 0.9575833 -0.4002851 0.915535 0.03959354 16768982 female
-0.5271558 0.05663215 0.9902422 0.8409622 0.08031783 0.5350996 1776675 female
-0.4979757 0.0221616 1.058177 0.9882944 -0.06731763 -0.1369036 16572379 female
-0.5027341 0.5877541 0.8688622 0.7359353 0.6403469 -0.2198981 13554654 female
-0.8288627 -0.5890597 0.8635088 0.9918139 -0.1268455 -0.01467562 1907745 female
-0.5695068 -0.5090032 0.9133802 -0.1799325 -0.1926894 0.9646217 2301987 female
-0.8265979 0.4236355 0.9682846 -0.6862767 -0.5614031 0.4624401 14079458 female
-0.6661948 0.6249078 0.9217426 0.1793491 0.6016753 0.7783449 14738414 female
-0.8818246 -0.6763115 0.96101 -0.1404656 0.8890984 0.4356299 14596789 female
-0.8751293 0.6141918 0.8447379 -0.6482705 0.665883 -0.3692494 11711421 female
-0.6666594 0.2714479 0.8185497 0.02212611 0.195924 -0.9803694 15201279 female
-0.518967 0.5793521 0.9195175 0.3073516 0.4182623 0.8547465 9802653 female
-0.9146461 0.4078383 0.8402249 -0.4249862 -0.1234893 -0.8967369 5589847 female
-0.8028263 -0.4431686 0.8901563 0.9738336 -0.1821576 0.1358928 1842720 female
-0.836753 0.03496913 0.8276653 -0.4210433 -0.3835316 -0.8219648 2631465 female
-0.6695601 0.528533 0.9960466 -0.06181712 0.6401494 0.7657594 10395047 female
-0.536245 -0.5853534 0.8727789 0.9914514 -0.1296238 -0.01489584 1578779 female
-0.5798361 -0.09181592 0.863314 0.2359428 -0.0599513 -0.9699159 2106409 female
-0.927338 -0.699959 0.9801328 -0.2200502 0.9615381 0.1643851 16243670 female
-0.736074 0.2394948 0.8057835 -0.002722043 0.3081149 -0.9513453 15201018 female
-0.8941347 -0.6821285 0.9606994 -0.336661 0.8915939 0.3028525 16241870 female
-0.5680224 -0.1277582 0.8681973 0.3583527 -0.06452563 -0.9313537 2171688 female
-0.5453523 -0.3192172 0.9534091 0.5781062 -0.1868301 0.7942843 2040353 female
