# .PCD v0.7 - Point Cloud Data file format
VERSION 0.7
FIELDS x y z normal_x normal_y normal_z rgb label
SIZE 4 4 4 4 4 4 4 4
TYPE F F F F F F U U
COUNT 1 1 1 1 1 1 1 1
WIDTH 170
HEIGHT 1
VIEWPOINT 0 0 0 1 0 0 0
POINTS 170
DATA ascii
-0.8782511 0.1130801 0.7367798 -0.7227203 0.01792778 -0.6909081 10726323 female
-0.5628942 0.1352508 0.7577675 0.8590786 0.01808866 -0.5115238 3818306 female
-0.8636071 -0.4279206 0.8936671 0.4386732 -0.2190508 0.8715403 2170913 female
-0.6100955 0.1354667 1.009451 -0.6859577 -0.6591219 -0.3082538 5786700 female
-0.6167123 -0.3037328 0.779525 0.03465526 0.4163874 -0.9085265 2698289 female
-0.5918976 -0.199645 0.9175237 0.5945957 -0.1723542 0.7853344 2170145 female
-0.8617892 0.3038108 0.7800692 -0.9231319 0.162804 -0.3483137 14803177 female
-0.888142 -0.7066803 0.8902625 0.2252678 -0.9701294 -0.09001873 3946293 female
-0.8427497 -0.4812112 0.8542641 0.9371467 -0.2297435 0.2626291 1710362 female
-0.8936095 0.2319659 0.9962965 0.9144306 -0.3815318 -0.135093 6974066 female
-0.9366197 0.4996483 0.8176789 -0.9480463 0.1099006 0.2985469 12370119 female
-0.850983 0.2920962 0.7582899 -0.7889506 0.1525969 -0.5952067 13948644 female
-0.9015884 -0.5219737 0.8036439 -0.3178454 -0.07269575 -0.9453515 2301987 female
-0.9030696 0.4143256 0.8582673 0.1113301 0.1676922 0.979533 14606565 female
-0.517155 0.4798903 0.7297486 0.5322584 -0.02157487 -0.846307 9012633 female
-0.5615153 0.01588771 0.9046383 0.8155776 0.05091044 0.5764038 1973536 female
-0.8630133 0.5209299 0.7765399 -0.316968 -0.8490341 0.4226964 6119011 female
-0.8177753 0.05214151 0.9571477 0.1347933 0.1976589 0.9709592 2171945 female
-0.8015951 -0.2410426 0.8793231 0.9672611 -0.2066294 -0.1473438 1842208 female
-0.6461109 -0.603319 0.8095436 -0.4910805 0.1502978 0.8580505 2499110 female
-0.892426 0.4360646 0.8534626 0.2568208 0.1183518 0.959185 8554381 female
-0.8611612 0.4094907 0.7908164 -0.9703961 -0.2311939 -0.0698626 14869226 female
-0.9502293 0.2812274 0.9453722 -0.9613354 0.08415429 0.2622067 7501948 female
-0.6222931 0.3314913 0.8847426 0.7240318 0.1041809 0.6818535 15527163 female
-0.8556992 0.3786652 0.7688742 -0.9481574 -0.05180723 -0.31355 7369594 female
-0.5530822 0.34905 0.8171044 -0.5453693 0.06855984 0.8353872 15789558 female
-0.640748 0.2245213 0.930641 0.5843521 0.09882195 0.8054606 5461599 female
-0.6272221 0.2303957 0.7167547 0.3480885 0.2983284 -0.8887264 5327965 female
-0.618593 0.8694577 0.7615251 0.8712378 0.4085968 -0.2720171 2631463 female
-0.706552 0.4197436 0.9130201 0.0678596 -0.1391343 0.9879457 15067645 female
-0.5368815 0.2561108 0.787591 -0.001329755 -0.7115171 -0.7026675 9869982 female
-0.5751728 -0.4247775 0.7850758 0.9565045 -0.08625678 -0.2786734 1579808 female
-0.8564436 -0.1039295 0.80093 -0.1378541 -0.2052996 -0.9689419 2500910 female
-0.8019576 -0.2106676 0.8607147 0.8682753 -0.1281986 -0.4792318 2170147 female
-0.6088805 -0.6774002 0.7806197 0.965641 0.1267388 -0.2268808 13087919 female
-0.7224917 0.8656116 0.7126115 -0.4818301 0.3933878 -0.782998 9473672 female
-0.6224188 0.7551383 0.7880308 0.8162645 -0.577587 0.01028065 15189691 female
-0.7975591 0.6368063 0.7107569 -0.2776456 0.5268516 -0.8033307 13291483 female
-0.9042857 0.1845417 0.8491692 -0.9454541 0.2091801 0.2497205 9671576 female
-0.6895738 0.5485533 0.678218 -0.2423724 0.1801378 -0.9533132 14541042 female
-0.5703228 -0.1892645 0.8901989 0.9155546 -0.1334336 0.3794143 2105377 female
-0.673685 0.3371276 0.9259242 0.3982006 0.1752573 0.9004005 14081007 female
-0.8496241 0.1131877 0.7116494 -0.540571 -0.04718165 -0.8399743 14081775 female
-0.6831087 0.2151032 0.9542676 0.3084407 0.01737249 0.9510849 12700887 female
-0.9289092 0.554856 0.8215166 -0.8109243 0.3661983 0.4563996 5527901 female
-0.8584837 0.4170268 0.8322657 -0.9056102 -0.326635 0.2705176 14474464 female
-0.6278433 0.2777414 0.7241746 0.4352586 -0.05107802 -0.8988553 13488354 female
-0.7199071 -0.06768883 0.845116 -0.9803824 -0.1956629 -0.02380148 2433573 female
-0.5447981 -0.04914452 0.8324157 0.9748423 -0.1818027 -0.1289593 2105122 female
-0.5188062 0.5815011 0.7697876 0.7309642 0.6483362 -0.2129588 10067885 female
-0.8477637 0.1597132 0.9189313 -0.3969682 0.1980283 0.8962148 14871290 female
-0.6541667 0.7169418 0.7643939 0.8357956 -0.1342706 -0.5323694 4866113 female
-0.5734474 0.4451477 0.722985 0.7988812 -0.3676686 -0.4760341 4210246 female
-0.861486 -0.3028109 0.8268265 0.3935669 0.3147179 -0.8637463 2500142 female
-0.8849419 0.5303852 0.7392377 -0.3173633 -0.2860691 -0.9041267 11843012 female
-0.7428892 0.7118061 0.7593556 -0.8141195 0.2608879 -0.5187939 10981510 female
-0.8394133 -0.1378497 0.9635081 0.2130768 -0.1121086 0.9705823 2171688 female
-0.5638138 0.5810513 0.8227935 0.04445213 0.5038656 0.8626375 14146535 female
-0.7209371 0.5080236 0.9073122 0.1459667 0.4863488 0.8614863 15002358 female
-0.8226572 -0.04982802 0.7854238 0.1203923 -0.3422015 -0.9318818 2500651 female
-0.6836796 0.8167654 0.8914661 0.3428011 -0.08293666 0.9357398 16050395 female
-0.6693618 -0.1949038 0.9116685 -0.6773219 -0.1773742 0.7139842 2170913 female
-0.7311932 0.2870904 0.7239572 -0.02750683 0.07167294 -0.9970489 13753848 female
-0.8191693 -0.0201979 0.9638174 0.2531489 -0.00134485 0.9674264 2170916 female
-0.6505056 -0.3023889 0.8886093 -0.5742978 -0.4080112 0.7097245 2171174 female
-0.9134792 -0.04732122 0.8240649 -0.8401152 -0.1920901 -0.5072551 2170917 female
-0.5976334 0.4255204 0.7041441 0.6125525 -0.3704999 -0.6982187 14078942 female
-0.596261 0.3147535 0.8589737 0.8223539 0.1577463 0.5466719 6183780 female
-0.9293085 -0.3224578 0.8381729 -0.8580626 0.2311352 -0.4585903 1973281 female
-0.6485144 -0.2021127 0.9242811 -0.3832397 -0.1721485 0.9074647 2170401 female
-0.6941101 0.1440315 0.9485424 0.3294933 -0.2135754 0.9196845 14541297 female
-0.8777823 -0.2105849 0.8352122 -0.1713307 -0.06007153 -0.9833805 2698289 female
-0.8907955 -0.7045509 0.8505617 0.08404478 -0.9962984 0.01805427 723467 female
-0.8142055 -0.2743739 0.8721144 0.9090629 -0.2513312 -0.3323211 1973278 female
-0.8704731 0.06228932 0.732951 -0.5740981 -0.2044321 -0.7928549 2500654 female
-0.9237127 0.215445 1.065947 -0.9482299 0.005137501 0.317543 15136510 female
-0.8448726 -0.02765923 0.7760026 -0.1052095 -0.385598 -0.9166489 2697516 female
-0.9108537 -0.6574461 0.8063282 -0.8459206 0.3011937 -0.4401144 15716301 female
-0.5724307 0.2106531 0.9472384 -0.5143667 0.7491676 0.4173424 15529983 female
-0.6739569 -0.07490769 0.9295821 -0.5201378 -0.1485279 0.8410684 2170401 female
-0.9391441 0.2823711 0.9721239 -0.7676216 0.4690252 0.436775 11712706 female
-0.5825596 0.4629279 0.7026367 0.6703165 -0.3331458 -0.6630911 13028310 female
-0.9420486 0.4199288 0.8350844 -0.8627011 0.2580853 0.4349009 5922922 female
-0.9059175 -0.3726811 0.9142451 -0.3312823 -0.1446679 0.9323751 2434085 female
-0.8614175 -0.2986798 0.8285765 0.3976121 0.3203532 -0.859813 2434605 female
-0.8279815 0.3587316 0.731116 -0.6655692 -0.2150739 -0.7146754 15658750 female
-0.6994983 -0.1290373 0.8179277 -0.8900712 -0.1816069 -0.4180815 1972766 female
-0.5387589 0.0546913 0.8488396 0.9790438 0.050796 0.1972131 1908257 female
-0.6436476 0.8214073 0.714427 0.6380552 -0.09578674 -0.7640095 3420972 female
-0.6231963 0.10497 1.093136 0.7954146 -0.418937 0.4379581 15914697 female
-0.7853293 -0.05398807 0.8004368 0.5462962 -0.3570535 -0.7576762 2498854 female
-0.7805843 0.1642836 0.6953796 -0.09155744 0.176402 -0.9800508 14541550 female
-0.9093278 -0.2688986 0.8441517 -0.5791195 0.2862791 -0.7633249 2565930 female
-0.8467108 0.2512308 0.7379557 -0.5167434 0.3709193 -0.7716185 14543606 female
-0.6969255 -0.1545504 0.825654 -0.9256399 -0.1307182 -0.3551106 2170913 female
-0.5637698 0.2192522 0.8453948 0.8999253 0.2684557 0.3436074 14738671 female
-0.6618581 -0.279991 0.8118168 -0.5197021 0.1009165 -0.8483664 2170913 female
-0.718046 0.4095424 0.9130476 0.05408278 0.1177011 0.9915752 6645617 female
-0.7449843 0.01119281 0.8230234 0.9172646 -0.3155551 -0.2430032 1645342 female
-0.8717615 0.6227966 0.8156866 -0.1789573 0.8764527 0.4469956 10330014 female
-0.5608345 -0.07068054 0.9039392 0.8682137 -0.09871343 0.4862723 1973537 female
-0.6111651 -0.6634414 0.7711173 0.9707595 0.01888823 -0.2393101 2105376 female
-0.8809261 -0.4675486 0.8912324 0.2589075 -0.2145792 0.9417657 2105377 female
-0.5776245 0.5871361 0.8186725 0.08010909 0.5908419 0.8028004 15395827 female
-0.8815974 -0.2079504 0.8361853 -0.2642026 -0.05988107 -0.9626065 2566703 female
-0.8953019 0.2552752 0.9164192 0.7638599 -0.6037104 -0.2281485 9605267 female
-0.5037757 0.5147355 0.8110356 0.7086439 0.09791299 0.6987395 11053487 female
-0.9128999 -0.6613699 0.8967797 -0.6443201 0.7082809 0.2884263 15785175 female
-0.6971768 -0.1991413 0.8537172 -0.9980941 -0.05043117 0.03556412 1579291 female
-0.6201952 -0.001659512 0.9456766 0.1854278 0.04642528 0.9815606 2499878 female
-0.6401779 0.4268355 0.6824562 0.2055366 -0.299375 -0.9317346 15263992 female
-0.7018204 0.7554585 0.8970636 -0.3801756 0.04614448 0.9237625 14928834 female
-0.6718961 0.2248249 0.7063363 0.06707069 0.2655218 -0.961769 14673911 female
-0.9330788 -0.6929974 0.8614012 -0.9500866 -0.01008863 -0.3118233 11573650 female
-0.6671812 0.648638 0.8164026 0.6327244 -0.02010582 0.774116 14734288 female
-0.5018236 0.5532214 0.768999 0.8374782 0.4687826 -0.2808438 12567509 female
-0.8240878 -0.05184096 0.785878 0.1114663 -0.3376415 -0.9346516 2500652 female
-0.5690635 0.5552282 0.6977666 0.5269669 0.0659036 -0.8473268 8354441 female
-0.7123063 0.7389773 0.8883138 -0.5775357 -0.02021856 0.816115 14335665 female
-0.7749462 -0.0006178105 0.9414247 0.6236075 -0.06188553 0.7792842 2170145 female
-0.6143541 -0.5557591 0.751472 0.7036263 -0.1458264 -0.6954457 1973281 female
-0.7878238 0.5077439 0.9164128 -0.09218911 0.5990819 0.7953628 13422552 female
-0.8243035 -0.2413718 0.8466475 0.485056 -0.1708519 -0.8576306 2500137 female
-0.6923739 0.2917759 0.9396695 0.207201 0.1692764 0.963542 6316394 female
-0.6019955 0.08698667 1.055608 -0.2326706 0.697199 0.6780693 10388340 female
-0.8788875 0.5605668 0.8472419 0.01439833 0.05450879 0.9984095 15461361 female
-0.6577289 0.232703 0.9404182 0.4937047 0.1313115 0.8596586 13357798 female
-0.568229 0.4852447 0.8328919 0.9549126 -0.07917114 0.286136 14802917 female
-0.8676689 -0.6898271 0.9287429 0.9650688 0.2332684 0.119282 10850699 female
-0.6546283 0.4445941 0.6748962 0.08637903 -0.2401504 -0.966885 15462391 female
-0.6736624 0.5472514 0.8737338 0.08156685 0.5845769 0.8072278 11251387 female
-0.6151003 0.4616836 0.9196773 0.4205493 0.1195675 0.8993564 13027539 female
-0.6909418 -0.06047773 0.7810279 -0.5795706 -0.25907 -0.7726453 2237481 female
-0.7032083 0.4863495 0.6698066 -0.120521 -0.01146933 -0.9926445 13683420 female
-0.615055 -0.5943897 0.8017083 0.7459388 -0.1606867 0.6463399 1907998 female
-0.6536195 0.7066623 0.807623 0.8861432 -0.3210534 0.334178 12429467 female
-0.6192484 -0.5183336 0.8234918 0.194151 -0.2596059 0.9459969 2302499 female
-0.6543747 0.2748834 0.9274583 0.5365704 0.1851234 0.8232992 15528188 female
-0.583864 0.5676945 0.8312696 0.2027676 0.3704606 0.906446 5855329 female
-0.7209754 -0.03257211 0.8839496 -0.9439887 -0.1453867 0.296223 1579295 female
-0.7177393 0.08094301 0.6961679 -0.1562723 -0.3005978 -0.9408613 3421247 female
-0.5509855 -0.01380036 0.8878673 0.9116315 -0.03278514 0.4096989 1973537 female
-0.5686136 0.2201971 0.8484703 -0.7218783 -0.5054721 -0.472641 12106690 female
-0.6098517 0.8493555 0.8028872 0.9874423 0.1130206 0.110382 2368292 female
-0.5540316 0.4265777 0.727752 -0.1852931 -0.2147469 -0.9589319 12106177 female
-0.8783703 0.2701831 0.8287274 -0.8938957 0.4328721 0.1164998 14804465 female
-0.8585382 -0.2872576 0.9425978 0.3535209 -0.5042479 0.7878813 2367780 female
-0.950837 -0.6967948 0.9293457 -0.8060943 0.5732551 -0.1469369 14598074 female
-0.5771269 0.1131055 0.9008748 0.6457918 0.2408414 0.7245332 15330809 female
-0.6042472 0.04145714 1.036826 -0.8719888 -0.02803816 -0.4887221 10126982 female
-0.5090376 0.5642015 0.8011295 0.7248874 0.5167489 0.4555314 11779772 female
-0.868225 -0.5615699 0.8092778 0.6437057 -0.05265049 -0.7634598 2565415 female
-0.6158097 -0.391634 0.8627008 0.04890024 -0.2708262 0.9613854 2564647 female
-0.8603841 0.3495076 0.8026403 -0.9978278 0.03748082 -0.05417478 14804464 female
-0.7326935 0.5926065 0.8530099 0.007121901 0.5000814 0.8659491 11119284 female
-0.9051496 -0.6309888 0.8734573 -0.7592388 0.3060116 0.5743808 2236968 female
-0.8712618 0.619379 0.7493826 -0.6618383 0.6065472 -0.4405343 12502486 female
-0.6982003 0.2625669 0.7140322 -0.06960976 0.1770541 -0.9817364 15201279 female
-0.5617891 0.5383147 0.8285524 0.02305871 -0.04198621 0.9988521 8487305 female
-0.8907229 0.3258055 0.8058184 0.7148887 -0.4389898 -0.5442629 12369348 female
-0.8287882 -0.4084408 0.8488328 0.9943148 -0.1041061 -0.02236228 2039327 female
-0.8439752 -0.0005457625 0.7628386 -0.1395133 -0.5341241 -0.833815 2895412 female
-0.686476 0.5072388 0.9049032 0.01954954 0.5316029 0.8467681 15725567 female
-0.6162199 -0.623086 0.7988328 0.8519871 -0.00718401 0.5235134 2829616 female
-0.6216341 -0.1061637 0.7734189 0.1328437 -0.1446595 -0.9805234 2106409 female
-0.9332046 -0.6875784 0.9320112 -0.371507 0.9199131 0.1254694 16242386 female
-0.8069088 0.361672 0.7158349 -0.4533074 -0.2288833 -0.8614666 5526108 female
-0.8983964 -0.6589367 0.9093099 -0.2584251 0.8578122 0.4442688 16774119 female
-0.610979 -0.1419272 0.7808962 0.2578994 -0.1497475 -0.9544965 2171688 female
-0.5897332 -0.3544906 0.8669142 0.5735807 -0.2009156 0.7941272 2171945 female
