# .PCD v0.7 - Point Cloud Data file format
VERSION 0.7
FIELDS x y z normal_x normal_y normal_z rgb label
SIZE 4 4 4 4 4 4 4 4
TYPE F F F F F F U U
COUNT 1 1 1 1 1 1 1 1
WIDTH 170
HEIGHT 1
VIEWPOINT 0 0 0 1 0 0 0
POINTS 170
DATA ascii
-0.9564273 0.1496907 -0.2525429 -0.7477638 0.0587849 -0.6613575 14936567 female
-0.683397 0.1646497 -0.2857366 0.5644063 0.06902523 -0.8226063 9803174 female
-0.9630885 -0.4218353 -0.1101676 0.3422127 -0.2896053 0.8938788 2170913 female
-0.630658 0.1067823 -0.05046193 -0.8712626 -0.4234732 -0.2481368 7299423 female
-0.6773851 -0.3016262 -0.250492 -0.0579359 0.3667482 -0.9285145 2698289 female
-0.6482652 -0.1933812 -0.1113905 0.6719464 -0.174011 0.7198668 2170145 female
-0.9190452 0.3507294 -0.2399183 -0.7639688 -0.1632328 -0.6242649 6251625 female
-1.014535 -0.7042499 -0.126222 0.0647249 -0.9827359 -0.173323 657418 female
-0.9435893 -0.5102457 -0.1665157 0.9533371 -0.2320433 0.1931433 1841948 female
-1.033671 0.2234229 -0.1040811 0.1950426 -0.7868495 -0.5855136 10921901 female
-1.033851 0.4819621 -0.1721448 -0.9767075 0.1372542 0.1649359 7829376 female
-0.9069709 0.3299833 -0.2511483 -0.6168177 -0.076689 -0.7833612 7566207 female
-0.9839441 -0.5277449 -0.2127869 -0.1020735 0.03411001 -0.9941919 2499883 female
-0.983331 0.3794722 -0.1411231 0.7036101 -0.06407844 0.7076911 14213617 female
-0.5919912 0.5499336 -0.2541457 0.8512952 0.3897449 -0.3512766 14608367 female
-0.630124 0.02236699 -0.1096722 0.8626262 0.05729355 0.5025868 1973536 female
-1.004458 0.1472608 0.1092792 -0.3773896 -0.9209782 0.09683088 6771534 female
-0.8777912 0.06769729 -0.03974656 0.3088233 0.2073661 0.9282389 2434601 female
-0.9080787 -0.2696339 -0.1217952 0.9038255 -0.2408147 -0.3537057 1973278 female
-0.6700992 -0.5620611 -0.1945832 0.01184 -0.04281492 0.9990129 2171937 female
-0.9748611 0.3964633 -0.1476176 0.8041929 -0.1165732 0.5828246 13224148 female
-0.9393765 0.4224749 -0.1380445 -0.8555299 -0.3516035 0.3800574 14082023 female
-1.075328 0.2417612 -0.0605416 -0.9861601 0.09860118 0.1332893 14474476 female
-0.7290313 0.3420193 -0.07686373 0.6315041 0.1447842 0.761735 15200255 female
-0.944363 0.4078788 -0.167901 -0.9629314 -0.2079209 0.1718491 3553086 female
-0.6280953 0.3675824 -0.2071408 -0.2881137 -0.04204783 0.9566726 7829371 female
-0.7234945 0.2434032 -0.06000692 0.591899 0.1377755 0.7941495 13620456 female
-0.7152035 0.2399014 -0.2804015 0.2750994 0.3277149 -0.9038381 5327965 female
-0.7306231 0.8769806 -0.2599695 0.8124462 0.4262683 -0.3977771 2631463 female
-0.7181939 0.4966804 -0.0788369 0.1663938 0.4883846 0.8566175 15593213 female
-0.5912992 0.2533331 -0.2415452 0.2865434 -0.55269 -0.782577 12237763 female
-0.6261081 -0.420101 -0.2389528 0.9410051 -0.03818537 -0.3362309 1579808 female
-0.9736803 -0.03774962 -0.1900111 -0.5704009 -0.2281851 -0.7890338 2631470 female
-0.9065103 -0.2022239 -0.1478449 0.6121742 -0.133866 -0.7793092 2171688 female
-0.6411044 -0.6751702 -0.2225281 0.9419759 0.1638891 -0.2929535 13087919 female
-0.827656 0.8288981 -0.3081001 -0.348051 -0.09979395 -0.9321489 14338761 female
-0.7251939 0.7650846 -0.2248 0.8734034 -0.4867294 -0.01615877 15189691 female
-0.9128814 0.6563136 -0.2438619 -0.5235133 0.7836036 -0.3345135 11582152 female
-0.9612455 0.1897178 -0.09820483 -0.7395121 0.2108178 0.639279 13687008 female
-0.7817711 0.5977289 -0.3101432 -0.2410351 0.2357212 -0.941455 13094624 female
-0.6298288 -0.1806441 -0.1397144 0.9524015 -0.09961083 0.2881128 2105377 female
-0.7954316 0.3481986 -0.05353162 0.09344018 0.2255479 0.9697407 15067640 female
-0.8645354 0.05971016 -0.2811877 -0.009418821 -0.4869508 -0.8733786 2566703 female
-0.750537 0.2362376 -0.04277562 0.393371 0.1265738 0.9106253 12502226 female
-1.020661 0.5702364 -0.1827597 -0.8428296 0.5348063 -0.06017159 4934995 female
-0.9259636 0.4172423 -0.1202177 -0.7590869 -0.3975112 0.5155306 9672086 female
-0.715966 0.2869307 -0.2718531 0.3620331 -0.02415432 -0.9318522 13488354 female
-0.7890392 -0.06556799 -0.1603899 -0.9675567 -0.2471554 0.05242278 2433573 female
-0.6171202 -0.03681317 -0.1880821 0.9658627 -0.1210587 -0.2290285 2105122 female
-0.6535801 0.6118687 -0.2120555 0.2127394 0.8163379 0.5369679 13422293 female
-0.8667036 0.1089702 -0.05025926 0.1435005 0.08789114 0.9857397 2566703 female
-0.7393529 0.7732918 -0.2478874 0.7963685 -0.4670288 -0.3842933 2499619 female
-0.6492693 0.4524134 -0.1815211 0.9847206 -0.1635502 0.05980381 6973546 female
-0.9402897 -0.2887348 -0.1581968 0.5896249 0.3028394 -0.7487528 2697257 female
-1.014005 0.5397768 -0.222598 -0.6241075 0.175256 -0.7614297 14080999 female
-0.8418037 0.7231026 -0.2412926 -0.8632556 0.08445996 -0.4976508 5984074 female
-0.9368431 -0.1105992 -0.02481642 0.01228272 -0.1005883 0.9948523 2171944 female
-0.6605759 0.599646 -0.1964581 0.1938355 0.6534813 0.7317035 16251135 female
-0.7740341 0.53117 -0.09694073 0.09508377 0.6661944 0.7396919 14278121 female
-0.9064332 -0.04405008 -0.2054594 0.09086288 -0.3311148 -0.9392055 2500651 female
-0.7727364 0.8349266 -0.1221957 0.5260235 -0.1343499 0.8397913 16378333 female
-0.726178 -0.1928004 -0.1102128 -0.5966981 -0.2506874 0.7623039 2170913 female
-0.9025378 0.413671 -0.271956 -0.5235007 -0.3271837 -0.7867005 2698546 female
-0.9537655 -0.01316176 -0.02739079 -0.3965051 0.07747759 0.9147573 2368809 female
-0.6373547 -0.2734617 -0.1458431 0.880439 -0.1508663 0.4495182 2039075 female
-1.00306 -0.1200101 -0.1422703 -0.9176146 -0.04017603 -0.3954358 2170145 female
-0.7335268 0.4037726 -0.09028329 0.481235 0.1243917 0.8677208 15200255 female
-0.6740596 0.3229516 -0.139647 0.8618767 0.171204 0.4773445 6183780 female
-0.997613 -0.2810775 -0.1649699 -0.3789125 0.4251426 -0.821997 2303275 female
-0.703927 -0.1992617 -0.1000481 -0.2874077 -0.2355096 0.9284029 2170401 female
-0.7578423 0.1681973 -0.04402809 0.41064 -0.2114649 0.886937 15133177 female
-0.9430137 -0.2160017 -0.1532713 0.08795507 -0.06790007 -0.9938076 2565419 female
-0.9841853 -0.6918215 -0.1765214 0.09466221 -0.9942654 -0.04975458 723467 female
-0.8998957 -0.2335427 -0.08148889 0.8690579 -0.2907554 0.4002495 1973534 female
-0.9650878 0.07109644 -0.2425112 -0.7105873 -0.1580512 -0.6856278 2697257 female
-1.063078 0.1207164 0.02097061 -0.4677668 -0.530596 -0.7068678 15200255 female
-0.9232212 -0.004607668 -0.2222187 -0.1250057 -0.4531895 -0.8826057 2763826 female
-1.000648 -0.6344606 -0.2161472 -0.7988327 0.3054161 -0.518254 2697257 female
-0.6162084 0.200976 -0.1347922 -0.8382236 0.2588547 0.4799744 11381437 female
-0.6931337 -0.08521196 -0.0740037 0.0338982 -0.1813837 0.982828 2171944 female
-1.053196 0.2738508 -0.056124 -0.206025 0.6270379 0.7512504 14872823 female
-0.6516467 0.480564 -0.2112364 0.9773944 -0.1913554 0.0899073 14079966 female
-1.025957 0.3717525 -0.1292392 -0.1463705 0.240875 0.9594555 14740469 female
-0.9776607 -0.3964035 -0.09647801 0.1364137 -0.2891128 0.9475257 2169889 female
-0.9750342 -0.3076224 -0.1837386 0.05013405 0.3818279 -0.9228727 2697516 female
-0.9281748 0.3880703 -0.239301 -0.8356679 -0.1258242 -0.5346283 6710377 female
-0.768187 -0.1238956 -0.1944982 -0.9153761 -0.2056517 -0.3461127 1972766 female
-0.614808 0.06492937 -0.164731 0.9897375 0.08402827 0.1155805 1908257 female
-0.7626117 0.833411 -0.3040878 0.4862813 -0.0399803 -0.8728872 2696225 female
-0.6071118 0.06495282 -0.03156767 -0.9164006 -0.2849131 -0.2811309 7563873 female
-0.8668633 -0.02431069 -0.2035793 0.4492946 -0.3991285 -0.7992689 2697257 female
-0.8687398 0.0985982 -0.2946956 -0.08658635 -0.1870812 -0.978521 5263457 female
-0.9852116 -0.1699891 -0.04157216 -0.6353353 -0.04163336 0.7711133 2170657 female
-0.9535086 0.2715098 -0.2025111 -0.8317508 0.4376189 -0.341585 9607587 female
-0.763635 -0.1497229 -0.189475 -0.9469307 -0.1626771 -0.2772335 2170913 female
-0.6652184 0.2897695 -0.2220257 0.9089186 0.07585409 -0.4100161 14082023 female
-0.7328284 -0.3360229 -0.2214234 -0.9505802 0.1370559 -0.2785907 2039329 female
-0.7711287 0.4831783 -0.07242831 0.03569185 0.1968162 0.9797905 15396603 female
-0.8386698 -0.05190556 -0.1083268 0.9514481 -0.2943257 0.09010499 2499627 female
-0.9511053 0.628697 -0.1772929 -0.1494155 0.8975586 0.4148056 12894660 female
-0.6248184 -0.0634462 -0.1175027 0.9146296 -0.08012719 0.3962729 1973537 female
-0.6446378 -0.6617905 -0.2325986 0.9517971 0.05861233 -0.3010762 2105376 female
-1.01193 -0.564127 -0.1772695 -0.9932585 -0.1030468 -0.05309254 1579291 female
-0.6783779 0.6043692 -0.192926 0.3092209 0.6203166 0.7208258 10264740 female
-0.9425876 -0.2215628 -0.1523156 0.1084685 -0.06600109 -0.9919065 2500140 female
-1.017006 0.2401604 -0.1147679 0.647444 -0.6509763 -0.3962904 13816027 female
-0.5865501 0.4694384 -0.2582911 0.9706642 0.02512857 -0.2391224 7171191 female
-1.009746 -0.6522304 -0.1285253 -0.667471 0.679915 0.3036414 15785175 female
-0.759132 -0.1959723 -0.166173 -0.9865718 -0.1110133 0.1198004 1579291 female
-0.6833197 -0.001085106 -0.06488311 0.2760192 -0.00892243 0.9611107 2499878 female
-0.7194692 0.4278554 -0.3059366 0.2904127 -0.3596359 -0.8867483 9606042 female
-0.7968829 0.771406 -0.1098293 -0.3721199 0.2249652 0.9005096 14995651 female
-0.739893 0.1986284 -0.2989585 0.08571148 0.2796971 -0.9562547 15200255 female
-1.027246 -0.6813764 -0.1674408 -0.9299062 0.007240419 -0.3677253 11573650 female
-0.7568561 0.6434069 -0.1851375 0.614862 0.3067656 0.7265257 13751003 female
-0.6169733 0.5813572 -0.2659561 0.6317868 0.5091223 -0.5844998 15856379 female
-0.8959998 -0.03312617 -0.2089708 0.1682901 -0.3624962 -0.9166651 2105124 female
-0.6907636 0.5852553 -0.3145803 0.3248504 0.258452 -0.9097663 16185343 female
-0.8074229 0.769421 -0.1143657 -0.3600906 0.01463718 0.9328025 15324358 female
-0.8472949 -0.009195281 -0.05844162 0.7311352 -0.1628009 0.6625233 2170913 female
-0.6568341 -0.5558126 -0.259564 0.6682472 -0.1470491 -0.7292615 1973281 female
-0.8924444 0.5249345 -0.08317105 -0.3063512 0.5903841 0.7467233 5724514 female
-0.9066535 -0.2306264 -0.1385909 0.693565 -0.1633939 -0.7016196 2236967 female
-0.7829514 0.2979885 -0.04864016 0.1605552 0.1397396 0.9770849 7434876 female
-0.6367319 0.1159833 -0.0114435 -0.3750466 0.9015081 0.215924 16773092 female
-0.9529718 0.4930191 -0.1576902 0.8186488 -0.3192784 0.477363 9277338 female
-0.7410069 0.2500169 -0.05043526 0.4632566 0.158411 0.8719515 5130576 female
-0.6667301 0.5318068 -0.1615445 0.7278287 0.1092631 0.6769986 9343641 female
-0.9662762 -0.6823487 -0.09653667 0.9535616 0.2374859 0.1852585 10850699 female
-0.7532709 0.4497193 -0.3185857 -0.0008273543 -0.2622815 -0.9649911 15462391 female
-0.7701756 0.5423808 -0.1100798 0.02677041 0.6479173 0.7612401 9145496 female
-0.7052693 0.5470498 -0.1293023 0.3636231 0.6177329 0.6972691 15724543 female
-0.7669603 -0.05275512 -0.2256454 -0.6367305 -0.2402091 -0.7327167 2237481 female
-0.8151982 0.5075605 -0.3144233 -0.2334573 0.271 -0.9338397 15396607 female
-0.6497174 -0.5795583 -0.2070173 0.7920092 -0.105992 0.601238 2434085 female
-0.7513748 0.7167675 -0.1983663 0.9331349 -0.2535799 0.2548655 12429467 female
-0.6481428 -0.4978919 -0.1905617 0.548271 -0.1844113 0.8157153 2171428 female
-0.7290958 0.2732749 -0.06332923 0.5699981 0.1762124 0.802528 14342371 female
-0.6835615 0.5956754 -0.1829148 0.3221419 0.5645136 0.7599664 10987956 female
-0.7881017 -0.03324227 -0.1189144 -0.9034458 -0.2159638 0.3703314 1579295 female
-0.7291594 0.03515045 -0.2864124 0.07011858 -0.5652716 -0.8219194 2171945 female
-0.6197863 -0.005471388 -0.1298418 0.9464776 -0.009769005 0.3226216 1973537 female
-0.6356272 0.2751366 -0.2052569 -0.8836692 0.1375033 0.4474612 9147032 female
-0.720965 0.8725366 -0.2345915 0.9228275 0.3491457 -0.1627474 2039327 female
-0.6331835 0.4491962 -0.296494 0.0797419 -0.08384608 -0.9932829 6710639 female
-0.9278084 0.3001112 -0.1064983 -0.7534218 0.2384809 0.6127661 14146793 female
-0.9676651 -0.2925733 -0.05699282 0.04011558 -0.5282541 0.8481382 2630696 female
-1.039217 -0.6833915 -0.1000408 -0.5178003 0.8533716 0.0603307 15452612 female
-0.6507679 0.1186524 -0.1061757 0.6966813 0.2305298 0.6793315 15330809 female
-0.5892251 0.01566574 -0.0648652 -0.1887305 -0.2411896 -0.9519498 8877940 female
-0.6012119 0.5756518 -0.2450205 0.7820581 0.5808507 -0.2258266 13883363 female
-0.9577622 -0.5782335 -0.1962319 0.9552423 -0.1033917 -0.2771683 2039327 female
-0.6636831 -0.3793356 -0.1605615 0.1476487 -0.1897139 0.9706742 2170403 female
-0.9230756 0.4077074 -0.1212528 -0.7865745 -0.2594931 0.5603248 14343396 female
-0.7771711 0.6206651 -0.1598343 0.1789464 0.5347313 0.8258575 15263984 female
-1.005634 -0.6158476 -0.1572205 -0.8973215 0.1420363 0.4178992 2499878 female
-0.9830129 0.6131369 -0.2059587 -0.7086744 0.66658 -0.2311962 11711421 female
-0.7994737 0.2501562 -0.2811357 -0.1063816 0.3104059 -0.9446328 13948650 female
-0.6216764 0.5759535 -0.1942651 0.4056565 0.344847 0.846477 8947088 female
-1.023079 0.4071922 -0.2121778 -0.5437605 -0.09189665 -0.8341939 5589847 female
-0.925998 -0.4297097 -0.160193 0.9825364 -0.184969 -0.02021777 1842720 female
-0.937894 -0.01934712 -0.2126916 -0.2299334 -0.3616112 -0.9035308 2763826 female
-0.7459189 0.5323888 -0.1022373 0.1145588 0.6490197 0.752097 15659774 female
-0.6504757 -0.6198598 -0.2071637 0.8811023 0.0816285 0.4658279 2829616 female
-0.6667678 -0.06206328 -0.2397838 0.3854881 -0.1382989 -0.9122896 2303275 female
-1.053323 -0.6960098 -0.06138783 -0.5741364 0.2844737 0.7677513 722955 female
-0.9005467 0.3493098 -0.2575867 -0.569253 -0.1837996 -0.8013543 10330288 female
-1.007028 -0.6684756 -0.09593992 -0.3632028 0.8574541 0.3644945 15452607 female
-0.6800219 -0.09601335 -0.2417511 0.2337383 -0.06009856 -0.9704404 2171945 female
-0.6460236 -0.3277454 -0.1559536 0.6126529 -0.1785977 0.7699087 1777187 female
