# .PCD v0.7 - Point Cloud Data file format
VERSION 0.7
FIELDS x y z normal_x normal_y normal_z rgb label
SIZE 4 4 4 4 4 4 4 4
TYPE F F F F F F U U
COUNT 1 1 1 1 1 1 1 1
WIDTH 170
HEIGHT 1
VIEWPOINT 0 0 0 1 0 0 0
POINTS 170
DATA ascii
-0.8677292 0.1479643 0.7890755 -0.6850308 0.06301241 -0.7257839 14936567 female
-0.5923575 0.1623206 0.7807597 0.6369053 0.06776904 -0.7679577 9803174 female
-0.8685817 -0.4317413 0.9188672 0.3247882 -0.2595433 0.9094778 2170913 female
-0.603084 0.121492 1.062226 -0.7395251 -0.6252272 -0.2493865 7957096 female
-0.5936759 -0.576651 0.8353324 0.7812766 -0.1930857 0.5935695 2171172 female
-0.587908 -0.2014263 0.9519067 0.5909643 -0.223807 0.7750301 2170145 female
-0.8624722 0.3106771 0.8506155 -0.9436238 0.1536451 -0.2932019 14080990 female
-0.922021 -0.7188467 0.9347624 0.012661 -0.997449 -0.07025146 855565 female
-0.8469049 -0.521582 0.8658054 0.9511551 -0.2160668 0.2204974 1841948 female
-0.9189975 0.2077312 1.007555 0.8277351 -0.526985 -0.1927211 8092802 female
-0.9433941 0.4811308 0.850082 -0.9875028 0.06129375 -0.1451944 10133932 female
-0.8613632 0.2940509 0.8422971 -0.889947 0.2181091 -0.400528 5460053 female
-0.9044804 -0.4744127 0.823575 -0.403866 -0.02968421 -0.9143364 1973537 female
-0.8897187 0.3802624 0.8978329 0.6986133 -0.0176507 0.7152817 15133945 female
-0.5002738 0.5126238 0.8113884 0.8519624 0.1364716 -0.5055053 15066613 female
-0.5590128 0.01400187 0.9601282 0.8111729 0.00918738 0.5847342 1973536 female
-0.8845134 0.1895078 1.175978 -0.7413891 -0.4238096 0.5203149 10981002 female
-0.8045934 0.06020228 1.006793 0.241353 0.1745961 0.9546019 2434601 female
-0.8100611 -0.2420189 0.9483071 0.8393933 -0.2811359 0.4651682 2105120 female
-0.6259198 -0.5883538 0.8443831 -0.3966305 0.04625386 0.9168123 2631471 female
-0.8997214 0.421141 0.9063629 0.2888977 0.07335407 0.9545456 13288397 female
-0.8653318 0.4556741 0.9183735 -0.955066 -0.1605708 0.2491305 14213609 female
-0.9630753 0.2219904 1.003566 -0.917326 -0.3735842 -0.1376514 13028569 female
-0.6577329 0.3411998 0.9834156 0.553186 0.1526612 0.8189504 15200255 female
-0.8685246 0.440149 0.8900445 -0.9556264 -0.2297251 0.1844036 14344938 female
-0.5382425 0.3596266 0.8817558 -0.1667165 0.05906711 0.984234 14147815 female
-0.6532361 0.2418951 1.002304 0.5150578 0.1439489 0.8449818 13620456 female
-0.6397604 0.2194416 0.7714169 0.2154964 0.3051193 -0.9276117 11844804 female
-0.6290814 0.8730451 0.8061327 0.8642892 0.4074656 -0.2949168 2631463 female
-0.710761 0.4090113 0.9786009 0.08993366 0.2399363 0.966614 15200255 female
-0.4907752 0.2745534 0.8849228 0.9883075 -0.1439694 -0.05021091 10528688 female
-0.570909 -0.4849029 0.8311167 0.9675909 -0.1896614 0.1667222 1908257 female
-0.8702191 -0.04309362 0.839048 -0.3334485 -0.2264773 -0.9151613 2105896 female
-0.8156636 -0.2049753 0.8790289 0.6026185 -0.08422398 -0.7935724 2171944 female
-0.5895348 -0.6772392 0.8165335 0.9660255 0.1458806 -0.2133392 13087919 female
-0.7328084 0.864291 0.7574083 -0.4878897 0.3382724 -0.8046958 9473672 female
-0.6327211 0.7595989 0.8407182 -0.1399363 -0.9050225 -0.4016866 16175813 female
-0.8237674 0.6494308 0.7904388 -0.4637446 0.7061732 -0.5350331 12437462 female
-0.8888946 0.1558554 0.9519675 -0.7417781 0.2622151 0.6172588 6580853 female
-0.6799729 0.6172791 0.7521191 -0.04474693 0.2581484 -0.9650685 14937851 female
-0.5867698 -0.1739332 0.9571673 0.5917128 -0.2309062 0.7723719 1974050 female
-0.7259371 0.3483547 1.000056 -0.001583892 0.241107 0.9704973 15067640 female
-0.7862021 0.08211084 0.7579526 -0.03986692 -0.2787815 -0.9595268 2960949 female
-0.6821725 0.2213156 1.018715 0.3057745 0.04254862 0.9511527 15002619 female
-0.9328283 0.5717769 0.8521674 -0.844796 0.5240717 -0.1080212 4934995 female
-0.8611619 0.3569227 0.8775704 -0.9978834 0.02245229 0.06102984 15001844 female
-0.6543883 0.2669415 0.7825837 0.1747019 0.1160544 -0.977758 15200255 female
-0.7164535 -0.06547789 0.8922738 -0.9785461 -0.2004933 -0.04743493 2433573 female
-0.5414044 -0.04455694 0.8820859 0.97703 -0.1628412 -0.1374595 2105122 female
-0.5572382 0.6065078 0.8605956 0.214558 0.8358781 0.5052452 12699337 female
-0.845755 0.1768669 0.979763 -0.508114 0.01721077 0.8611178 14607351 female
-0.6617203 0.7205482 0.8183897 0.83952 -0.1474355 -0.5229425 4866113 female
-0.5647038 0.4505029 0.8621789 0.9829587 -0.1559185 0.09737307 13816538 female
-0.8456524 -0.298863 0.8670551 0.6050707 0.2993947 -0.7377345 2697257 female
-0.8933123 0.5243598 0.7985117 -0.1772759 -0.1704486 -0.9692886 11053749 female
-0.7504597 0.7135104 0.8135168 -0.8183138 0.217107 -0.5321907 10981510 female
-0.8546017 -0.1214248 1.00798 -0.04063986 -0.1506939 0.9877448 2171944 female
-0.5613682 0.5975765 0.8740845 0.1102192 0.6810807 0.7238652 15330803 female
-0.6831419 0.5299184 0.9556631 0.003786494 0.6486065 0.7611146 15660798 female
-0.8483045 0.0122186 0.8109816 -0.2267835 -0.5061567 -0.8320905 3157808 female
-0.7003972 0.8189412 0.9417551 -0.5053241 0.4617757 0.7289793 14600122 female
-0.6654908 -0.1969505 0.9456379 -0.6792039 -0.2380836 0.694261 2170913 female
-0.7891604 0.3992407 0.7647345 -0.2922302 -0.280034 -0.9144301 15198199 female
-0.8759872 -0.02488014 1.009454 -0.4523066 0.0128588 0.8917698 2368809 female
-0.5775008 -0.2812771 0.9163088 0.8292183 -0.2099042 0.5180129 2039075 female
-0.8978285 -0.01160049 0.8458443 -0.6554617 -0.2535613 -0.7113907 2500907 female
-0.6480662 0.3953838 0.9635553 0.5157542 0.1600545 0.8416533 15724543 female
-0.5967679 0.32102 0.926931 0.8114798 0.1759907 0.5572501 6183780 female
-0.9029084 -0.2923519 0.8586253 -0.3604979 0.403942 -0.8407569 2303275 female
-0.6446506 -0.2048112 0.9577636 -0.387383 -0.242953 0.8893302 2170401 female
-0.690761 0.1738637 1.017113 0.2960279 -0.1996736 0.934076 4606287 female
-0.8356639 -0.2638147 0.8799641 0.4038421 -0.02719289 -0.9144245 2631471 female
-0.8823274 -0.7034243 0.8695387 0.2091259 -0.9777499 0.01647714 986381 female
-0.8084866 -0.2403647 0.9459309 0.859296 -0.2717656 0.4333058 1973534 female
-0.877486 0.0693562 0.7978114 -0.6496381 -0.1525621 -0.7447785 2697257 female
-0.9534118 0.1815577 1.096569 -0.9183767 0.1521005 0.3653076 13885410 female
-0.848447 7.366203E-05 0.818007 -0.1815533 -0.4350077 -0.8819335 2566447 female
-0.9139154 -0.6821365 0.8192002 -0.914533 0.02655507 -0.4036389 14269620 female
-0.5627408 0.2090547 0.9773109 -0.7443615 0.5361887 0.3980298 14607604 female
-0.6309216 -0.0914719 0.9868027 -0.07219601 -0.2007819 0.976972 2171944 female
-0.9421308 0.2815907 0.9950933 -0.01633616 0.7260739 0.6874227 10396585 female
-0.5641783 0.4717602 0.8383878 0.9346814 -0.3181908 0.1585093 13026505 female
-0.9423783 0.3904558 0.9019426 -0.5579126 0.2922284 0.776747 14016221 female
-0.8837233 -0.4060907 0.9314567 0.1178449 -0.2599941 0.9583922 2169889 female
-0.8797905 -0.3193987 0.8412984 0.06921916 0.3603519 -0.9302447 2697516 female
-0.8286774 0.367126 0.7936651 -0.6516838 -0.2375976 -0.7203164 7764347 female
-0.6949368 -0.1654488 0.8818438 -0.9878629 -0.1031522 -0.1161314 1841436 female
-0.5363806 0.05792454 0.907769 0.9764221 0.04551488 0.2110172 1908257 female
-0.6531371 0.8217755 0.7620119 0.6408955 -0.1302629 -0.7564949 3420972 female
-0.609901 0.0616761 1.141496 0.7111027 -0.696153 -0.09850864 16112859 female
-0.7812237 -0.04990505 0.8509817 0.580238 -0.3087979 -0.7536364 2498854 female
-0.7468141 0.07997944 0.7636584 0.007033516 -0.3458458 -0.938265 2171687 female
-0.8986989 -0.1812076 0.9848979 -0.6724122 -0.09873756 0.7335617 2170657 female
-0.8362934 0.2708724 0.8040663 -0.5309122 0.2918238 -0.7955948 14082292 female
-0.6928415 -0.1501711 0.8640799 -0.9222788 -0.1092945 -0.3707515 2170913 female
-0.57788 0.2777055 0.8521758 0.9490906 0.1529459 -0.2753808 4343106 female
-0.6737757 -0.3670781 0.835239 -0.9981001 0.06127706 0.006433314 1776161 female
-0.7264922 0.4768813 0.9846053 0.1589812 0.1263088 0.9791685 15462395 female
-0.7420312 0.01376337 0.8791741 0.9278326 -0.2967812 -0.2259371 1645342 female
-0.8584043 0.6409648 0.8314828 -0.4767373 0.8780828 0.04113661 13749452 female
-0.5576018 -0.07244711 0.9508492 0.8664799 -0.1337552 0.4809597 1973537 female
-0.5919823 -0.6634764 0.8067604 0.9740191 0.03950308 -0.2229938 2105376 female
-0.9144343 -0.5764546 0.8553865 -0.9910897 -0.1135927 -0.06955501 1579291 female
-0.5309527 0.59807 0.8374946 0.6400183 0.7682644 -0.01209679 9013393 female
-0.8390534 -0.2602764 0.8789525 0.3591697 -0.02751132 -0.9328667 2698289 female
-0.9141031 0.2202007 0.9994568 0.9415417 -0.3324341 -0.05465249 7171699 female
-0.5254342 0.5240227 0.8832839 0.3282999 0.05093833 0.943199 8157824 female
-0.9101895 -0.6652607 0.9157487 -0.5974935 0.7392815 0.3105871 16311770 female
-0.6930448 -0.1971654 0.8868773 -0.9976687 -0.06430916 0.02283547 1579291 female
-0.6553579 0.00394819 0.9976694 -0.2025993 -0.03547871 0.9786188 2171945 female
-0.62397 0.4239838 0.7555345 0.3781258 -0.3669655 -0.849916 9606042 female
-0.6937971 0.7492336 0.9461493 0.4528836 -0.04290491 0.8905367 13148065 female
-0.6474973 0.1963192 0.7624319 0.1734533 0.2794487 -0.9443635 15200255 female
-0.8932599 -0.7070444 0.8874502 0.1511158 -0.9858624 -0.07238344 722698 female
-0.6700876 0.6399971 0.8731678 0.5311004 0.2892414 0.7964119 13751003 female
-0.5176852 0.575518 0.8202534 0.7391077 0.5325166 -0.4124874 8817816 female
-0.8193114 -0.04681681 0.8349063 0.154655 -0.2782401 -0.947979 2500652 female
-0.5777695 0.5554083 0.7551896 0.5037487 0.0155332 -0.8637106 11186367 female
-0.73203 0.7658795 0.9370189 -0.3807898 -0.08852253 0.9204145 16311508 female
-0.7688956 -0.01485021 0.9860978 0.6966684 -0.1664421 0.6978182 2170913 female
-0.5932467 -0.6114889 0.805114 0.9793148 -0.05107577 -0.19579 1776155 female
-0.8332981 0.5221964 0.9484589 -0.5537949 0.482838 0.6783647 8684427 female
-0.8115756 -0.2499975 0.8941757 0.8071494 -0.1965246 -0.556676 2105124 female
-0.6936798 0.2954707 1.006521 0.1917797 0.1696517 0.9666637 6316394 female
-0.6253609 0.138372 1.114849 0.4565987 0.8500711 0.2624819 15588043 female
-0.866308 0.505467 0.8886589 0.6830353 -0.2994173 0.6661922 15725559 female
-0.6716475 0.2487478 1.010171 0.379909 0.1659085 0.9100239 5130576 female
-0.592495 0.5305713 0.9141165 0.6016806 0.2685302 0.7522447 7961988 female
-0.8695208 -0.7096315 0.9603168 0.9455278 -0.3171717 0.07334393 6706519 female
-0.655785 0.4464055 0.7393748 0.09931644 -0.2650593 -0.9591037 15462391 female
-0.7090456 0.5366635 0.9471191 0.04537851 0.676798 0.7347688 3880764 female
-0.6295043 0.5350589 0.9417274 0.2777502 0.6265103 0.7282443 12171461 female
-0.6999943 -0.01908228 0.8301024 -0.6559106 -0.2633896 -0.7073948 2302243 female
-0.7165084 0.4912093 0.7333317 -0.09124258 0.04190449 -0.9949467 15526648 female
-0.5984902 -0.5938368 0.8359547 0.7373347 -0.1247474 0.6639094 1907998 female
-0.6622595 0.6982592 0.8608027 0.8769788 -0.1546968 0.4549474 14993595 female
-0.6103774 -0.4657397 0.8715886 -0.0144822 -0.2609934 0.965232 2105379 female
-0.6575083 0.2527044 1.002323 0.4897452 0.1674843 0.8556276 12895958 female
-0.5305572 0.5936617 0.8590464 0.5298334 0.7399297 0.4144641 5724511 female
-0.7202054 -0.02529608 0.9299459 -0.9609116 -0.1522807 0.2312128 1907741 female
-0.6487854 0.0451137 0.7675832 0.1060315 -0.4533952 -0.8849803 2368300 female
-0.5481831 -0.01407142 0.9405054 0.9091626 -0.05978738 0.4121271 1973537 female
-0.5688505 0.2502066 0.8938848 -0.9980012 -0.02028396 -0.05985114 12700120 female
-0.6200447 0.8556246 0.8486792 0.9848459 0.1386614 0.1041715 2368292 female
-0.5438946 0.4263715 0.7863962 0.09077336 -0.1640689 -0.9822634 14276065 female
-0.8448891 0.315096 0.9397227 -0.7661149 0.2254332 0.6018703 9079702 female
-0.8758515 -0.3015316 0.9677365 0.02197445 -0.5157777 0.8564406 2630696 female
-0.9602671 -0.7030914 0.9653619 -0.976975 0.2131547 0.009214221 2038037 female
-0.5759553 0.1126145 0.9634445 0.6354377 0.1993158 0.745984 15330809 female
-0.5757498 0.03725182 1.063176 -0.980581 0.1284494 -0.1481947 16705245 female
-0.5078453 0.5664961 0.851536 0.8211111 0.5162193 0.243504 12370377 female
-0.861829 -0.609929 0.8400612 0.9664779 -0.03334988 -0.2545744 1908771 female
-0.6065115 -0.3850903 0.8933814 0.0539596 -0.2473522 0.9674219 2170403 female
-0.8593709 0.3857018 0.8846565 -0.9804166 0.0002852798 0.1969344 11581116 female
-0.6934422 0.6177225 0.8959014 0.09341995 0.5271705 0.8446088 15263984 female
-0.9027136 -0.6313386 0.8858389 -0.7980585 0.2755407 0.5358918 2236968 female
-0.9099905 0.6055137 0.8507641 -0.6839311 0.7243788 -0.08668114 14607335 female
-0.6958746 0.2676923 0.7804767 -0.05827113 0.1911673 -0.9798262 15201279 female
-0.5358276 0.5462009 0.8868572 0.1849928 0.1441189 0.9721149 8355208 female
-0.9149812 0.3941775 0.8233323 -0.1564039 -0.2594997 -0.9529941 12897242 female
-0.8302553 -0.4406394 0.8698746 0.9847538 -0.1738111 0.007037729 1842720 female
-0.8718402 0.03475041 0.8096091 -0.514068 -0.3871809 -0.7653921 2631465 female
-0.6543133 0.5300131 0.9530129 0.1172096 0.6485308 0.7521102 12765138 female
-0.5851795 -0.5428682 0.8026674 0.9146398 -0.1856747 -0.3591085 1579035 female
-0.5868567 -0.06652763 0.8253044 0.4667749 -0.140754 -0.8731033 2303275 female
-0.9513215 -0.6966588 0.9456235 -0.5205422 0.8537108 -0.01462027 16309463 female
-0.7742958 0.2488958 0.7783952 -0.08426834 0.287872 -0.9539542 14278895 female
-0.8962368 -0.6640098 0.928138 -0.1779541 0.861596 0.4753784 16443357 female
-0.6031151 -0.1258021 0.8214573 0.3114263 -0.0581736 -0.948488 2171945 female
-0.5873793 -0.3346235 0.9025496 0.5345606 -0.2442232 0.8090735 1777187 female
