# .PCD v0.7 - Point Cloud Data file format
VERSION 0.7
FIELDS x y z normal_x normal_y normal_z rgb label
SIZE 4 4 4 4 4 4 4 4
TYPE F F F F F F U U
COUNT 1 1 1 1 1 1 1 1
WIDTH 170
HEIGHT 1
VIEWPOINT 0 0 0 1 0 0 0
POINTS 170
DATA ascii
-0.8706037 0.1365883 0.8334772 -0.8081566 0.09356315 -0.5814884 8618891 female
-0.5504327 0.1564268 0.8406969 0.8237536 0.06180893 -0.5635687 11121347 female
-0.8855764 -0.4694565 0.9145326 -0.3852225 -0.234076 0.8926433 2171174 female
-0.5572425 0.1045848 1.067206 -0.9233406 -0.2077036 -0.3229572 13285294 female
-0.5411882 -0.5516299 0.8848566 0.7993449 -0.1724985 0.5755798 2171937 female
-0.6411363 -0.1925892 0.9757055 -0.7258511 -0.2599989 0.6368208 2170913 female
-0.8026507 0.370775 0.8057402 -0.4980464 -0.2703792 -0.8239204 15199223 female
-0.9226469 -0.7206384 0.9575616 -0.09767224 -0.9943476 0.04162955 526344 female
-0.8306379 -0.168368 1.004344 0.1948312 -0.2200476 0.9558346 2039072 female
-0.9422681 0.2241884 0.9307219 0.2907547 -0.7774275 -0.5577348 10921901 female
-0.9379554 0.483169 0.8607612 -0.9925571 0.1217047 0.004277088 7829376 female
-0.8694166 0.2565435 0.9219061 -0.9014521 0.3896842 0.1884948 13753065 female
-0.8858473 -0.4744223 0.8289866 -0.4952148 -0.06386809 -0.8664197 2170401 female
-0.9175997 0.3755279 0.9100068 0.0522151 0.09999185 0.9936172 8224648 female
-0.4856344 0.5203968 0.8475577 0.9261979 0.1918337 -0.3245878 15262960 female
-0.5387356 -0.01166442 0.993563 0.811085 -0.02251132 0.5844949 1973536 female
-0.9341165 0.1467024 1.153223 0.02080821 -0.9946375 0.1013078 7363671 female
-0.8643395 0.03294173 1.013285 -0.5519258 0.116318 0.8257409 2500651 female
-0.7907797 -0.2595461 0.9359417 0.9000289 -0.2981963 0.3178471 2169889 female
-0.5718739 -0.6133075 0.8976461 0.02667971 0.2293122 0.9729872 2499110 female
-0.8822999 0.3991581 0.8958941 0.7031584 -0.09237926 0.7050066 13224148 female
-0.8526221 0.4291397 0.9228371 -0.9012946 -0.3459174 0.2607856 10987703 female
-0.9883193 0.209203 0.9788799 -0.8911557 -0.3003691 -0.3400294 13028569 female
-0.5856981 0.3477686 0.9537001 0.8059307 0.1600155 0.5699742 3420469 female
-0.8485587 0.3780122 0.8722985 -0.9833456 -0.06152658 -0.1710141 15001836 female
-0.5202117 0.3954453 0.9074265 -0.04794662 0.05188599 0.9975013 15725047 female
-0.6388256 0.270017 1.023218 0.505446 0.1979325 0.8398494 6184287 female
-0.5958596 0.2275844 0.8147194 0.4387626 0.3282834 -0.8364912 6514804 female
-0.6235227 0.8742481 0.8097237 0.8750036 0.4039483 -0.2668232 2631463 female
-0.7137876 0.4055255 1.009512 -0.01300182 0.3560297 0.9343842 6184292 female
-0.4902533 0.2515469 0.8750892 0.3585416 -0.5321689 -0.7669708 11909053 female
-0.5216302 -0.4374645 0.8610291 0.9848716 -0.07449068 -0.156458 1579553 female
-0.8440813 -0.04112005 0.8456438 -0.2189457 -0.2052113 -0.9539136 2105896 female
-0.7937929 -0.2044068 0.8865498 0.6955755 -0.07407045 -0.7146245 2171944 female
-0.5392039 -0.6729637 0.8720236 0.982955 0.154087 -0.1002835 13087919 female
-0.7104216 0.8227833 0.7477684 -0.1725957 -0.1612455 -0.971705 14338761 female
-0.6408451 0.7578061 0.8971555 0.9379604 -0.2743574 0.2120339 16048595 female
-0.8012066 0.6502814 0.7952042 -0.3811042 0.6617475 -0.6456391 13293286 female
-0.851571 0.1481653 0.9873055 -0.5536017 0.2391593 0.7977017 14015981 female
-0.6751565 0.567113 0.7628312 -0.1443606 0.1350948 -0.9802599 12830678 female
-0.5901271 -0.1527654 1.006451 0.1516965 -0.2513637 0.9559312 1842723 female
-0.7239956 0.3532387 1.026051 -0.08477402 0.2511018 0.9642413 15067640 female
-0.7248138 0.07294824 0.7881291 0.1612682 -0.4277824 -0.8893788 2435119 female
-0.68402 0.1972479 1.048522 0.2022479 -0.1409682 0.9691356 4734801 female
-0.9241132 0.5720409 0.850118 -0.821395 0.5267249 -0.2187946 4934995 female
-0.8467664 0.4086945 0.918126 -0.9334662 -0.2075751 0.2924953 13620448 female
-0.6240068 0.2696708 0.8177056 0.3240104 0.1632323 -0.9318651 13752817 female
-0.6877844 -0.08085227 0.9241567 -0.9642153 -0.2557212 -0.06996694 2237218 female
-0.5223454 -0.05511316 0.9413755 0.9857112 -0.1186158 0.1195981 1908509 female
-0.5590117 0.6095685 0.8920815 0.06819261 0.7862982 0.6140724 12303555 female
-0.7920388 0.1361044 1.013995 -0.3577059 -0.1030868 0.9281269 15133438 female
-0.6408675 0.7549946 0.8376077 0.9042293 -0.37361 -0.2068452 3551790 female
-0.5552015 0.4575382 0.8972861 0.9767302 -0.1292598 0.1711432 13816538 female
-0.8699435 -0.3459792 0.8319359 -0.101056 0.2615931 -0.9598733 2434089 female
-0.9170358 0.5446722 0.8198808 -0.636769 0.2382665 -0.7333173 9078681 female
-0.7420339 0.7131429 0.822152 -0.7839404 0.1558328 -0.6009606 10981510 female
-0.8626488 -0.1173351 1.009446 -0.3774915 -0.1536782 0.9131721 2171944 female
-0.593949 0.5995984 0.9082261 0.1746574 0.6079057 0.7745615 10658478 female
-0.6813058 0.5384072 0.9784761 -0.06067837 0.6826831 0.7281908 15660798 female
-0.8196905 0.01425763 0.8222952 -0.1243548 -0.4910964 -0.8621834 3157808 female
-0.707946 0.825781 0.9413978 -0.7741579 0.4568509 0.43814 13416619 female
-0.5314574 -0.1963963 0.9209416 0.9988146 -0.01010952 -0.04761439 2170921 female
-0.7921938 0.4104764 0.7897431 -0.3708956 -0.3639894 -0.85437 2698546 female
-0.8535777 -0.03554918 1.021482 -0.3056509 -0.05465523 0.9505737 2500142 female
-0.569172 -0.2663747 0.9766403 0.4255365 -0.3033885 0.852569 2170402 female
-0.8725259 -0.01015045 0.8499433 -0.5640287 -0.2407359 -0.7898847 2500907 female
-0.6447568 0.4038648 0.994908 0.445913 0.1979193 0.8729201 15724543 female
-0.5887815 0.3289447 0.9637386 0.7591474 0.2059417 0.6174814 6183780 female
-0.9044396 -0.3744616 0.924309 -0.7551182 -0.10872 0.646511 2565671 female
-0.5677518 -0.1974886 0.9893172 0.4791818 -0.1939649 0.8560154 2170403 female
-0.7029269 0.1255053 1.036526 0.1194112 -0.3254133 0.9380017 15199223 female
-0.8258548 -0.2226088 0.8753353 0.2579729 -0.040515 -0.9653023 2565419 female
-0.8925099 -0.6903893 0.8326243 -0.8578563 -0.1919591 -0.4766909 10389125 female
-0.793359 -0.2161488 0.9615976 0.8092933 -0.2590429 0.5272012 1841436 female
-0.859691 0.08432139 0.8156332 -0.6785701 -0.03059516 -0.7338982 2434093 female
-0.9950936 0.1640595 1.065656 -0.9122363 0.2458775 0.3276725 7699066 female
-0.8204159 0.002171108 0.8288152 -0.07366804 -0.4168313 -0.9059938 2566447 female
-0.8986034 -0.6719381 0.8536602 -0.91016 0.2165735 -0.3531355 14862529 female
-0.5215148 0.1851768 0.993265 -0.775201 0.3956595 0.4924601 7633286 female
-0.662754 -0.07313463 1.00007 -0.6573178 -0.26091 0.7070072 2105635 female
-0.96415 0.2681794 0.9823664 -0.111383 0.6340689 0.7652128 10396585 female
-0.5535744 0.4774157 0.8724312 0.9282324 -0.2904965 0.2323713 13026505 female
-0.9526567 0.3965034 0.8829529 -0.900277 0.3098061 0.3058128 12042183 female
-0.8967248 -0.3731675 0.9341512 -0.57212 -0.1432292 0.8075668 2631464 female
-0.8732973 -0.3461748 0.8317229 -0.1577213 0.2585312 -0.9530402 2302505 female
-0.8247753 0.4010976 0.8188088 -0.7398137 -0.2863132 -0.6088518 5460312 female
-0.6748031 -0.1036485 0.8964847 -0.8937629 -0.2252813 -0.3878608 2170913 female
-0.5192706 0.03378664 0.9570401 0.9452336 0.010134 0.3262372 1974307 female
-0.6433262 0.8189188 0.7685006 0.6958961 -0.1751585 -0.6964539 3420972 female
-0.5458089 0.03277354 1.119041 -0.8162451 -0.1837573 -0.5477018 6707029 female
-0.7570009 -0.04786633 0.8681003 0.6681527 -0.2876626 -0.6861648 2498854 female
-0.7458541 0.1005535 0.7754465 0.09916022 -0.1678874 -0.9808063 5263457 female
-0.8722525 -0.1556824 0.9994224 -0.4737271 -0.1592379 0.8661559 2172969 female
-0.8129823 0.2848371 0.8239112 -0.5079117 0.136216 -0.8505709 5524558 female
-0.6679844 -0.1444345 0.9010652 -0.933405 -0.1577784 -0.3222749 2105120 female
-0.5559973 0.2663704 0.9225161 0.925822 0.3502336 0.1420922 8027774 female
-0.6105532 -0.2473436 0.8661845 -0.2019183 -0.005150543 -0.9793888 2565677 female
-0.7237594 0.5049321 0.9998578 0.06817267 0.4089094 0.910025 15461623 female
-0.7217441 0.01536665 0.9022861 0.9510986 -0.2828625 -0.124098 1645342 female
-0.8621747 0.6276584 0.8690165 -0.2107497 0.9144467 0.3455023 11117481 female
-0.5384094 -0.09151079 0.9793211 0.8700311 -0.1258986 0.4766501 1841953 female
-0.5416608 -0.6510664 0.8494383 0.9678354 -0.008184291 -0.251451 1842207 female
-0.8520715 -0.4119167 0.9282056 0.2144244 -0.2401377 0.9467608 2170913 female
-0.5250451 0.6032507 0.8819222 0.4932792 0.7956336 0.3516289 9343126 female
-0.8254721 -0.2286524 0.8760709 0.2760964 -0.04390897 -0.9601265 2500140 female
-0.9247125 0.2413813 0.9225032 0.7100758 -0.6332426 -0.3078899 13816027 female
-0.4899237 0.4847443 0.8875786 0.8292065 0.02484055 0.55839 8817806 female
-0.89402 -0.6300121 0.8604919 -0.9961747 0.08224152 -0.02953445 1907741 female
-0.6649728 -0.1305614 0.8893892 -0.856495 -0.172711 -0.4864023 2170657 female
-0.5761935 -0.04368444 1.022588 0.4016241 -0.09842171 0.9105006 2039589 female
-0.6244214 0.4382007 0.7757046 0.2670075 -0.3355008 -0.9034081 8817042 female
-0.6827627 0.7316117 0.9422819 0.6176509 -0.4476434 0.6466241 15982546 female
-0.5857543 0.1528525 0.800765 0.5676971 0.0756486 -0.8197544 12106953 female
-0.9230129 -0.6996483 0.8912681 -0.8670827 0.04168271 -0.4964172 10917005 female
-0.6429136 0.6642146 0.8608676 0.7733174 0.4935178 0.3980207 12363155 female
-0.5156717 0.5636546 0.8203013 0.6705772 0.2854508 -0.6847219 9474458 female
-0.7929649 -0.04455698 0.8476686 0.2690075 -0.25417 -0.9289954 2500652 female
-0.5633315 0.5418596 0.784 0.4880042 -0.150316 -0.8598005 13817830 female
-0.7445904 0.7783327 0.9342618 -0.6685405 -0.06806006 0.7405549 16770006 female
-0.8220689 -0.00311468 1.026456 0.0002770381 -0.0265508 0.9996474 2172712 female
-0.5510207 -0.526542 0.8265864 0.555501 -0.1046536 -0.8249038 2697264 female
-0.8312737 0.5178713 0.9703407 -0.6249381 0.5065605 0.5940108 14935794 female
-0.7920438 -0.236711 0.8956069 0.8037185 -0.1263247 -0.5814452 2236967 female
-0.711346 0.3021211 1.034714 -0.01922091 0.159088 0.9870772 7434876 female
-0.5411634 0.1102496 1.083533 0.4442938 0.5419774 0.7133466 16175807 female
-0.8607282 0.4959518 0.8876317 0.7363283 -0.2961935 0.6083502 9277338 female
-0.6720471 0.2950696 1.032811 0.2758287 0.1865419 0.942932 11053494 female
-0.5640646 0.5130798 0.9110272 0.7872212 -0.3622501 0.4990568 3815741 female
-0.8653248 -0.7107515 0.9721593 0.9231531 -0.3155175 0.2196292 6180688 female
-0.6465405 0.4722745 0.760225 0.09943476 -0.2406894 -0.9654954 15199231 female
-0.7374586 0.5391943 0.9786764 0.08125213 0.6785249 0.7300699 15396344 female
-0.6267602 0.5440314 0.9679866 0.2167311 0.6648465 0.7148474 12171461 female
-0.672617 -0.01539967 0.857433 -0.5777577 -0.2823002 -0.7658347 2302243 female
-0.6802348 0.4904149 0.7556113 -0.04239865 -0.06055123 -0.9972642 15463935 female
-0.5696074 -0.3093734 0.8390456 0.09417538 0.3600402 -0.9281713 2237738 female
-0.6569706 0.7036989 0.8761995 0.8462635 -0.0971409 0.5238338 14993595 female
-0.5723416 -0.4263983 0.922951 -0.1164103 -0.2255286 0.9672567 2171431 female
-0.6552048 0.2776791 1.030296 0.4125629 0.2008911 0.8885013 14342371 female
-0.5362417 0.5987294 0.8985649 0.2699824 0.6638581 0.6974252 9869474 female
-0.701394 -0.01177073 0.9693 -0.9513489 -0.1631311 0.2613876 2434085 female
-0.6183882 0.05167746 0.7994901 0.2004338 -0.440003 -0.875342 2368300 female
-0.5147441 0.01021656 0.9324151 0.9947055 -0.06215279 0.08184128 1776161 female
-0.5391977 0.2588798 0.8999083 -0.9923567 -0.1233162 0.004623705 14540526 female
-0.6207786 0.8732747 0.8574074 0.9300134 0.3337913 0.1538134 2895145 female
-0.5256353 0.4779756 0.807573 0.2129431 -0.0680012 -0.9746954 14539494 female
-0.8473755 0.2877019 0.950196 -0.8657501 0.2621821 0.4263065 7960958 female
-0.8752836 -0.3231498 0.9515738 -0.3035118 -0.2658875 0.9149778 2301987 female
-0.9440941 -0.700865 0.9799833 -0.212166 0.9605219 0.1799537 11378072 female
-0.5332651 0.05772557 0.980678 0.8434024 0.07960305 0.5313528 1776675 female
-0.4997633 0.002577061 1.048005 0.9809359 -0.1571409 -0.1143309 16242896 female
-0.5102196 0.5887254 0.8555831 0.7323812 0.6377828 -0.2384343 13554654 female
-0.8363673 -0.5894536 0.8544974 0.9914829 -0.1291746 -0.01660595 1907745 female
-0.5739613 -0.5079778 0.9032369 -0.1733573 -0.185885 0.9671577 2301987 female
-0.8389943 0.4092896 0.9345288 -0.8705764 -0.2536942 0.4215873 14343396 female
-0.6712957 0.6317583 0.9043822 0.2534758 0.6214637 0.7413049 15396082 female
-0.8758976 -0.6696513 0.9435204 0.2183695 0.8183181 0.5316674 15848392 female
-0.8894973 0.6143363 0.8434977 -0.6294788 0.7338146 -0.2554851 12303039 female
-0.6738417 0.2722672 0.8101171 0.01909736 0.1931496 -0.9809834 15201279 female
-0.5056922 0.5721263 0.8944999 0.6289517 0.458093 0.6281486 13028813 female
-0.9197767 0.4079844 0.8243414 -0.4034375 -0.1149761 -0.9077547 5589847 female
-0.8093213 -0.4454168 0.8729667 0.9848023 -0.1727619 -0.01782439 2040358 female
-0.8432918 0.03623027 0.8189369 -0.4207087 -0.3795218 -0.8239948 2631465 female
-0.6523365 0.5389968 0.9777939 0.05336292 0.6845109 0.7270469 12765138 female
-0.5421832 -0.5881028 0.8703986 0.9711353 -0.121981 0.2049802 1578523 female
-0.5861934 -0.08997986 0.8528923 0.2304173 -0.05190116 -0.9717068 2106409 female
-0.936426 -0.6974937 0.958583 -0.2659518 0.9535164 0.1416907 15781830 female
-0.7914079 0.3465506 0.8069378 -0.4132855 -0.2172138 -0.8843152 10330288 female
-0.8898855 -0.6330107 0.884589 -0.9265346 0.2231929 0.3028507 2302502 female
-0.5742274 -0.1259426 0.8573081 0.3529137 -0.05658192 -0.9339435 2171688 female
-0.5578546 -0.3221944 0.9441423 0.4283127 -0.2335174 0.8729364 1908773 female
