# .PCD v0.7 - Point Cloud Data file format
VERSION 0.7
FIELDS x y z normal_x normal_y normal_z rgb label
SIZE 4 4 4 4 4 4 4 4
TYPE F F F F F F U U
COUNT 1 1 1 1 1 1 1 1
WIDTH 170
HEIGHT 1
VIEWPOINT 0 0 0 1 0 0 0
POINTS 170
DATA ascii
-0.9378542 0.08730476 0.1873226 -0.6577653 -0.02088215 -0.7529334 9476256 female
-0.6305472 0.1362168 0.2226799 0.8726845 0.001902499 -0.4882807 12040900 female
-0.8834531 -0.4482629 0.2743628 0.4281711 -0.3245108 0.8434229 2170913 female
-0.6630664 0.1712371 0.5239837 -0.9385883 -0.2209156 -0.2650439 13285294 female
-0.6370277 -0.3393123 0.3695796 0.6260911 0.1512912 -0.764932 2697774 female
-0.6116281 -0.1818332 0.431991 0.996228 -0.0186344 -0.08475003 2105128 female
-0.9289762 0.2748609 0.2232583 -0.8473781 0.1609029 -0.5060243 9343132 female
-0.9156553 -0.7300174 0.3333159 0.07840504 -0.9896975 0.1197975 526344 female
-0.8551331 -0.4911875 0.2272007 0.9451526 -0.1767455 0.2746773 1710362 female
-0.9200496 0.2507181 0.5429005 0.9253862 -0.2514539 -0.283604 10988724 female
-1.008386 0.4842506 0.3235397 -0.8884646 0.1442529 0.4356854 12370119 female
-0.9085274 0.2500209 0.1945198 -0.5375261 0.2601281 -0.8021215 13950962 female
-0.9070379 -0.5281624 0.1662249 -0.2716663 0.06009554 -0.9605134 2301987 female
-0.9681802 0.4028915 0.3659792 0.2650352 0.2596121 0.9286323 14606565 female
-0.5747684 0.5319616 0.2482095 0.9221108 0.386907 0.003826665 13620701 female
-0.6876672 0.1077321 0.3950388 0.1964927 0.5504016 0.8114486 2303531 female
-0.9416907 0.4956257 0.2567883 0.3765681 -0.916816 0.1328337 1119505 female
-0.877546 0.03995532 0.4052081 0.1647469 0.1653719 0.9723737 2434601 female
-0.840829 -0.2580999 0.2993254 0.9920338 -0.09409206 -0.0837591 1842208 female
-0.6782615 -0.5961534 0.4117642 0.4670315 0.2609279 0.8448658 2566703 female
-0.9722756 0.4156516 0.3628935 0.1067181 0.2932833 0.9500507 15658999 female
-0.932756 0.3331152 0.2524883 -0.9823551 -0.005218512 -0.1869529 14606319 female
-0.9949917 0.297707 0.4683189 -0.8241662 0.3118876 0.4727326 11913167 female
-0.6718844 0.3534507 0.3175554 0.8287745 0.01031172 0.5594878 6447207 female
-0.9209834 0.3665403 0.215416 -0.860725 -0.06713143 -0.5046244 12106181 female
-0.611331 0.3606156 0.2998877 -0.1152511 0.1116955 0.9870366 15725567 female
-0.7296821 0.2281032 0.3968805 0.4753539 0.1804345 0.8610935 13620456 female
-0.6983306 0.2009238 0.1741063 0.3160547 0.2717488 -0.9089895 9079706 female
-0.7030212 0.8475276 0.2313188 0.8698434 0.2836358 -0.4036374 2763817 female
-0.7523345 0.483972 0.3782501 0.02910106 0.4838705 0.8746556 15725567 female
-0.5728412 0.2403563 0.2977446 0.6255953 -0.6493378 -0.4324246 9738144 female
-0.6440282 -0.5040507 0.3885205 0.9689353 -0.2449207 0.03432591 2171937 female
-0.9002601 -0.1189741 0.2317936 -0.02137561 -0.1061051 -0.9941251 2500910 female
-0.8420644 -0.2261957 0.2849391 0.9168341 0.01398473 -0.3990235 2170147 female
-0.6490002 -0.6549771 0.3843865 0.8685104 0.310288 -0.3865372 12493981 female
-0.8104072 0.8536863 0.1981007 -0.5351349 0.4104351 -0.7383587 9473672 female
-0.7134248 0.7291748 0.3103338 0.9489369 -0.3088133 0.0644444 16311510 female
-0.9128227 0.6350359 0.2390956 -0.4590831 0.8850539 -0.07695571 12368055 female
-0.9795316 0.1378286 0.2871357 -0.9888624 0.1454785 0.03142028 14937843 female
-0.7695045 0.567734 0.1573112 -0.2355058 0.2559616 -0.937561 14081777 female
-0.7035086 -0.09875201 0.4825291 -0.3218448 0.1499915 0.9348361 2169889 female
-0.6584066 0.3435297 0.2939256 0.9333571 -0.003969848 0.3589272 14080999 female
-0.9052142 0.196905 0.1746679 -0.3636395 0.2760481 -0.8896987 14608375 female
-0.7804 0.1418288 0.4122725 0.1952344 -0.1306044 0.9720216 14081254 female
-1.002708 0.5571226 0.2950208 -0.8379188 0.5455597 0.01601837 5856354 female
-0.9400601 0.4215551 0.3063967 -0.9472905 -0.2350171 0.2177332 13159892 female
-0.7048849 0.2719861 0.1827451 0.3848198 -0.05153486 -0.9215519 15199231 female
-0.7705433 -0.08192429 0.3780003 -0.9596158 -0.2747714 0.06031856 2237218 female
-0.6265907 -0.1390812 0.3611315 0.7881255 -0.2926762 -0.5414785 2170916 female
-0.6427755 0.4780873 0.2349789 0.6465114 -0.6901653 0.3251075 14606311 female
-0.9384853 0.1241605 0.3713622 -0.5123156 0.2742831 0.8138191 6316913 female
-0.716857 0.7533292 0.2401218 0.7922311 -0.4667407 -0.3930942 2499619 female
-0.6407943 0.4689678 0.2279035 0.7743818 -0.6079907 0.1751574 5262931 female
-0.8590617 -0.2936364 0.2721891 0.789523 -0.01014757 -0.613637 2170913 female
-0.9886256 0.5125875 0.244378 -0.521383 -0.09741565 -0.847744 11119801 female
-0.820842 0.7066935 0.2367946 -0.8304704 0.1651074 -0.5320324 5984074 female
-0.8962286 -0.1704463 0.3903373 0.1269433 -0.2096439 0.9695024 2171688 female
-0.6435227 0.4795443 0.2723382 0.8725946 -0.3879496 0.2967721 14211809 female
-0.8583052 0.4537933 0.4076436 -0.01230238 0.2315668 0.9727412 15528188 female
-0.9016386 -0.03819883 0.2179392 -0.04728238 -0.3208393 -0.9459527 2698031 female
-0.7758778 0.7729518 0.3751113 -0.7228868 0.3000801 0.6224039 15190973 female
-0.6241331 -0.1589787 0.4711037 0.8635703 0.08190212 0.4975323 2039327 female
-0.8198935 0.3223954 0.1757811 0.1978418 -0.2173481 -0.9558339 13816805 female
-0.8882716 -0.05175851 0.4054064 0.1539881 -0.09405722 0.9835858 2170916 female
-0.6268762 -0.2354362 0.4909411 0.8622549 -0.07262779 0.5012402 2171174 female
-0.9648235 -0.0705435 0.2554476 -0.7644788 -0.205594 -0.6109855 2170917 female
-0.6631774 0.3916575 0.3235902 0.7411883 -0.5797119 0.338488 8355719 female
-0.6678379 0.3630987 0.1987526 0.8151155 -0.09023757 -0.5722271 5131344 female
-0.9579088 -0.3422608 0.2349161 -0.8576275 0.2206758 -0.4645184 1973281 female
-0.7209345 -0.165647 0.4827303 -0.740219 -0.02396973 0.6719385 2105121 female
-0.7917884 0.1447354 0.415597 0.1020691 -0.1314444 0.9860549 11381947 female
-0.9144135 -0.2270145 0.2523435 -0.08069553 0.04413632 -0.9957612 2698289 female
-0.8912274 -0.7144982 0.1902196 0.07005514 -0.993542 -0.08925555 526088 female
-0.8500406 -0.2901339 0.2854531 0.9505793 -0.1094098 -0.2905656 1973278 female
-0.9149411 0.09369698 0.1693245 -0.5215978 -0.07766474 -0.8496493 14805497 female
-0.9333383 0.2712567 0.5879391 -0.3729322 0.806346 0.4590509 8092544 female
-0.9333284 -0.00512989 0.2127731 -0.399268 -0.406836 -0.8216261 2236712 female
-0.9109618 -0.6668726 0.1666916 -0.9505382 0.08932127 -0.2974878 9008758 female
-0.6292767 0.2324768 0.378262 -0.9241331 0.2828871 0.256813 14608118 female
-0.7454857 -0.04109411 0.4443622 -0.6593755 0.0676792 0.7487612 2105635 female
-0.9796183 0.3089899 0.4751596 -0.3398564 0.7960839 0.5007476 8025719 female
-0.6489216 0.4828244 0.1790869 0.3721139 -0.4931489 -0.786343 1908005 female
-1.01036 0.4064948 0.3491809 -0.7837632 0.3014396 0.5430004 5922922 female
-0.9324477 -0.4022614 0.3021429 -0.3483343 -0.3431298 0.8723102 2434085 female
-0.8925527 -0.3107029 0.2340006 0.3995005 0.4987399 -0.769193 2434605 female
-0.9032033 0.3265041 0.1986814 -0.6929702 -0.06587217 -0.7179507 8946060 female
-0.756984 -0.113732 0.3642745 -0.893075 -0.3817371 -0.2381045 2170913 female
-0.6109413 0.1114077 0.2758311 0.9806896 0.1438797 -0.1324631 10132643 female
-0.7352136 0.820344 0.1901821 0.5218694 0.03978662 -0.852097 2696225 female
-0.6528339 0.1231154 0.5873888 -0.6451057 -0.555531 -0.5246181 6509906 female
-0.8331662 -0.1560658 0.2882686 0.9486162 -0.1256237 -0.2904239 2170913 female
-0.8438497 0.1103907 0.148856 -0.006424464 0.0007830224 -0.9999791 10594231 female
-0.9646516 -0.2819223 0.3114589 -0.9604947 -0.1581417 0.2290004 2171171 female
-0.9617561 0.2223082 0.2480701 -0.8947116 0.3851905 -0.2260959 7171700 female
-0.7490517 -0.147439 0.3898964 -0.9363371 -0.2815244 -0.2098019 2105120 female
-0.6427035 0.2447555 0.2554794 0.9226397 0.3428029 -0.1766976 7368824 female
-0.5985324 0.008342072 0.3231297 0.9952555 -0.07591008 -0.06086135 2170913 female
-0.8216962 0.4240975 0.3967521 0.2355617 -0.3136607 0.919852 3948875 female
-0.7995402 0.01310193 0.2718275 0.8761101 -0.4520701 -0.1675219 2170913 female
-0.9419077 0.6173366 0.2687301 -0.4669906 0.8728951 0.1413288 10592415 female
-0.5999295 0.0141013 0.3387403 0.9973996 -0.001601806 0.07205136 1841948 female
-0.6703057 -0.6245796 0.3481127 0.8031609 0.03910779 -0.5944772 2303011 female
-0.915742 -0.5945483 0.1809559 -0.9493155 -0.1212883 -0.2899815 1579032 female
-0.6437696 0.4798857 0.2486334 0.733907 -0.5873712 0.3411388 14869738 female
-0.9105859 -0.2296046 0.2528606 -0.03464929 0.04637985 -0.9983228 2566703 female
-0.956885 0.2633303 0.4006971 0.5279081 -0.7786298 -0.3391882 7565685 female
-0.5709808 0.4457553 0.2414422 0.9960909 -0.01490579 -0.08706682 7171191 female
-0.9139292 -0.6402124 0.1874666 -0.9917075 -0.0194034 0.1270422 1907741 female
-0.7468742 -0.1350996 0.3633532 -0.8275547 -0.399441 -0.3944616 2038816 female
-0.7124721 0.05563667 0.4293862 -0.1153956 0.4312051 0.8948441 2237481 female
-0.7501795 0.4488959 0.1421147 -0.02377914 -0.1566441 -0.9873688 8949144 female
-0.7493726 0.7047969 0.3575501 0.7023497 -0.2523764 0.6655908 15718342 female
-0.7268091 0.1994766 0.1678776 0.1575192 0.2647156 -0.9513744 11056320 female
-0.9164439 -0.7241949 0.2260901 -0.001144142 -0.975708 -0.2190718 1052688 female
-0.790266 0.6307008 0.3092001 -0.01299534 -0.1385978 0.9902635 15659258 female
-0.6195262 0.5130786 0.1808922 0.3797277 -0.1590844 -0.9113172 5658203 female
-0.8898241 -0.01995243 0.212137 0.04745368 -0.4497266 -0.8919048 2698289 female
-0.6276934 0.5357174 0.1776518 0.5217311 0.08931687 -0.8484216 15725567 female
-0.8068616 0.7544857 0.3662703 -0.458383 -0.08108577 0.8850481 16769751 female
-0.8441569 -0.0251589 0.3907555 0.5425887 -0.09885127 0.8341619 2170145 female
-0.701111 -0.5344459 0.3424923 -0.3088769 0.07022739 -0.9485058 2828849 female
-0.8290223 0.4925008 0.3862201 0.1400206 0.5449343 0.8267047 15200247 female
-0.8608344 -0.2560254 0.2646849 0.5669196 -0.002757559 -0.8237685 2500137 female
-0.7913231 0.2871029 0.39972 0.03149886 0.07643058 0.9965773 14213096 female
-0.6465856 0.1804526 0.5377863 0.5015109 0.7070512 0.4985634 16175807 female
-0.9519216 0.5704792 0.3332036 0.006608314 0.3659301 0.9306188 12303555 female
-0.7351061 0.2714851 0.3875499 0.4780343 0.1469967 0.8659533 11185847 female
-0.6553049 0.4609972 0.3485046 0.8275069 0.242855 0.5062152 10855341 female
-0.8702559 -0.6887816 0.2726765 0.5756045 0.6957397 0.4296809 15060420 female
-0.7701801 0.4973073 0.1405114 -0.2660102 0.1961954 -0.9437933 11710911 female
-0.7340778 0.534848 0.3391193 0.1620061 0.5798404 0.7984605 11711420 female
-0.7022954 0.4225601 0.3917724 0.2217976 -0.3257378 0.919076 13027798 female
-0.7772816 -0.0159973 0.2709947 -0.7787147 -0.5125741 -0.3617612 2434342 female
-0.7131978 0.4119013 0.1535848 0.235554 -0.2682289 -0.9341133 3157817 female
-0.626397 -0.3786114 0.3762584 0.854608 -0.01660573 -0.5190082 2105120 female
-0.7337489 0.6896809 0.2816663 0.9160499 -0.2903198 0.2767074 14073005 female
-0.6643406 -0.4018494 0.4529323 0.05477433 -0.2985345 0.9528257 2171431 female
-0.7458649 0.249992 0.3975551 0.3605573 0.180571 0.9150916 4539471 female
-0.6506754 0.5200571 0.2977046 0.3802774 -0.07266891 0.9220132 3750210 female
-0.7932064 0.007544407 0.3346258 -0.99591 -0.08985909 0.009418173 1973793 female
-0.7411875 0.0585402 0.1605867 0.04123526 -0.3058234 -0.9511949 2960181 female
-0.6105428 -0.0956033 0.4004051 0.9941888 -0.05213818 0.09418139 1841953 female
-0.6327853 0.2330188 0.3239612 -0.9070117 -0.3728016 -0.1958285 11581120 female
-0.6953337 0.8500978 0.2650244 0.9424571 0.3223408 -0.08871806 2039327 female
-0.6082891 0.4401498 0.1970334 0.2907791 -0.1600299 -0.9433122 9277854 female
-0.9345546 0.3012467 0.2955218 -0.9572812 0.1575431 0.2424722 7698045 female
-0.8966607 -0.3181057 0.3484092 0.3592027 -0.5818161 0.7297009 2367780 female
-0.9363815 -0.7101799 0.2797214 -0.4295636 0.8942456 0.1256976 16768982 female
-0.6181097 0.09934577 0.3403347 0.8828608 0.2795815 0.3773473 2301475 female
-0.6183324 0.0625666 0.5497227 0.8182174 0.08603612 0.5684348 15255487 female
-0.582626 0.5478866 0.235913 0.8083569 0.5142279 -0.2865812 14081007 female
-0.8695858 -0.5648778 0.1661612 0.670754 0.1347476 -0.7293368 2565415 female
-0.6759149 -0.4814632 0.4263005 0.005354298 -0.2595261 0.9657212 2301987 female
-0.9306102 0.3821907 0.294928 -0.9529691 -0.1512098 0.2626505 14607343 female
-0.8566201 0.5372548 0.3545391 -0.04726835 0.5902635 0.8058255 5395802 female
-0.8890169 -0.6873172 0.2762975 -0.1160338 0.869326 0.4804253 14596789 female
-0.9428376 0.6080512 0.2285611 -0.6748855 0.6046706 -0.4229695 11384007 female
-0.7305383 0.3518241 0.1632725 0.163008 -0.211938 -0.9635926 14738422 female
-0.6077585 0.5583478 0.2871597 0.3632109 0.4073325 0.8379487 9802653 female
-0.9634992 0.3097574 0.3212699 0.6271782 -0.4949703 -0.6013751 12369348 female
-0.8493742 -0.4177659 0.2359215 0.9997587 0.006750099 0.02090318 2039327 female
-0.9471681 -0.002244009 0.2185533 -0.5329659 -0.3496521 -0.7705133 2302499 female
-0.786109 0.4866324 0.3799388 0.1499628 0.4480446 0.881344 15593980 female
-0.6634316 -0.445311 0.3480008 0.3385969 -0.03226539 -0.9403782 1974051 female
-0.6550168 -0.06821826 0.2874968 0.4046639 -0.5427522 -0.7359805 2433573 female
-0.9294567 -0.7130176 0.3012884 -0.2394319 0.9481063 0.2092049 16243670 female
-0.8071845 0.1962467 0.1612031 -0.001644128 0.2510008 -0.9679855 14082039 female
-0.9007083 -0.6937193 0.2777588 -0.3300727 0.8641981 0.3797548 16241870 female
-0.7017629 -0.1450442 0.3326033 -0.20533 -0.4972411 -0.8429655 2434345 female
-0.6384662 -0.2983085 0.4803506 0.5823393 -0.2654907 0.768372 1908773 female
