# .PCD v0.7 - Point Cloud Data file format
VERSION 0.7
FIELDS x y z normal_x normal_y normal_z rgb label
SIZE 4 4 4 4 4 4 4 4
TYPE F F F F F F U U
COUNT 1 1 1 1 1 1 1 1
WIDTH 170
HEIGHT 1
VIEWPOINT 0 0 0 1 0 0 0
POINTS 170
DATA ascii
-0.9498066 0.1508427 -0.2515271 -0.7362832 0.0578986 -0.674192 14936567 female
-0.6763179 0.1669824 -0.2800269 0.5779555 0.07286018 -0.8128092 9803174 female
-0.9545729 -0.4238037 -0.1117961 0.3357144 -0.2630478 0.9044898 2170913 female
-0.6221802 0.1053601 -0.04292227 -0.9077464 -0.3788454 -0.1802012 10917009 female
-0.664905 -0.3174785 -0.2507717 0.07772972 0.3231235 -0.9431592 2237738 female
-0.6733734 -0.1780643 -0.08869605 0.1905203 -0.2286716 0.9546786 2171688 female
-0.9135977 0.3517925 -0.2379721 -0.7546 -0.1680736 -0.634295 6251625 female
-1.014285 -0.7091648 -0.02623161 -0.3279436 -0.9436586 -0.04428833 526344 female
-0.9385355 -0.5363491 -0.1779644 0.9837461 -0.1795384 -0.003099765 1776929 female
-1.023088 0.1865113 -0.04601883 0.9285082 -0.3651126 -0.06756783 12764108 female
-1.029414 0.4810785 -0.1887475 -0.9879437 0.09518249 -0.1220968 10133932 female
-0.9013035 0.3310942 -0.2489429 -0.6048083 -0.08171815 -0.7921673 7566207 female
-0.992318 -0.4660631 -0.2065645 -0.4173436 -0.02498309 -0.9084053 1973537 female
-0.9776756 0.3771531 -0.1446597 0.7077492 -0.06808729 0.7031751 15133945 female
-0.586118 0.5560515 -0.2388521 0.9079316 0.4016601 -0.1197058 13620701 female
-0.6198522 -0.009974906 -0.1096036 0.8993678 -0.003012853 0.4371824 1973536 female
-0.9855031 0.1410309 0.1001918 0.9726331 -0.06229017 -0.2238413 11901590 female
-0.9411029 0.04411266 -0.03444434 -0.4044085 0.1792964 0.8968314 2500651 female
-0.8933696 -0.2356024 -0.08464057 0.8460838 -0.2919151 0.4460132 2105120 female
-0.6753669 -0.6124589 -0.1848609 -0.4458708 0.237953 0.8628891 2171686 female
-0.9864099 0.4180166 -0.1351964 0.3103099 0.032478 0.9500805 13288397 female
-0.9355091 0.4238474 -0.1367597 -0.8589549 -0.3533037 0.3706386 14082023 female
-1.070165 0.2239716 -0.06770838 -0.9975442 -0.06341151 -0.02974078 5397866 female
-0.6679194 0.3442561 -0.1440507 0.8915239 0.1298327 0.4339685 3420469 female
-0.9400457 0.4090953 -0.1665931 -0.9643033 -0.2108724 0.1601627 3553086 female
-0.6058472 0.4220478 -0.2003492 0.3244315 0.04669038 0.9447562 14541801 female
-0.7112201 0.2677554 -0.0680794 0.641235 0.1775271 0.7465265 6184287 female
-0.7245443 0.223993 -0.2858146 0.1436079 0.3082162 -0.9404145 11844804 female
-0.7280419 0.878486 -0.2599564 0.8142815 0.426675 -0.3935658 2631463 female
-0.7154594 0.4993822 -0.07507281 0.1525401 0.4936974 0.8561509 15593213 female
-0.5711106 0.2570344 -0.2335292 0.5729305 -0.4276969 -0.6991609 9738144 female
-0.6216773 -0.4389137 -0.232874 0.9407719 -0.07511022 -0.3306156 1579553 female
-0.9662837 -0.03704526 -0.1920465 -0.5522757 -0.2206235 -0.8039383 2631470 female
-0.90023 -0.2004224 -0.1552148 0.5724642 -0.1197556 -0.8111371 2171944 female
-0.6350639 -0.6739656 -0.2131798 0.9456738 0.1603352 -0.2828315 13087919 female
-0.8241664 0.8291073 -0.3085562 -0.33672 -0.1146136 -0.9346033 14338761 female
-0.7239618 0.7661571 -0.2218422 -0.165446 -0.9176424 -0.3613309 16175813 female
-0.914737 0.6498863 -0.2501423 -0.5270184 0.6872301 -0.4999664 12437462 female
-0.9531865 0.1802396 -0.09061339 -0.6935892 0.2016921 0.6915594 7039086 female
-0.7916284 0.6070216 -0.3016692 -0.2252297 0.2024777 -0.9530343 15528188 female
-0.643846 -0.1640333 -0.1005937 0.6620987 -0.1824358 0.7268717 1974050 female
-0.7925868 0.3504554 -0.04990516 0.07904837 0.229588 0.9700725 15067640 female
-0.8569516 0.0616173 -0.2789479 0.009068028 -0.482246 -0.8759888 2566703 female
-0.748114 0.2249143 -0.03623802 0.3771868 0.04071816 0.9252416 15002619 female
-1.018471 0.5529965 -0.1617212 -0.8295943 0.3668396 0.4209538 7304056 female
-0.9223221 0.4188032 -0.1187276 -0.764245 -0.3977367 0.5076761 9672086 female
-0.7097804 0.2887681 -0.2667094 0.3763213 -0.02361575 -0.9261882 13488354 female
-0.7912149 -0.03574535 -0.156811 -0.9809252 -0.1913917 0.03398427 3290426 female
-0.6120111 -0.05449141 -0.162766 0.9928896 -0.1086768 -0.0485747 1908509 female
-0.6496085 0.6141718 -0.2085091 0.2062826 0.8196163 0.5344873 13422293 female
-0.8634942 0.1091683 -0.0481109 0.1239939 0.07782013 0.9892267 2566703 female
-0.7535719 0.7254201 -0.2399494 0.7874678 -0.1376709 -0.6007838 4866113 female
-0.6579434 0.4487023 -0.2622564 0.8401452 -0.3321106 -0.4287874 13619671 female
-0.9656572 -0.3153933 -0.190534 0.06287219 0.3454571 -0.9363261 2697774 female
-0.9902487 0.5248899 -0.236413 -0.3099861 -0.02624106 -0.9503789 9671839 female
-0.8383979 0.7241431 -0.2404889 -0.8580725 0.07232033 -0.5084106 5984074 female
-0.9450458 -0.1059217 -0.0293553 -0.2271536 -0.09122507 0.9695768 2171944 female
-0.6421154 0.6032139 -0.1963119 0.2165005 0.6813701 0.6991869 15330803 female
-0.7845625 0.5321774 -0.09030311 0.1356325 0.666163 0.7333694 14146792 female
-0.8986964 -0.042302 -0.2062127 0.1127645 -0.3135389 -0.9428561 2500651 female
-0.7833632 0.8264751 -0.1162752 -0.4536225 0.4658509 0.7597431 14600122 female
-0.7168591 -0.1860567 -0.09961345 -0.5337191 -0.251837 0.807293 2170401 female
-0.8968406 0.4144867 -0.2701129 -0.5113938 -0.3337954 -0.7918693 2698546 female
-0.9496165 -0.01523295 -0.0290526 -0.4149702 0.05554589 0.9081378 2368809 female
-0.6326294 -0.2715759 -0.1395387 0.8735647 -0.1483174 0.4635587 2039075 female
-0.9771539 -0.006552646 -0.1923228 -0.6933051 -0.2538694 -0.6744467 2500907 female
-0.7180511 0.4002443 -0.09221487 0.5855055 0.1661383 0.7934616 15724543 female
-0.6658283 0.3338079 -0.1458595 0.902859 0.1602902 0.3989394 13752800 female
-0.9886106 -0.2843099 -0.1712842 -0.3715235 0.4052215 -0.8353238 2303275 female
-0.6980761 -0.1858136 -0.09084451 -0.2389533 -0.2416732 0.9404761 2170660 female
-0.7569844 0.1779115 -0.03723581 0.3676884 -0.1954127 0.9091859 4606287 female
-0.9340129 -0.2168181 -0.1596151 0.1036331 -0.066931 -0.992361 2565419 female
-0.9712704 -0.6955436 -0.1620938 0.2126426 -0.977125 0.003105294 986381 female
-0.8902816 -0.2495681 -0.1025128 0.9303671 -0.302273 0.2074807 2038559 female
-0.9625154 0.09401606 -0.2387525 -0.7538632 0.01509738 -0.656858 3025454 female
-1.039544 0.1097034 0.02102507 0.921188 -0.3817844 -0.07518853 6379608 female
-0.9202164 -0.01934512 -0.2147577 -0.1162204 -0.3513049 -0.9290197 2697516 female
-1.002954 -0.6736456 -0.211992 -0.9152021 0.03053472 -0.4018367 14269620 female
-0.5784154 0.1501328 -0.07544558 0.2763216 0.5915558 0.7574353 6841955 female
-0.6894255 -0.08334649 -0.06866143 0.0178393 -0.1810874 0.9833052 2171944 female
-1.057572 0.2508374 -0.05383904 -0.5691106 0.5212893 0.6359013 13424860 female
-0.6471512 0.4830094 -0.2065373 0.9773525 -0.1850198 0.1027118 14079966 female
-1.029856 0.3888972 -0.139192 -0.5319644 0.2764261 0.8003765 14016221 female
-0.9692549 -0.3979921 -0.09898414 0.1295521 -0.2612622 0.9565345 2169889 female
-0.9659289 -0.3115339 -0.1890379 0.05740043 0.3575679 -0.9321215 2697516 female
-0.9228283 0.3890088 -0.2376471 -0.827828 -0.131982 -0.5452353 6710377 female
-0.7579537 -0.1627483 -0.167158 -0.9876637 -0.152914 -0.03372835 1841436 female
-0.6093869 0.06683476 -0.1581601 0.9876677 0.08447114 0.1318225 1908257 female
-0.7545146 0.825037 -0.2998735 0.5663146 -0.1333802 -0.8133249 3420972 female
-0.6009365 0.04400551 0.006156083 -0.6110243 -0.4975109 -0.6157372 7496544 female
-0.8594729 -0.02221824 -0.2030682 0.468576 -0.3812387 -0.7969276 2697257 female
-0.8611611 0.1002971 -0.2923336 -0.06842536 -0.184165 -0.9805107 5263457 female
-0.9786608 -0.1717329 -0.04716416 -0.6476071 -0.05830631 0.7597404 2170657 female
-0.9454098 0.2765153 -0.2035022 -0.8308925 0.4028139 -0.3838731 7698044 female
-0.754006 -0.1967231 -0.1735268 -0.9932004 -0.08828116 -0.07589115 1776155 female
-0.6572757 0.2826704 -0.2104748 0.9232472 0.1619627 -0.3484003 4343106 female
-0.726985 -0.3346588 -0.2160511 -0.946577 0.134611 -0.2930392 2039329 female
-0.7808251 0.4800258 -0.06701111 0.115939 0.1260465 0.9852261 14013410 female
-0.8142415 0.03022915 -0.1830911 0.8107291 -0.5094147 -0.2884702 2170913 female
-0.9507813 0.6355698 -0.2021452 -0.4961361 0.8594171 0.1234957 12370114 female
-0.6207425 -0.08990179 -0.1217279 0.9403596 -0.1068288 0.3229728 1841953 female
-0.6384538 -0.6606103 -0.2233434 0.9554021 0.055391 -0.2900667 2105376 female
-1.002917 -0.5680591 -0.1747333 -0.9927886 -0.105309 -0.05727796 1579291 female
-0.6064339 0.5946909 -0.2343374 0.6845437 0.7247514 -0.07832852 10132378 female
-0.9335865 -0.2225432 -0.1587079 0.1234912 -0.06692968 -0.990086 2500140 female
-1.013751 0.2186124 -0.0962752 0.7827998 -0.5646574 -0.2615078 9474457 female
-0.5806237 0.4701546 -0.2334734 0.9817077 0.02821802 0.1882916 5790560 female
-0.9993178 -0.6578977 -0.1152065 -0.5986112 0.7333726 0.3222254 16311770 female
-0.755304 -0.1790587 -0.1798431 -0.9728363 -0.09759311 -0.2099167 1907741 female
-0.7178795 0.01090515 -0.05760579 -0.120042 -0.02218992 0.9925208 2171945 female
-0.754108 0.4418794 -0.3117563 -0.00336521 -0.2708549 -0.9626143 12237251 female
-0.7826884 0.7609714 -0.1077004 0.135116 0.1269778 0.9826598 12094863 female
-0.7327555 0.2007197 -0.2941583 0.1009688 0.2816241 -0.9541976 15200255 female
-0.9822543 -0.6994164 -0.1442197 0.1553019 -0.9841492 -0.08562597 722698 female
-0.7535268 0.645508 -0.1825641 0.604546 0.3154501 0.7314475 13751003 female
-0.6479211 0.5293853 -0.2988898 0.2273825 -0.2852201 -0.9310998 14539754 female
-0.9002125 -0.04428207 -0.2058215 0.1042954 -0.3087611 -0.9454042 2500652 female
-0.6806649 0.5604505 -0.3133844 0.3646041 0.008413736 -0.9311246 11383490 female
-0.8130366 0.7804428 -0.1159113 -0.1770722 0.005713331 0.9841813 16773086 female
-0.8782253 0.008247629 -0.03255264 0.3543347 -0.01442253 0.9350075 2171171 female
-0.6477212 -0.5797516 -0.2432325 0.8020362 -0.1222599 -0.5846285 1841948 female
-0.8837169 0.5185989 -0.07190759 -0.2775291 0.5994506 0.7507573 15133430 female
-0.8977554 -0.2312062 -0.1444137 0.7035723 -0.1575877 -0.6929301 2236967 female
-0.7801327 0.3000962 -0.04459867 0.1457055 0.14305 0.9789314 7434876 female
-0.6180365 0.09996956 0.007282197 0.911648 0.1909744 0.3639049 14137261 female
-0.9504473 0.5016819 -0.1506983 0.6925829 -0.3347238 0.6389749 15725559 female
-0.741829 0.2925139 -0.0529757 0.4300038 0.1655789 0.8875135 11053494 female
-0.6537375 0.5188404 -0.1730022 0.8602724 -0.2507589 0.4439048 14080999 female
-0.958248 -0.7026162 -0.07171097 0.9489975 -0.3094078 0.06058602 6706519 female
-0.7410427 0.4525984 -0.3149937 0.0474293 -0.2773443 -0.9595992 15725567 female
-0.7673153 0.5446287 -0.1071877 0.01344123 0.6516892 0.7583669 9145496 female
-0.7021478 0.5495893 -0.1256138 0.351531 0.6232333 0.6985744 15724543 female
-0.7755379 -0.01785772 -0.2206652 -0.6983346 -0.3024595 -0.6487272 2302243 female
-0.809508 0.5085796 -0.3118882 -0.2230106 0.2650329 -0.9380958 15396607 female
-0.6426007 -0.5604128 -0.1967197 0.7529286 -0.1379724 0.6434766 2171682 female
-0.7484009 0.7189637 -0.1965004 0.9319981 -0.2433237 0.2686506 12429467 female
-0.6426184 -0.4962896 -0.1825937 0.536943 -0.1775116 0.8247315 2171428 female
-0.7379674 0.2719332 -0.0504068 0.4535508 0.181084 0.8726398 4539471 female
-0.6747856 0.59997 -0.1838581 0.3155367 0.5779566 0.7525974 11646908 female
-0.7865883 -0.02289239 -0.1193176 -0.9309909 -0.1899493 0.3117295 1907741 female
-0.7215465 0.03723391 -0.2817244 0.08556811 -0.5635169 -0.821661 2171945 female
-0.60721 0.01006321 -0.1744428 0.9944486 -0.05737506 -0.0882047 1776161 female
-0.6072221 0.2165647 -0.2088353 -0.3817438 -0.6181889 -0.6871057 6777194 female
-0.7186605 0.8744344 -0.2344065 0.9222834 0.353367 -0.1566046 2039327 female
-0.6531975 0.498894 -0.290826 -0.284639 -0.2515256 -0.9250489 13289426 female
-0.9241358 0.301505 -0.1046034 -0.7630039 0.23755 0.6011615 14146793 female
-0.9612188 -0.3067728 -0.07094116 0.04553723 -0.4368514 0.8983803 1776669 female
-1.048135 -0.6972016 -0.0684498 -0.9668952 0.2472359 -0.0631524 4274227 female
-0.6169149 0.03602499 -0.1217866 0.9219163 0.05896425 0.3828754 1973537 female
-0.5738676 0.02241675 -0.06926597 0.4365873 -0.231127 -0.8694664 12691366 female
-0.6011065 0.587464 -0.2334068 0.7409322 0.6693392 -0.05481158 8619406 female
-0.9472172 -0.5845351 -0.1824684 0.9921322 -0.0854484 -0.09149928 1973022 female
-0.6508372 -0.5740431 -0.1914473 0.541459 -0.06941191 0.8378569 2171172 female
-0.9193918 0.4092911 -0.11967 -0.7930019 -0.2593644 0.5512513 14343396 female
-0.7869259 0.6200674 -0.1548562 0.1177323 0.5592934 0.8205669 11974596 female
-0.9916284 -0.6234598 -0.1445782 -0.7936047 0.272985 0.5437562 2236968 female
-0.9794649 0.6133037 -0.2061499 -0.7117006 0.6596969 -0.2414173 11711421 female
-0.7804929 0.27241 -0.2725405 -0.1367766 0.19756 -0.9707019 15201279 female
-0.5983582 0.5601185 -0.2007709 0.629666 0.2871878 0.7218337 7369078 female
-1.004149 0.3944917 -0.2188213 -0.1832774 -0.2203097 -0.9580569 12897242 female
-0.9171012 -0.4331061 -0.1613344 0.9828249 -0.1843819 -0.007656248 1842720 female
-0.9189095 0.007916763 -0.2266831 -0.1579903 -0.5015291 -0.8505926 2895412 female
-0.7430912 0.5348215 -0.09899183 0.1013576 0.6532024 0.7503688 15659774 female
-0.6406469 -0.6160794 -0.2036828 0.9524251 0.02557304 0.303698 2369581 female
-0.6972965 -0.1081076 -0.2375422 -0.04711094 -0.08200745 -0.9955176 2106409 female
-1.040419 -0.6903374 -0.08540763 -0.5312321 0.847225 0.001504642 16309463 female
-0.8948516 0.3503666 -0.2553635 -0.5571325 -0.1887814 -0.808681 10330288 female
-0.9875745 -0.6531993 -0.1102892 -0.3014483 0.8286888 0.4715971 16774119 female
-0.673568 -0.09422892 -0.2361656 0.2494696 -0.06076018 -0.9664745 2171945 female
-0.6363562 -0.3172944 -0.1515787 0.717707 -0.1567938 0.6784633 2040353 female
