# .PCD v0.7 - Point Cloud Data file format
VERSION 0.7
FIELDS x y z normal_x normal_y normal_z rgb label
SIZE 4 4 4 4 4 4 4 4
TYPE F F F F F F U U
COUNT 1 1 1 1 1 1 1 1
WIDTH 170
HEIGHT 1
VIEWPOINT 0 0 0 1 0 0 0
POINTS 170
DATA ascii
-0.9610673 0.1376026 -0.201321 -0.8898845 0.1272304 -0.4380845 14079973 female
-0.6591959 0.1678287 -0.2626812 0.5979509 0.07780469 -0.7977476 9803174 female
-0.9398882 -0.4255784 -0.1076335 0.3208553 -0.2481611 0.9140394 2170913 female
-0.6107664 0.1161733 -0.04480653 -0.9048738 0.3354675 -0.2620399 12890545 female
-0.6555079 -0.3181454 -0.2430412 0.1057615 0.3277813 -0.9388152 2237738 female
-0.6658537 -0.1806469 -0.07876117 0.1637607 -0.252032 0.9537622 2171688 female
-0.8920419 0.3650424 -0.2346349 -0.670884 -0.2416848 -0.7010729 12172489 female
-0.9953825 -0.713567 -0.09029071 0.03031641 -0.9963841 -0.07937023 789772 female
-0.9230006 -0.5392634 -0.1714292 0.983388 -0.180815 0.01593388 1776929 female
-1.007506 0.185112 -0.03436973 0.9319408 -0.3584203 -0.05496686 12238536 female
-1.012344 0.4820193 -0.1833161 -0.9845009 0.08775248 -0.151847 10133932 female
-0.9416446 0.2616519 -0.1189973 -0.8557526 0.4127914 0.3119145 13753065 female
-0.9761916 -0.4694104 -0.2021932 -0.4028777 -0.04001071 -0.9143788 1973537 female
-0.9611765 0.3784537 -0.1378426 0.6873123 -0.06264122 0.7236559 15133945 female
-0.5668712 0.5365338 -0.2353642 0.8924845 0.2805082 -0.3532515 7698310 female
-0.6088971 -0.01307109 -0.09418441 0.8885397 -0.02773948 0.4579603 1973536 female
-0.9749722 0.1402151 0.1177066 0.362028 -0.8916191 0.2719394 6837327 female
-0.9298182 0.04160246 -0.02582552 -0.4263746 0.157149 0.8907911 2500651 female
-0.8789321 -0.236724 -0.08197801 0.8377517 -0.291955 0.4614481 2105120 female
-0.6593562 -0.5904753 -0.1797987 0.07953478 0.08912928 0.9928395 2434601 female
-0.9704947 0.4192454 -0.1285413 0.2814541 0.03405452 0.9589702 13288397 female
-0.9201067 0.4306994 -0.1177071 -0.8611888 -0.3421908 0.3758447 10987703 female
-1.053337 0.2256396 -0.06203789 -0.9961451 -0.07386712 -0.04731365 5397866 female
-0.653549 0.3446248 -0.1255846 0.8802941 0.1303194 0.4561788 3420469 female
-0.9240769 0.3817537 -0.1694454 -0.9985654 -0.04036964 -0.0351767 15001836 female
-0.5942888 0.4292206 -0.1824962 0.2402733 0.01487037 0.9705914 6578796 female
-0.709796 0.264595 -0.04153779 0.5596312 0.169074 0.8113118 14541554 female
-0.6866301 0.2257408 -0.2629437 0.3261169 0.3183764 -0.8901035 6514804 female
-0.7089999 0.8779842 -0.2498175 0.8268912 0.4198743 -0.3741076 2631463 female
-0.6999753 0.5098674 -0.06618962 0.1750132 0.5934783 0.7855915 10856115 female
-0.5426382 0.2568148 -0.197316 0.9108168 -0.1788179 -0.3720711 9013397 female
-0.6141437 -0.440316 -0.224475 0.9481027 -0.08493389 -0.3064108 1579553 female
-0.9353186 -0.03780314 -0.1925893 -0.3569278 -0.2246428 -0.9067184 2105896 female
-0.8844886 -0.2005133 -0.1519053 0.5896853 -0.1058901 -0.8006613 2171944 female
-0.6306921 -0.6752404 -0.2060302 0.9539304 0.1490999 -0.2603572 13087919 female
-0.8034429 0.8275818 -0.3006179 -0.3054446 -0.1334678 -0.9428096 14338761 female
-0.7123849 0.7791603 -0.1448922 0.9400221 -0.196642 0.2787299 16770774 female
-0.8905476 0.6574846 -0.234563 -0.5107353 0.7764425 -0.36917 11582152 female
-0.9231024 0.1665671 -0.06252508 -0.5209046 0.1934685 0.8314015 3552582 female
-0.7578604 0.5857731 -0.2971602 -0.2411081 0.2025078 -0.9491351 14739705 female
-0.6583296 -0.1536966 -0.07382306 0.2911079 -0.2512366 0.9231123 1842723 female
-0.7805876 0.3518091 -0.03478596 0.05483738 0.2347713 0.9705026 15067640 female
-0.8221559 0.07375329 -0.2703826 0.02293176 -0.4365051 -0.8994095 2435119 female
-0.7384843 0.2179715 -0.01898951 0.3430298 -0.01143394 0.9392549 12700887 female
-1.002714 0.5542427 -0.1560853 -0.8440667 0.3637329 0.3940174 7304056 female
-0.9153222 0.4107326 -0.1236404 -0.8875669 -0.2014236 0.4143109 13620448 female
-0.7214069 0.2724026 -0.2569462 0.1225624 0.1262111 -0.984403 15200255 female
-0.779451 -0.03490645 -0.1458726 -0.9843195 -0.1762816 0.006319082 3290426 female
-0.6006096 -0.05655222 -0.1482971 0.9918292 -0.1244484 -0.02805961 1908509 female
-0.6324326 0.6140032 -0.1920905 0.1953816 0.8218253 0.5351909 13422293 female
-0.8554883 0.1404812 -0.03787561 -0.2254515 -0.08123104 0.970862 15133438 female
-0.735189 0.7253443 -0.2277222 0.8058852 -0.1476216 -0.5733733 4866113 female
-0.6293745 0.4551062 -0.1583965 0.9817004 -0.1606605 0.1022383 6973546 female
-0.9494913 -0.3182847 -0.1885666 0.07869188 0.3318317 -0.9400507 2697774 female
-0.9645945 0.5307487 -0.231849 -0.2380208 -0.1313479 -0.9623377 9804198 female
-0.8238196 0.7154326 -0.2259264 -0.860316 0.167196 -0.4815618 10981510 female
-0.9328243 -0.1085767 -0.02440755 -0.2489598 -0.1143393 0.961741 2171944 female
-0.6399026 0.6019305 -0.1765706 0.1705403 0.6609738 0.7307733 16251135 female
-0.7576398 0.5349252 -0.08013942 0.06480062 0.6777833 0.7324007 14278121 female
-0.8830314 -0.04076872 -0.1980667 0.1366833 -0.2925887 -0.9464194 2500651 female
-0.7811527 0.7984048 -0.09851504 -0.9077148 0.19035 0.373926 13938601 female
-0.7092307 -0.1876209 -0.09094176 -0.5569506 -0.2596834 0.7889047 2170401 female
-0.8423205 0.3810906 -0.2646283 -0.201147 -0.2725294 -0.9408866 8288646 female
-0.9380224 -0.01798819 -0.02205021 -0.4363794 0.03231256 0.8991824 2368809 female
-0.626075 -0.2638306 -0.1266921 0.8632139 -0.151522 0.4815629 2171174 female
-0.9620369 -0.005738655 -0.1853757 -0.6759218 -0.2432299 -0.6956788 2500907 female
-0.7172449 0.4076222 -0.06981424 0.4463712 0.1389567 0.8839931 15200255 female
-0.6514408 0.3341096 -0.1272741 0.8927153 0.159919 0.4212902 13752800 female
-0.9900692 -0.3673011 -0.09951006 -0.6693688 -0.1151758 0.7339482 2565671 female
-0.6389523 -0.1984307 -0.09420259 0.6007383 -0.1940692 0.7755324 2170403 female
-0.7493692 0.144968 -0.02752657 0.3657567 -0.2540106 0.8953774 14541297 female
-0.9181245 -0.2174879 -0.1576615 0.1242587 -0.05923633 -0.9904801 2565419 female
-0.9877025 -0.6958331 -0.1713801 -0.3736635 -0.8914683 -0.2562414 789260 female
-0.8754714 -0.2507032 -0.09992649 0.9269474 -0.3010198 0.2239547 2038559 female
-0.955468 0.08962841 -0.2191695 -0.8045188 -0.008882107 -0.5938609 2565935 female
-1.047392 0.1232612 0.01427097 -0.7829925 -0.3428908 -0.518988 7171965 female
-0.9045492 -0.01775003 -0.2065941 -0.09244017 -0.332498 -0.9385626 2697516 female
-0.9861155 -0.6684266 -0.1998062 -0.9011061 0.2383681 -0.3621996 15124160 female
-0.6040907 0.2249478 -0.1442309 -0.8818095 0.1332911 0.4523776 7830410 female
-0.7489343 -0.06284969 -0.08187672 -0.720576 -0.2656332 0.6404757 1973534 female
-1.031904 0.2700565 -0.05768731 -0.2433677 0.5982034 0.7634951 14872823 female
-0.6305706 0.4828643 -0.1886217 0.9733633 -0.1878866 0.131387 14079966 female
-1.013592 0.3897839 -0.1339341 -0.5577885 0.2723688 0.7840199 14016221 female
-0.9811919 -0.366111 -0.09068006 -0.4678043 -0.1514232 0.8707641 2631464 female
-0.9497769 -0.3143849 -0.187149 0.07319713 0.3441733 -0.9360486 2697516 female
-0.9071983 0.4050427 -0.2252053 -0.8210899 -0.2625411 -0.5068368 5460312 female
-0.7489735 -0.1583572 -0.1531894 -0.9884527 -0.1512695 0.008869399 1775899 female
-0.5949837 0.03198288 -0.1332738 0.9830221 0.001995604 0.1834764 1974307 female
-0.7341027 0.8237375 -0.2895584 0.5929273 -0.1483768 -0.791468 3420972 female
-0.5904273 0.06249237 -0.01603904 -0.8969393 -0.3072957 -0.317914 8089191 female
-0.8461453 -0.04666968 -0.1824657 0.5569341 -0.3269791 -0.7634848 2498854 female
-0.8439909 0.1022193 -0.2802563 -0.0443246 -0.1732458 -0.9838806 5263457 female
-0.965488 -0.1738712 -0.04476994 -0.6634303 -0.07531259 0.7444382 2170657 female
-0.8986065 0.2891183 -0.2238098 -0.6171225 0.159022 -0.7706308 5524558 female
-0.7465575 -0.1758889 -0.1604054 -0.9927039 -0.1093577 -0.05079227 1710363 female
-0.6336327 0.2710618 -0.1677109 0.9617605 0.2689064 -0.0520206 14673128 female
-0.7078521 -0.2760656 -0.2044201 -0.5517817 0.05080904 -0.8324395 2170913 female
-0.7556182 0.4873851 -0.05488322 -0.004438388 0.2125307 0.9771444 15396603 female
-0.798165 0.03689991 -0.175969 0.7735818 -0.5758662 -0.2644791 1645081 female
-0.9317616 0.6305079 -0.1695127 -0.1729103 0.9002841 0.3994881 12894660 female
-0.6109419 -0.09279287 -0.1083713 0.9306 -0.1303711 0.3420336 1841953 female
-0.6367138 -0.6538407 -0.2283126 0.9151111 -0.01714513 -0.4028372 1842207 female
-0.9376339 -0.4048055 -0.1025953 0.3298342 -0.2505434 0.9101854 2170913 female
-0.5886972 0.5942051 -0.2167426 0.6893579 0.7214503 -0.06553639 10132378 female
-0.9177159 -0.2233501 -0.1568265 0.1436838 -0.06084524 -0.9877514 2500140 female
-0.9963488 0.2205277 -0.08950548 0.7929852 -0.5596798 -0.2406926 9474457 female
-0.5630165 0.4844928 -0.2163517 0.9840002 0.0142399 0.1775976 10725291 female
-0.9882718 -0.6208767 -0.1757039 -0.9917871 0.09341096 -0.08736558 2170913 female
-0.7456579 -0.1782871 -0.1718583 -0.9690344 -0.0767405 -0.2346983 1907741 female
-0.6909246 0.01968789 -0.04301139 0.03936528 0.01007669 0.9991741 2237481 female
-0.7348511 0.4410745 -0.2963266 0.02193855 -0.280322 -0.9596553 12237251 female
-0.7622905 0.7473681 -0.1014722 0.4088164 -0.06003287 0.9106399 16377313 female
-0.6806282 0.1506465 -0.277832 0.4488593 0.06069684 -0.8915387 12106953 female
-1.00785 -0.7030781 -0.1324787 -0.5468029 -0.7434812 -0.3850226 1051920 female
-0.7508097 0.6440685 -0.1586191 0.492643 0.2677323 0.8280231 14277095 female
-0.6200176 0.5377828 -0.2808699 0.29107 -0.1402295 -0.9463688 5658203 female
-0.8845358 -0.04276627 -0.1977629 0.1282576 -0.28775 -0.9490785 2500652 female
-0.6663366 0.5862631 -0.295337 0.3523718 0.2495936 -0.9019629 16185343 female
-0.8000606 0.7920383 -0.1074137 -0.2143548 0.0831082 0.9732137 16772576 female
-0.8668025 0.005944327 -0.02316688 0.3324975 -0.03384193 0.9424968 2171171 female
-0.647962 -0.5427467 -0.2497892 0.5078644 -0.1378743 -0.8503319 2302502 female
-0.8765675 0.5285779 -0.07117593 -0.3377818 0.6004297 0.7248363 5724514 female
-0.8810174 -0.2452997 -0.136036 0.7981483 -0.2188232 -0.5613161 2105124 female
-0.7684205 0.3008719 -0.0288461 0.1212439 0.1447488 0.9820121 7434876 female
-0.6026952 0.1070335 -0.001202052 0.6010288 0.502224 0.6217197 14727601 female
-0.9347557 0.5032845 -0.1427961 0.6748511 -0.3294707 0.6603219 15725559 female
-0.7299411 0.2929891 -0.03623583 0.4080234 0.165318 0.8978791 11053494 female
-0.6475025 0.5346936 -0.1405146 0.7022867 0.1200997 0.7016904 9343641 female
-0.9521352 -0.6717669 -0.07961338 0.5981148 0.6763691 0.4298647 15060420 female
-0.7216414 0.4516785 -0.2993385 0.07269346 -0.287238 -0.9550968 15725567 female
-0.7833377 0.5451602 -0.08927219 0.2159362 0.6607404 0.7188837 3419956 female
-0.6902536 0.557403 -0.1151404 0.3098898 0.6274096 0.7143707 2697265 female
-0.7617419 -0.01593401 -0.2088 -0.6866943 -0.2785754 -0.6714512 2302243 female
-0.7796457 0.5048532 -0.3028468 -0.2544619 0.1552253 -0.954544 13618138 female
-0.637377 -0.56169 -0.1893395 0.7346549 -0.1490948 0.6618557 2171682 female
-0.7313759 0.7196701 -0.1840725 0.9231085 -0.2373271 0.3025666 12429467 female
-0.6545522 -0.4276314 -0.1556433 0.03509547 -0.2052492 0.9780803 2171431 female
-0.7261977 0.2720478 -0.03357696 0.4321335 0.1786378 0.8839395 4539471 female
-0.6634539 0.5981562 -0.1636221 0.2962195 0.5741888 0.763257 10987956 female
-0.7850158 0.01274286 -0.1276541 -0.9905291 -0.06114563 0.1229358 2169889 female
-0.7158665 0.05026929 -0.2741747 0.06405418 -0.4457378 -0.8928689 2368300 female
-0.5943193 0.00837307 -0.1582439 0.9953246 -0.07086553 -0.06562781 1776161 female
-0.6094915 0.2317244 -0.191588 -0.8385389 -0.4166808 -0.3510406 13553880 female
-0.6964791 0.8631121 -0.2071887 0.9839299 0.1762183 0.02879425 2368292 female
-0.622806 0.4862347 -0.2778184 -0.1048791 -0.1024489 -0.9891939 12828875 female
-0.9125007 0.2864769 -0.08753465 -0.7532622 0.292057 0.5893205 9145493 female
-0.9577563 -0.3161869 -0.07532229 -0.1869116 -0.2713439 0.9441592 2301987 female
-1.030037 -0.6937796 -0.0607888 -0.3674105 0.9162129 0.1598861 11179407 female
-0.604888 0.03335017 -0.1052423 0.9132096 0.03676785 0.4058279 1973537 female
-0.5597763 0.03691554 -0.0558178 0.9344807 -0.1411934 -0.3268185 16574943 female
-0.5777995 0.5716637 -0.2309737 0.7677551 0.5237129 -0.3691572 14081007 female
-0.932767 -0.6064938 -0.1724993 0.9857247 0.02006943 -0.1671644 2105893 female
-0.6546984 -0.5211092 -0.1750689 0.09607593 -0.1549259 0.9832433 2499878 female
-0.9138628 0.3921026 -0.1234539 -0.9039899 0.009415327 0.4274501 12369863 female
-0.7583285 0.6235114 -0.1444631 0.1439448 0.5485567 0.8236294 15263984 female
-0.9678533 -0.6440437 -0.1127858 -0.2644089 0.7392582 0.6193426 5196879 female
-0.967634 0.6140481 -0.1873432 -0.6685695 0.7288316 -0.1477135 12303039 female
-0.7630913 0.2730319 -0.256793 -0.1116573 0.2008935 -0.9732289 15201279 female
-0.5974692 0.5799813 -0.1766801 0.4502255 0.3951564 0.8007175 9802653 female
-0.9855361 0.395618 -0.2126886 -0.1529547 -0.2213925 -0.9631149 12897242 female
-0.9016356 -0.4357562 -0.1564335 0.9825794 -0.1855116 0.01109536 1842720 female
-0.9032128 0.009699845 -0.2178867 -0.135996 -0.485852 -0.8633961 2895412 female
-0.7366679 0.5292044 -0.07784639 0.04647987 0.6291358 0.7759045 10395047 female
-0.6332784 -0.5871511 -0.2163437 0.9759617 -0.133047 -0.1726186 1578779 female
-0.6850158 -0.1070001 -0.2261824 -0.02492671 -0.05895316 -0.9979495 2106409 female
-1.025578 -0.6962394 -0.0397808 -0.4912111 0.8523691 0.1793842 1183759 female
-0.8705041 0.3375088 -0.2452279 -0.4337141 -0.1647302 -0.8858645 15398143 female
-0.9924664 -0.6829815 -0.06605791 -0.2921003 0.9091735 0.2967842 16506325 female
-0.6610827 -0.09355678 -0.2239204 0.2712659 -0.04333258 -0.9615285 2171945 female
-0.6295172 -0.3188834 -0.1431126 0.6980844 -0.1704131 0.6954406 2040353 female
