# .PCD v0.7 - Point Cloud Data file format
VERSION 0.7
FIELDS x y z normal_x normal_y normal_z rgb label
SIZE 4 4 4 4 4 4 4 4
TYPE F F F F F F U U
COUNT 1 1 1 1 1 1 1 1
WIDTH 170
HEIGHT 1
VIEWPOINT 0 0 0 1 0 0 0
POINTS 170
DATA ascii
-0.8675067 0.1359983 0.8382332 -0.8063188 0.09459414 -0.583868 8618891 female
-0.5474064 0.1558515 0.8463501 0.8252505 0.06258368 -0.5612885 11121347 female
-0.8831027 -0.4702916 0.9170113 -0.3915418 -0.2329099 0.8901954 2171174 female
-0.5574203 0.1032107 1.069459 -0.9211541 -0.2023299 -0.3324722 13285294 female
-0.5385972 -0.5522957 0.8903251 0.7969285 -0.1738392 0.5785195 2171937 female
-0.6386094 -0.1932568 0.9811876 -0.7282319 -0.2594902 0.6343052 2170913 female
-0.7997913 0.3700812 0.8110451 -0.4975705 -0.2706047 -0.8241339 15199223 female
-0.9214604 -0.7210536 0.9598821 -0.1020997 -0.9938617 0.0425966 526344 female
-0.8281697 -0.1695469 1.007586 0.1893086 -0.2246115 0.9558828 2039072 female
-0.9408857 0.2237807 0.9372519 0.2868954 -0.7763758 -0.5611876 10921901 female
-0.9355575 0.4829488 0.8670975 -0.9919226 0.1265834 0.008128298 7829376 female
-0.8666376 0.2558071 0.9269033 -0.9020016 0.3892397 0.1867767 13753065 female
-0.8828412 -0.475273 0.8314705 -0.4898196 -0.06271102 -0.8695654 2170401 female
-0.9155293 0.3753844 0.9166722 0.05674763 0.1027322 0.993089 8224648 female
-0.4884357 0.5050241 0.8367061 0.78623 0.1147984 -0.6071768 11251386 female
-0.5452476 0.0557156 1.005741 0.7225193 0.09919834 0.684197 2171430 female
-0.9388505 0.1458351 1.151883 -0.372107 -0.9272629 0.04147139 6771534 female
-0.8620004 0.0316978 1.017438 -0.5565271 0.1120636 0.8232371 2500651 female
-0.7878932 -0.2605066 0.9389806 0.8977762 -0.3000813 0.3224114 2169889 female
-0.5693842 -0.6139135 0.902867 0.02307459 0.2293931 0.9730603 2499110 female
-0.8801686 0.3987914 0.9022908 0.7056662 -0.09345505 0.7023541 13224148 female
-0.8497986 0.4284973 0.9282065 -0.9012225 -0.3458445 0.2611313 10987703 female
-0.9869059 0.2087813 0.9854302 -0.8928386 -0.2958085 -0.3396123 13028569 female
-0.5829179 0.347145 0.9591389 0.8054836 0.1602842 0.5705305 3420469 female
-0.845736 0.3773317 0.877596 -0.9832891 -0.06159564 -0.1713144 15001836 female
-0.5176864 0.3945058 0.9116053 -0.05112632 0.04594196 0.9976349 15725047 female
-0.6362053 0.2693214 1.0287 0.5037849 0.1979754 0.8408368 6184287 female
-0.5941328 0.2146139 0.8135349 0.4196948 0.2965634 -0.8578498 8750234 female
-0.6203678 0.8733211 0.8143726 0.8754789 0.4015196 -0.2689213 2631463 female
-0.710999 0.4048879 1.014838 -0.01319614 0.3561758 0.9343258 6184292 female
-0.4879945 0.2507624 0.8786591 0.364102 -0.5298654 -0.7659454 11909053 female
-0.5188468 -0.438119 0.8667559 0.9854183 -0.07511102 -0.1526732 1579553 female
-0.8408096 -0.04154377 0.8496027 -0.2137629 -0.2007148 -0.9560435 2105896 female
-0.7906075 -0.2050921 0.8897901 0.6996263 -0.0714873 -0.7109237 2171944 female
-0.5311974 -0.6822996 0.9027876 0.920371 0.3812444 -0.08700559 12493985 female
-0.7074699 0.8219221 0.7526557 -0.1745036 -0.1628058 -0.9711038 14338761 female
-0.6378047 0.7570874 0.9020589 0.9377062 -0.2759195 0.2111293 16048595 female
-0.7984942 0.6495806 0.8005384 -0.3823214 0.6615102 -0.6451624 13293286 female
-0.8490192 0.1472066 0.9920928 -0.556893 0.2364829 0.7962073 14015981 female
-0.6724678 0.5663826 0.7680394 -0.1455486 0.1347462 -0.9801322 12830678 female
-0.587696 -0.1534327 1.01208 0.1482592 -0.2510791 0.9565451 1842723 female
-0.7212799 0.3525929 1.031385 -0.08567137 0.2511469 0.9641502 15067640 female
-0.721583 0.0724537 0.7932157 0.1641741 -0.4262431 -0.8895862 2435119 female
-0.6815388 0.1964457 1.053863 0.1998659 -0.141775 0.969512 4734801 female
-0.9213726 0.5716567 0.8560986 -0.8205947 0.5289837 -0.2163346 4934995 female
-0.8439482 0.4080404 0.9234652 -0.9334395 -0.2075506 0.2925979 13620448 female
-0.6210146 0.2690748 0.8232378 0.3258272 0.1639865 -0.9310989 13752817 female
-0.6850263 -0.08151956 0.9294084 -0.9640687 -0.2553683 -0.07320334 2237218 female
-0.5196405 -0.05583311 0.9471803 0.9852395 -0.1189614 0.1230905 1908509 female
-0.5692247 0.6130639 0.8929964 0.1161077 0.7589727 0.6406866 15922171 female
-0.7895725 0.1351232 1.01897 -0.3613425 -0.1057595 0.926416 15133438 female
-0.6379245 0.7541707 0.8425258 0.9032413 -0.3756795 -0.207413 3551790 female
-0.5523826 0.4568386 0.9024361 0.9768863 -0.1293343 0.1701931 13816538 female
-0.8666139 -0.346851 0.8344871 -0.09426621 0.2619071 -0.9604783 2434089 female
-0.914512 0.5441842 0.8259084 -0.639158 0.2389171 -0.7310237 9078681 female
-0.7391888 0.7124767 0.8273035 -0.7845545 0.1559194 -0.6001362 10981510 female
-0.8602398 -0.118571 1.012797 -0.3826052 -0.1584431 0.9102247 2171944 female
-0.5694632 0.5931903 0.9125096 0.05521883 0.5767916 0.8150229 14540519 female
-0.6783751 0.5377765 0.9837027 -0.05959149 0.683064 0.7279235 15660798 female
-0.8163776 0.01385233 0.8267407 -0.1200954 -0.4879505 -0.8645701 3157808 female
-0.7073538 0.8192974 0.9475982 -0.798846 0.4717125 0.3732726 14138543 female
-0.5291824 -0.2025343 0.9384056 0.9912043 -0.02598565 0.1297642 1777185 female
-0.7894055 0.4097806 0.7950935 -0.3710109 -0.3643383 -0.8541712 2698546 female
-0.8512729 -0.03685267 1.025321 -0.3109961 -0.05968614 0.9485353 2500142 female
-0.5666906 -0.2671067 0.9823933 0.4222136 -0.3039388 0.8540239 2170402 female
-0.8692869 -0.0106259 0.8539185 -0.5598388 -0.2373936 -0.793867 2500907 female
-0.6419505 0.4032291 1.00024 0.4458342 0.1981942 0.872898 15724543 female
-0.5860177 0.3283214 0.9692175 0.7584929 0.206214 0.6181945 6183780 female
-0.9017725 -0.3752498 0.9266487 -0.7594786 -0.1067715 0.6417103 2565671 female
-0.5652807 -0.1981833 0.995057 0.4760582 -0.19402 0.857744 2170403 female
-0.7004421 0.1246712 1.041731 0.1166975 -0.3265384 0.9379522 15199223 female
-0.8225792 -0.2233162 0.8782747 0.2637416 -0.03772563 -0.9638554 2565419 female
-0.8901406 -0.691221 0.8351473 -0.8547275 -0.1892385 -0.4833525 10389125 female
-0.7906124 -0.2171344 0.9647771 0.8060612 -0.2614485 0.530952 1841436 female
-0.8564798 0.0837937 0.8202738 -0.6759819 -0.02904297 -0.7363456 2434093 female
-0.9936863 0.1633257 1.07205 -0.9105493 0.2481038 0.3306726 7699066 female
-0.817109 0.001768814 0.8331754 -0.06905456 -0.4131826 -0.9080263 2566447 female
-0.8963228 -0.6727044 0.856097 -0.9063928 0.2196557 -0.3608373 14862529 female
-0.5206857 0.183959 0.9962129 -0.7786896 0.3962166 0.4864718 7633286 female
-0.6602638 -0.07377587 1.005405 -0.6598883 -0.2603141 0.704829 2105635 female
-0.9625148 0.2676593 0.9891085 -0.1076723 0.6316134 0.7677703 10396585 female
-0.5507748 0.4767093 0.8775041 0.9285342 -0.2905621 0.23108 13026505 female
-0.9505937 0.396449 0.8896891 -0.8974589 0.3150509 0.3087238 12042183 female
-0.8941169 -0.3739756 0.9365391 -0.577596 -0.141747 0.8039221 2631464 female
-0.8699667 -0.3470385 0.8342531 -0.1509804 0.2589839 -0.9540085 2302505 female
-0.821977 0.4004127 0.8241588 -0.7398717 -0.2866136 -0.6086399 5460312 female
-0.671958 -0.1043316 0.9017954 -0.8925048 -0.2250569 -0.3908767 2170913 female
-0.5165741 0.03307208 0.9627804 0.9441472 0.009860653 0.3293764 1974307 female
-0.6403527 0.8179519 0.7732896 0.694418 -0.1779578 -0.6972193 3420972 female
-0.5467861 0.03111407 1.121078 -0.8116884 -0.1779354 -0.5563281 6707029 female
-0.7538587 -0.04836776 0.8725057 0.6718094 -0.2841715 -0.6840459 2498854 female
-0.742624 0.1000507 0.7805074 0.1020184 -0.166407 -0.9807655 5263457 female
-0.8697671 -0.1568456 1.002497 -0.4785869 -0.1635615 0.8626716 2172969 female
-0.810011 0.2841823 0.8290927 -0.5062995 0.1362739 -0.8515223 5524558 female
-0.6651716 -0.1451157 0.9064263 -0.9323289 -0.1575153 -0.3255021 2105120 female
-0.5532074 0.2657351 0.9281953 0.9253991 0.350485 0.1442108 8027774 female
-0.6076384 -0.2479856 0.8718071 -0.1982119 -0.004498841 -0.9801489 2565677 female
-0.7208468 0.5043156 1.005152 0.06899831 0.4092537 0.909808 15461623 female
-0.7188224 0.01470442 0.9072071 0.9517748 -0.2820762 -0.1206551 1645342 female
-0.8592544 0.6271206 0.87459 -0.2081315 0.9153808 0.3446147 11117481 female
-0.5358571 -0.0922056 0.985096 0.8683008 -0.1260655 0.4797512 1841953 female
-0.5390142 -0.6517027 0.8547806 0.9687982 -0.008969665 -0.2476886 1842207 female
-0.8495318 -0.4128402 0.9308866 0.207731 -0.2405984 0.9481351 2170913 female
-0.5222732 0.6025531 0.8871033 0.4928495 0.7953205 0.3529373 9343126 female
-0.822202 -0.2293821 0.8789918 0.2818456 -0.04139561 -0.9585663 2500140 female
-0.9232829 0.24094 0.929073 0.7071617 -0.6347199 -0.3115332 13816027 female
-0.4872557 0.4839001 0.892391 0.8275858 0.02075217 0.5609556 8817806 female
-0.8918747 -0.6375237 0.8674095 -0.9888275 0.149057 -0.001461593 1710882 female
-0.6621144 -0.1312499 0.8947513 -0.8548621 -0.172559 -0.4893201 2170657 female
-0.573772 -0.04435015 1.028203 0.3984334 -0.09819149 0.9119262 2039589 female
-0.6216767 0.4374894 0.7809801 0.2664413 -0.3359508 -0.9034081 8817042 female
-0.6797074 0.7310718 0.9472983 0.6177518 -0.44764 0.64653 15982546 female
-0.5826321 0.152313 0.8063059 0.5698823 0.07674452 -0.8181347 12106953 female
-0.9211686 -0.7002128 0.8935527 -0.8627044 0.0443964 -0.503756 10917005 female
-0.6400797 0.6634971 0.8659739 0.7743571 0.4932294 0.3963531 12363155 female
-0.5171781 0.5629329 0.820997 0.6616877 0.2500279 -0.7068631 6973303 female
-0.7897136 -0.0449757 0.8519001 0.2739803 -0.249656 -0.9287662 2500652 female
-0.5605279 0.541242 0.7891136 0.487763 -0.149459 -0.8600867 13817830 female
-0.7414495 0.7779052 0.9392852 -0.6675218 -0.06515452 0.7417342 16770006 female
-0.8198055 -0.004431747 1.030653 -0.005344043 -0.0316936 0.9994833 2172712 female
-0.5481793 -0.5271319 0.8320503 0.5586647 -0.1041658 -0.8228264 2697264 female
-0.8283539 0.5172794 0.9757462 -0.6239772 0.5071433 0.5945234 14935794 female
-0.7889013 -0.2375116 0.8987012 0.8069723 -0.1251703 -0.5771725 2236967 female
-0.7086917 0.3014413 1.040075 -0.02060955 0.1588785 0.987083 7434876 female
-0.5414708 0.1087347 1.085961 0.4398882 0.5369848 0.7198234 16175807 female
-0.8581544 0.495409 0.893544 0.7376153 -0.2979083 0.6059491 9277338 female
-0.6694051 0.2943922 1.038227 0.274422 0.1865101 0.9433486 11053494 female
-0.5612218 0.5123742 0.916068 0.7879324 -0.3624436 0.4977923 3815741 female
-0.8642117 -0.7113854 0.9749516 0.9199018 -0.3189454 0.2281547 6180688 female
-0.6438334 0.4715467 0.7654763 0.09856249 -0.241206 -0.9654559 15199231 female
-0.7345241 0.5385829 0.9839681 0.0822654 0.6789076 0.7296005 15396344 female
-0.6104496 0.5170972 0.9934331 0.3591852 0.6179667 0.6993592 13357531 female
-0.6824519 -0.01789847 0.8749593 -0.7289648 -0.211794 -0.6509637 2237224 female
-0.6775611 0.4896768 0.7608802 -0.04355151 -0.06110281 -0.9971809 15463935 female
-0.5666363 -0.3099832 0.8447505 0.09810311 0.361027 -0.9273809 2237738 female
-0.6540619 0.7029961 0.8812404 0.8468168 -0.09747656 0.5228764 14993595 female
-0.5697899 -0.4270943 0.9284897 -0.1204593 -0.2267 0.9664867 2171431 female
-0.6525832 0.2769869 1.035744 0.4109974 0.2009211 0.8892198 14342371 female
-0.5334698 0.5980048 0.903731 0.2694471 0.6628845 0.6985573 9869474 female
-0.6987659 -0.01242392 0.9744603 -0.9523025 -0.1627082 0.2581589 2434085 female
-0.6476172 0.0705928 0.7925115 0.03042877 -0.3178684 -0.9476464 2303019 female
-0.5119739 0.00949916 0.9381754 0.9944072 -0.06244051 0.08517937 1776161 female
-0.5371504 0.2581491 0.9030298 -0.9927675 -0.1199189 -0.005685044 14540526 female
-0.6175514 0.8724337 0.8620546 0.9309833 0.3320635 0.1516702 2895145 female
-0.5165352 0.4745892 0.8146114 0.3368448 -0.04100441 -0.9406669 13620191 female
-0.8446259 0.2869776 0.9553338 -0.8664361 0.2618924 0.4250891 7960958 female
-0.8629876 -0.297913 0.9730806 -0.1174646 -0.5067 0.8540826 2499110 female
-0.9394606 -0.7009323 0.9799569 -0.2891187 0.952204 0.09857916 14271422 female
-0.5306371 0.05701806 0.9863623 0.8416741 0.07939018 0.5341179 1776675 female
-0.5019954 -0.002524329 1.056418 0.82185 -0.03596636 0.5685675 15255487 female
-0.5074357 0.5880679 0.860778 0.7323624 0.6383026 -0.2370976 13554654 female
-0.834405 -0.5883605 0.8464079 0.9604512 -0.1024157 -0.2589296 2301990 female
-0.5714042 -0.5086412 0.9086374 -0.1773316 -0.1869287 0.9662355 2301987 female
-0.8421653 0.3889847 0.9242859 -0.954197 7.227863E-05 0.2991789 12369863 female
-0.6684335 0.6310908 0.9095519 0.2546108 0.6217532 0.7406729 15396082 female
-0.8743436 -0.6703159 0.9461294 0.2172725 0.8184242 0.5319535 15848392 female
-0.8866948 0.6137989 0.8492181 -0.6294602 0.7343048 -0.2541189 12303039 female
-0.6708438 0.2716582 0.8155495 0.02088023 0.1937673 -0.9808253 15201279 female
-0.5029542 0.5713453 0.8996552 0.6283144 0.4559506 0.6303412 13028813 female
-0.9179049 0.4075633 0.8308637 -0.40787 -0.1160532 -0.9056345 5589847 female
-0.8065177 -0.4464598 0.8759232 0.9844424 -0.175329 -0.01153141 2040358 female
-0.8399868 0.03579829 0.8233871 -0.4169069 -0.3769065 -0.8271216 2631465 female
-0.6494055 0.5383562 0.9829843 0.05443788 0.6848525 0.7266455 12765138 female
-0.5395673 -0.5887485 0.875801 0.9702157 -0.1229947 0.2086954 1578523 female
-0.5831929 -0.09071197 0.8584985 0.2337586 -0.05239613 -0.9708818 2106409 female
-0.9351493 -0.697856 0.9607369 -0.2634869 0.9547855 0.1376928 15781830 female
-0.7807774 0.3326267 0.8110316 -0.30141 -0.1885758 -0.934661 15398143 female
-0.8876863 -0.6337796 0.8870458 -0.9279538 0.2270069 0.2955837 2302502 female
-0.5712544 -0.1266779 0.8629809 0.3561499 -0.05711149 -0.9326819 2171688 female
-0.5552933 -0.322928 0.9498858 0.4247499 -0.2347964 0.874333 1908773 female
