# .PCD v0.7 - Point Cloud Data file format
VERSION 0.7
FIELDS x y z normal_x normal_y normal_z rgb label
SIZE 4 4 4 4 4 4 4 4
TYPE F F F F F F U U
COUNT 1 1 1 1 1 1 1 1
WIDTH 170
HEIGHT 1
VIEWPOINT 0 0 0 1 0 0 0
POINTS 170
DATA ascii
-0.8729643 0.1387132 0.8259779 -0.8268651 0.1014638 -0.5531719 8618891 female
-0.5525807 0.1548814 0.8219057 0.804187 0.05077552 -0.5922037 11121347 female
-0.8932301 -0.4662665 0.9066482 -0.3567909 -0.2403036 0.9027482 2171174 female
-0.5525954 0.1218563 1.048554 -0.8926219 0.3590073 -0.2726536 14009278 female
-0.5499391 -0.5527889 0.8682647 0.8201727 -0.182908 0.5420898 2171937 female
-0.6419142 -0.1924881 0.9626011 -0.7047182 -0.2483742 0.664592 2170913 female
-0.8032036 0.3722985 0.795469 -0.528347 -0.2634853 -0.8071089 15199223 female
-0.9429665 -0.7139091 0.9702021 -0.2169666 -0.9754153 0.0386075 526344 female
-0.8313556 -0.1661507 0.9966017 0.2254532 -0.2211659 0.9488184 2039072 female
-0.9417973 0.2276796 0.9297117 0.2715563 -0.7927662 -0.5456913 10921901 female
-0.9357259 0.4851322 0.8557011 -0.9907988 0.1320255 0.02978259 7829376 female
-0.8673636 0.2588344 0.9138522 -0.8898912 0.400231 0.2188808 13753065 female
-0.8965283 -0.4701987 0.8210977 -0.5256861 -0.04773432 -0.8493383 2170401 female
-0.915107 0.3779108 0.9057035 0.07972243 0.1122235 0.9904798 8224648 female
-0.4852899 0.5158085 0.8217881 0.8694053 0.1616878 -0.4668955 12434634 female
-0.5372293 -0.01247224 0.9752045 0.8312626 -0.02671376 0.5552376 1973536 female
-0.9314597 0.1543436 1.153663 0.008847478 -0.9929456 0.1182399 7363671 female
-0.8617454 0.0357265 1.005881 -0.5206538 0.1268108 0.8442977 2500651 female
-0.7952593 -0.257873 0.9271458 0.9065732 -0.3112546 0.2850362 2169889 female
-0.5808823 -0.6140121 0.8821749 0.06968067 0.2299597 0.9707024 2499110 female
-0.8799673 0.4009917 0.8903725 0.721025 -0.09096401 0.6869122 13224148 female
-0.848637 0.4307877 0.9141642 -0.8953834 -0.3380779 0.2898137 10987703 female
-0.9872947 0.2143415 0.9788712 -0.9002659 -0.2949641 -0.3201835 13028569 female
-0.5816867 0.3466799 0.9359972 0.8264267 0.1498945 0.5427252 3420469 female
-0.8467583 0.3798712 0.8635313 -0.9890961 -0.05095653 -0.1381754 15001836 female
-0.5170394 0.3954161 0.8909826 -0.03001649 0.0658242 0.9973797 15725047 female
-0.6333056 0.2696395 1.007077 0.5363095 0.1923581 0.8218093 6184287 female
-0.5980695 0.226519 0.7973365 0.4129993 0.3212112 -0.8522059 6514804 female
-0.6196626 0.8739039 0.7936901 0.8690907 0.3961092 -0.2962751 2631463 female
-0.7072203 0.4057857 0.9962042 0.02169934 0.3548242 0.9346812 6184292 female
-0.4634951 0.2535958 0.8891832 0.9288476 -0.2305418 -0.2899873 13158615 female
-0.529901 -0.4388632 0.8438355 0.9766245 -0.086538 -0.1967629 1579553 female
-0.8484828 -0.03910247 0.8378501 -0.2555193 -0.2049307 -0.9448351 2105896 female
-0.7992416 -0.2027833 0.8778483 0.6690867 -0.08351895 -0.7384765 2171944 female
-0.5498801 -0.6739445 0.855265 0.9790466 0.145479 -0.1424905 13087919 female
-0.7091529 0.8234295 0.7346758 -0.2077964 -0.157065 -0.9654797 14338761 female
-0.6343764 0.7584845 0.8782464 0.9467505 -0.2815479 0.1561868 15851728 female
-0.7998388 0.6511143 0.7846359 -0.3979358 0.6628359 -0.6342679 13293286 female
-0.8483641 0.1505507 0.9791319 -0.5219869 0.2485417 0.8159391 14015981 female
-0.6746262 0.5911574 0.7519868 -0.1136089 0.1732437 -0.9783044 14541555 female
-0.5894836 -0.1529445 0.991087 0.1835855 -0.2463224 0.9516415 1842723 female
-0.7173943 0.3535466 1.012966 -0.04924367 0.2503795 0.9668946 15067640 female
-0.7296202 0.07317929 0.7757678 0.124975 -0.4326174 -0.8928737 2435119 female
-0.67835 0.1977742 1.034121 0.2343529 -0.1407295 0.9619116 4734801 female
-0.9214075 0.5736538 0.8437907 -0.823692 0.5312622 -0.1982223 4934995 female
-0.8431264 0.4103597 0.9092718 -0.9252664 -0.1991035 0.322862 13620448 female
-0.6255926 0.2690285 0.8012002 0.293425 0.1584762 -0.9427551 13752817 female
-0.6893322 -0.08062398 0.9117235 -0.9686244 -0.2462668 -0.03345941 2237218 female
-0.5231434 -0.05645207 0.9228247 0.9881346 -0.1278629 0.08509431 1908509 female
-0.5682658 0.6134499 0.8702542 0.1362861 0.7615877 0.6335694 15922171 female
-0.7881105 0.1378 1.003733 -0.3260528 -0.0959101 0.9404737 15133438 female
-0.6371686 0.7547319 0.8219069 0.8928134 -0.3820792 -0.2385366 3551790 female
-0.5592062 0.4472484 0.8093469 0.8523111 -0.3649631 -0.3746568 13553878 female
-0.8790198 -0.342053 0.8250545 -0.1312153 0.2736447 -0.9528384 2434089 female
-0.9153991 0.545932 0.8135807 -0.656144 0.2367822 -0.7165258 9078681 female
-0.7391863 0.713858 0.8098456 -0.8021168 0.1641463 -0.5741643 10981510 female
-0.8624006 -0.1145735 1.002576 -0.3471041 -0.1456345 0.9264498 2171944 female
-0.5681015 0.5936701 0.889853 0.07895183 0.5807403 0.8102514 14540519 female
-0.6748338 0.5386047 0.9641534 -0.03250891 0.6833903 0.729329 15660798 female
-0.8240569 0.01581783 0.8135039 -0.1612221 -0.4918635 -0.8556154 3157808 female
-0.7072068 0.8115155 0.9304122 -0.6996974 0.4050738 0.5885055 14731450 female
-0.5343491 -0.1977835 0.9039155 0.9962187 -0.02098913 -0.08430678 2170921 female
-0.792766 0.4117422 0.779183 -0.4022399 -0.3596064 -0.8419539 2698546 female
-0.851711 -0.03287435 1.01395 -0.2725534 -0.04734232 0.9609752 2500142 female
-0.5706399 -0.2671713 0.961384 0.4548122 -0.3057587 0.8364553 2170402 female
-0.8762798 -0.00772173 0.843093 -0.5949553 -0.2349562 -0.7686507 2500907 female
-0.6387461 0.4034784 0.9793329 0.4764079 0.192374 0.8579206 15724543 female
-0.5846561 0.3278478 0.9460514 0.7819901 0.1962796 0.5915791 6183780 female
-0.9106197 -0.3711817 0.9182057 -0.7335088 -0.1075245 0.6711211 2565671 female
-0.5681406 -0.1980734 0.9735461 0.5081697 -0.1938559 0.8391563 2170403 female
-0.6862253 0.153265 1.027243 0.252045 -0.2261234 0.9409259 12303563 female
-0.8319353 -0.2203589 0.8679101 0.2233818 -0.04127976 -0.9738565 2565419 female
-0.8975688 -0.7024287 0.852802 -0.0761356 -0.9873687 -0.1389478 789772 female
-0.7963346 -0.2145656 0.9528613 0.8237043 -0.2707243 0.4982164 1841436 female
-0.8633018 0.08630738 0.8079686 -0.7041753 -0.02440587 -0.7096065 2434093 female
-0.9948069 0.1640802 1.067162 -0.954713 0.1808681 0.2362408 13885410 female
-0.8247437 0.003772298 0.8200812 -0.1112901 -0.4184056 -0.9014162 2566447 female
-0.9097294 -0.6788985 0.8326831 -0.9206341 0.1235802 -0.3703523 11705240 female
-0.5173934 0.1710179 1.003462 -0.6504899 0.5201101 0.5534873 14674677 female
-0.6615204 -0.0726004 0.986663 -0.6341021 -0.2489925 0.7320637 2105635 female
-0.9622697 0.2730232 0.9807466 -0.09081558 0.6512088 0.7534452 10396585 female
-0.5498446 0.4726748 0.8367356 0.9166027 -0.3949847 0.06185861 10132382 female
-0.9328679 0.3762755 0.9027249 -0.2718132 0.2653588 0.9250418 14740469 female
-0.9025531 -0.3700913 0.9277886 -0.5454481 -0.1460132 0.8253281 2631464 female
-0.8823808 -0.3422062 0.8249553 -0.1876482 0.2711715 -0.9440625 2302505 female
-0.8244679 0.4026613 0.8093037 -0.7621702 -0.2785834 -0.5843697 5460312 female
-0.6775738 -0.1037489 0.8838065 -0.9093511 -0.2187979 -0.3538476 2170913 female
-0.5186544 0.0324733 0.9376654 0.9564104 0.002347944 0.2920165 1974307 female
-0.6414235 0.8188704 0.7530627 0.6695785 -0.1801528 -0.720562 3420972 female
-0.5400224 0.05751171 1.102229 -0.9174417 -0.165177 -0.3619631 10458507 female
-0.7607674 -0.04704501 0.8572346 0.6392885 -0.2993619 -0.7083027 2498854 female
-0.7507604 0.1010428 0.7637275 0.0628148 -0.1719097 -0.983108 5263457 female
-0.872917 -0.1528883 0.9930432 -0.4451403 -0.1505734 0.8827105 2172969 female
-0.814051 0.286393 0.8138853 -0.5354097 0.1415792 -0.8326415 5524558 female
-0.6673754 -0.1753593 0.895465 -0.9810508 -0.1054906 -0.1625144 1710363 female
-0.5560847 0.2730367 0.8974375 0.9575547 0.2845768 0.04588071 14673128 female
-0.6160215 -0.2479491 0.8525666 -0.2394755 -0.005324919 -0.9708878 2565677 female
-0.7031602 0.5031165 0.9872338 -0.009736593 0.3943459 0.9189104 14738420 female
-0.7139729 0.03962805 0.8563681 0.2820427 -0.9287045 -0.2407484 1842204 female
-0.8585746 0.6289434 0.8604131 -0.1950375 0.9171233 0.3476281 11117481 female
-0.5381911 -0.09239627 0.9616168 0.8852852 -0.1313816 0.4461042 1841953 female
-0.5531018 -0.6521044 0.8327852 0.9562469 -0.01777542 -0.2920205 1842207 female
-0.858594 -0.4092834 0.9198314 0.2442503 -0.2537886 0.9359129 2170913 female
-0.5215777 0.6027596 0.8632229 0.5043461 0.7955728 0.3357065 9343126 female
-0.8316082 -0.2263629 0.8686299 0.2416812 -0.04431326 -0.9693434 2500140 female
-0.9241379 0.2444523 0.9208595 0.6965914 -0.6491975 -0.3054553 13816027 female
-0.4818836 0.484043 0.85733 0.9527633 0.03538559 0.3016453 10725291 female
-0.9054375 -0.6260558 0.8510486 -0.9955567 0.09391108 0.006905098 1907741 female
-0.6682686 -0.1308056 0.8766003 -0.8751539 -0.1672362 -0.4540239 2170657 female
-0.6244177 0.0208492 1.016485 -0.07354775 0.01725726 0.9971424 2237481 female
-0.6455765 0.4380687 0.7559968 0.1236384 -0.301385 -0.9454526 12237251 female
-0.6713223 0.7335217 0.9247614 0.6764699 -0.4122369 0.6102862 16047566 female
-0.589294 0.1515985 0.7832841 0.5395753 0.06688033 -0.8392769 12106953 female
-0.931417 -0.7083554 0.8893837 -0.4726425 -0.7765232 -0.4166782 921102 female
-0.6894277 0.6477314 0.8903462 0.1367346 0.1501213 0.9791666 13357275 female
-0.5273608 0.5409631 0.7847669 0.4651933 -0.06416463 -0.8828806 15200247 female
-0.7973763 -0.04327589 0.8380668 0.2323068 -0.2608356 -0.9370157 2500652 female
-0.5652358 0.5563821 0.7639827 0.5018061 -0.01359205 -0.8648733 11186367 female
-0.7302181 0.7592094 0.9249485 -0.4922386 -0.09888089 0.8648259 16574933 female
-0.7989318 0.0007091896 1.014319 0.231392 -0.05729224 0.9711722 2171171 female
-0.561845 -0.5275162 0.8104876 0.5198491 -0.1105058 -0.8470805 2697264 female
-0.8250752 0.5192009 0.9608694 -0.6016758 0.5115002 0.6134768 14935794 female
-0.7976342 -0.2349587 0.8869464 0.7813159 -0.1355035 -0.6092488 2236967 female
-0.7050384 0.3023937 1.021068 0.01637469 0.1582536 0.9872627 7434876 female
-0.55797 0.1200574 1.066886 -0.8449936 0.5213588 -0.119041 15785172 female
-0.8576596 0.4974364 0.8802972 0.7500191 -0.2968606 0.5910543 9277338 female
-0.6627133 0.2531435 1.025926 0.3297068 0.1719621 0.9282901 5130576 female
-0.5757506 0.5272697 0.9256241 0.7002947 0.1984233 0.6857226 14015205 female
-0.870403 -0.691203 0.9419689 0.9259586 0.2424234 0.2895368 12231836 female
-0.6475074 0.4721529 0.7449431 0.06654717 -0.2414961 -0.9681174 15199231 female
-0.7309341 0.539801 0.9661447 0.1094176 0.6782287 0.7266593 15396344 female
-0.606755 0.5174123 0.9717728 0.3851105 0.6151677 0.6879379 13357531 female
-0.6759637 -0.0157806 0.8438687 -0.6076157 -0.2810673 -0.7428353 2302243 female
-0.681197 0.4905412 0.7414051 -0.07471273 -0.06055189 -0.995365 15463935 female
-0.5770652 -0.3102367 0.8240035 0.06111421 0.3592179 -0.9312505 2237738 female
-0.6524623 0.7035241 0.8609982 0.8624092 -0.1060759 0.494973 14993595 female
-0.5778929 -0.4272557 0.9077839 -0.07956643 -0.2253735 0.971018 2171431 female
-0.6493508 0.2774399 1.014709 0.4451527 0.1960423 0.8737314 14342371 female
-0.5178722 0.5986513 0.8654835 0.5323363 0.7578614 0.3771793 5724511 female
-0.7006431 -0.01108547 0.9567685 -0.9429668 -0.1513245 0.2965037 2434085 female
-0.6231136 0.05066622 0.78349 0.1645991 -0.4455172 -0.8800122 2368300 female
-0.5152568 0.008708909 0.9130522 0.9963272 -0.07189046 0.04651801 1776161 female
-0.5325366 0.2365396 0.889038 -0.8763836 -0.3601987 -0.3197008 11581120 female
-0.6119454 0.8601046 0.8378063 0.9785322 0.1624917 0.1267725 2368292 female
-0.5324804 0.4863693 0.788175 0.04806084 -0.1325115 -0.9900156 5920866 female
-0.8401073 0.3009732 0.9430012 -0.8360311 0.2359689 0.495349 14146793 female
-0.8799351 -0.3205035 0.9450842 -0.2747915 -0.27186 0.9222699 2301987 female
-0.9525582 -0.699415 0.9763733 -0.2549883 0.9245092 0.2833084 1051656 female
-0.5315497 0.05670003 0.9616169 0.8627346 0.0740917 0.5001995 1776675 female
-0.5021766 0.01396221 1.038464 0.6104947 -0.2357905 -0.7561079 14006716 female
-0.5074578 0.5880221 0.8366455 0.7289968 0.6340343 -0.2580003 13554654 female
-0.8475589 -0.5860853 0.8434924 0.9886886 -0.1402602 -0.05312102 1907745 female
-0.5813761 -0.5087708 0.8880227 -0.1357706 -0.1849739 0.9733195 2301987 female
-0.8415032 0.3913647 0.9100656 -0.9436586 0.009280668 0.3307904 12369863 female
-0.6666011 0.6318638 0.8896672 0.2809337 0.6201112 0.7324878 15396082 female
-0.8976632 -0.6733441 0.9426038 -0.1135436 0.8878047 0.445994 14596789 female
-0.8868067 0.6156253 0.8358618 -0.63431 0.7354197 -0.2383458 12303039 female
-0.6756098 0.2722054 0.7953274 -0.01242483 0.1922941 -0.9812586 15201279 female
-0.5216221 0.580346 0.8880655 0.3443207 0.4276273 0.8358099 9802653 female
-0.9192843 0.4093162 0.8197422 -0.4290348 -0.1220153 -0.8950092 5589847 female
-0.8181896 -0.4426137 0.8627589 0.9814632 -0.1838656 -0.05406842 2040358 female
-0.8474493 0.03808651 0.8109228 -0.4543467 -0.376303 -0.8074436 2631465 female
-0.6458993 0.5389856 0.962548 0.08145951 0.6844162 0.7245266 12765138 female
-0.5520055 -0.5892103 0.8537979 0.9772581 -0.133608 0.1646681 1578523 female
-0.5904651 -0.09130058 0.8369203 0.1949186 -0.06113996 -0.978912 2106409 female
-0.9426141 -0.6966555 0.9633653 -0.2030663 0.9628143 0.1781933 16243670 female
-0.7847774 0.3346486 0.7947436 -0.3363825 -0.1837969 -0.9236155 15398143 female
-0.9004748 -0.6294102 0.8749411 -0.9125089 0.2299279 0.3383203 2302502 female
-0.5787084 -0.1273368 0.8412372 0.3184833 -0.06669085 -0.9455795 2171688 female
-0.5612366 -0.3232513 0.9285051 0.4603244 -0.2389852 0.8549781 1908773 female
