# .PCD v0.7 - Point Cloud Data file format
VERSION 0.7
FIELDS x y z normal_x normal_y normal_z rgb label
SIZE 4 4 4 4 4 4 4 4
TYPE F F F F F F U U
COUNT 1 1 1 1 1 1 1 1
WIDTH 170
HEIGHT 1
VIEWPOINT 0 0 0 1 0 0 0
POINTS 170
DATA ascii
-0.8902431 0.1227763 0.8119985 -0.8073955 0.09539142 -0.5822482 12173512 female
-0.5933274 0.1618644 0.7779819 0.6338223 0.0668516 -0.7705843 9803174 female
-0.8677348 -0.4323153 0.917674 0.3315802 -0.2538754 0.9086264 2170913 female
-0.6066348 0.1239622 1.063707 -0.7691112 -0.6091715 -0.1933341 8351854 female
-0.5961275 -0.5769296 0.8311098 0.7847978 -0.1968801 0.5876483 2171172 female
-0.5888898 -0.2020371 0.9489413 0.594149 -0.2259916 0.7719551 2170145 female
-0.8629322 0.3106084 0.8489526 -0.9446231 0.1551835 -0.289146 14080990 female
-0.9204443 -0.7193375 0.9356541 0.01265241 -0.9978252 -0.06468971 855565 female
-0.8462374 -0.5224087 0.864977 0.9530905 -0.2130016 0.2150554 1841948 female
-0.9147865 0.2087418 1.008006 0.8298171 -0.5221071 -0.1969965 8092802 female
-0.9430283 0.4804432 0.8496465 -0.9890278 0.05493935 -0.1371339 10133932 female
-0.8618941 0.2939757 0.8406249 -0.8912848 0.2195396 -0.3967542 5460053 female
-0.9042038 -0.4755878 0.8228795 -0.4101497 -0.03558008 -0.9113239 1973537 female
-0.8883208 0.3798909 0.8968462 0.7048194 -0.01303762 0.709267 15133945 female
-0.5041585 0.5080011 0.8017293 0.773841 0.09396468 -0.6263711 10066344 female
-0.5594796 0.01336623 0.9571533 0.8137551 0.00707692 0.5811649 1973536 female
-0.883805 0.1913737 1.165355 -0.8073084 -0.4333337 0.4005934 11771030 female
-0.8044917 0.05983776 1.004853 0.2463768 0.173788 0.9534653 2434601 female
-0.814059 -0.2779723 0.9018818 0.9176128 -0.220624 -0.3306233 1973278 female
-0.6283377 -0.5885967 0.8403162 -0.390415 0.04368923 0.9196017 2631471 female
-0.8985103 0.4207115 0.9055258 0.2961827 0.07483044 0.9521955 13288397 female
-0.8658137 0.4494664 0.9103785 -0.9481437 -0.2006865 0.2464721 8223622 female
-0.9646146 0.2525886 0.9899549 -0.9838178 0.03386627 0.175942 14474476 female
-0.5940199 0.3391255 0.9140213 0.8546997 0.1259196 0.5036195 3420469 female
-0.8670599 0.4213867 0.8674983 -0.9503237 -0.3038133 0.06769225 11908798 female
-0.5393099 0.3592592 0.8785358 -0.1636805 0.05812776 0.9847994 14147815 female
-0.6531798 0.241488 0.9997526 0.5187501 0.1431615 0.8428541 13620456 female
-0.6406931 0.2190402 0.7688252 0.2121298 0.3047617 -0.9285049 11844804 female
-0.6294144 0.8729799 0.8052822 0.8629575 0.4088191 -0.2969363 2631463 female
-0.7104592 0.4085307 0.9763346 0.09469312 0.2384895 0.9665174 15200255 female
-0.4923948 0.2742865 0.8817306 0.9872719 -0.1508315 -0.05043845 10528688 female
-0.5731887 -0.4852228 0.827136 0.9682465 -0.1923237 0.1597194 1908257 female
-0.8708088 -0.04338368 0.8373148 -0.3381249 -0.2259852 -0.9135658 2105896 female
-0.8202018 -0.2275552 0.8776948 0.5225993 -0.08103099 -0.8487191 2303014 female
-0.5922779 -0.6774164 0.8118983 0.9646104 0.1452933 -0.220038 13087919 female
-0.733378 0.8644992 0.7570155 -0.4917127 0.3425853 -0.8005335 9473672 female
-0.6343842 0.7598541 0.8437153 0.1441301 -0.9890719 0.03103716 13742759 female
-0.8232407 0.6551747 0.8275381 -0.4007683 0.8676226 0.2943056 15724535 female
-0.8892274 0.1556132 0.9504193 -0.7388954 0.2615882 0.6209713 6580853 female
-0.6871485 0.6336922 0.7572163 -0.01578679 0.3467869 -0.9378111 12428700 female
-0.5876729 -0.1745369 0.9542062 0.5947349 -0.2329178 0.7694411 1974050 female
-0.7256781 0.3479855 0.9978163 0.003003864 0.2405123 0.9706414 15067640 female
-0.7873721 0.08192536 0.7559623 -0.04411374 -0.2785631 -0.9594043 2960949 female
-0.6837437 0.2147019 1.017304 0.2985137 -0.002900906 0.954401 12700887 female
-0.9329606 0.5712653 0.8517044 -0.8476854 0.5208706 -0.1006137 4934995 female
-0.8614104 0.3568144 0.8759282 -0.9975692 0.02383536 0.0654794 15001844 female
-0.655205 0.2665535 0.7800399 0.1708057 0.1159348 -0.9784603 15200255 female
-0.7173983 -0.06572523 0.8899409 -0.979192 -0.1982765 -0.04323672 2433573 female
-0.5423518 -0.04518761 0.8790012 0.9760447 -0.1649075 -0.1419232 2105122 female
-0.557402 0.6061964 0.8581545 0.216989 0.834131 0.507091 12699337 female
-0.8459408 0.1766695 0.9780282 -0.5041909 0.01692994 0.8634263 14607351 female
-0.6620283 0.7204044 0.8168922 0.8368987 -0.1451303 -0.5277667 4866113 female
-0.5648994 0.4501317 0.8592472 0.9833485 -0.1567135 0.09201354 13816538 female
-0.84543 -0.2996048 0.864926 0.5993393 0.2973693 -0.7432119 2697257 female
-0.904818 0.5254893 0.8004907 -0.2816703 -0.05511602 -0.9579269 9671839 female
-0.7507981 0.713412 0.8124242 -0.8208337 0.2198217 -0.5271721 10981510 female
-0.8539293 -0.1219082 1.005985 -0.034397 -0.1520966 0.987767 2171944 female
-0.5865895 0.5907915 0.878013 0.1470594 0.5746253 0.8050959 13751265 female
-0.6828312 0.5293218 0.9535702 0.007911638 0.6461859 0.7631391 15660798 female
-0.8492178 0.01202861 0.8092027 -0.2305068 -0.5057303 -0.8313264 3157808 female
-0.7026761 0.8082777 0.9482595 -0.585998 0.5392894 0.604792 14072237 female
-0.6664909 -0.1973802 0.9430453 -0.6764755 -0.2373249 0.6971784 2170913 female
-0.7961805 0.4134133 0.7607573 -0.3278263 -0.3140346 -0.8910175 9933207 female
-0.8755722 -0.02543304 1.007748 -0.4470665 0.01034861 0.8944409 2368809 female
-0.5788153 -0.2818972 0.9131837 0.8317505 -0.2130927 0.5126233 2039075 female
-0.8984684 -0.01195353 0.8442989 -0.6589122 -0.2540897 -0.7080065 2500907 female
-0.6007437 0.4741301 0.7480245 0.5288603 -0.2748975 -0.8029559 14607351 female
-0.5968732 0.3204886 0.9241263 0.8141658 0.1744349 0.5538108 6183780 female
-0.9027517 -0.2932599 0.8568632 -0.3669549 0.3993412 -0.8401611 2303275 female
-0.6435319 -0.193882 0.9594335 -0.3226409 -0.2530144 0.9120781 2170660 female
-0.6907312 0.1735272 1.014732 0.299562 -0.2001329 0.9328501 4606287 female
-0.8354165 -0.2643712 0.8776196 0.3977821 -0.02899294 -0.9170217 2631471 female
-0.9066861 -0.7033714 0.8502814 -0.1910436 -0.966669 -0.1704508 921102 female
-0.8078538 -0.2406417 0.9433985 0.8626621 -0.2690556 0.4282793 1973534 female
-0.8785133 0.0692144 0.7961987 -0.6530646 -0.1520789 -0.7418751 2697257 female
-0.9503291 0.170723 1.089899 -0.9850208 -0.1084781 0.1340394 15267582 female
-0.8492897 -0.0001294436 0.8162133 -0.1855966 -0.4344065 -0.8813881 2566447 female
-0.9123953 -0.6671432 0.8307052 -0.9055476 0.253089 -0.3404843 15717326 female
-0.564675 0.2099439 0.9746894 -0.740132 0.544125 0.3951361 14607604 female
-0.6315145 -0.09197077 0.9840729 -0.06831557 -0.2012759 0.9771494 2171944 female
-0.9387076 0.2822507 0.9949911 -0.01423041 0.7335094 0.6795303 10396585 female
-0.5644848 0.4715116 0.8355005 0.9353318 -0.3190736 0.1527953 13026505 female
-0.9410141 0.3897268 0.9013857 -0.5536534 0.2887636 0.7810785 14016221 female
-0.8828414 -0.406626 0.9302248 0.1249875 -0.2544874 0.9589652 2169889 female
-0.8797038 -0.3203827 0.8395317 0.06211704 0.3557925 -0.9324983 2697516 female
-0.8292822 0.3670397 0.7918871 -0.6552219 -0.2360413 -0.7176132 7764347 female
-0.6961648 -0.1657392 0.8793967 -0.9886234 -0.100803 -0.1116359 1841436 female
-0.5369816 0.05729443 0.9047424 0.9774281 0.04342955 0.2067561 1908257 female
-0.6536943 0.8219435 0.7610105 0.6371694 -0.1264291 -0.7602834 3420972 female
-0.6137443 0.06612132 1.133899 0.1713249 -0.8495852 -0.4988514 13479852 female
-0.7817439 -0.04999846 0.8487366 0.5766599 -0.3064142 -0.7573465 2498854 female
-0.7479601 0.07974666 0.7615075 0.002765072 -0.3457275 -0.9383309 2171687 female
-0.8979874 -0.1817279 0.983033 -0.6675972 -0.100921 0.737651 2170657 female
-0.8370178 0.2707514 0.8022842 -0.5337561 0.2926368 -0.7933903 14082292 female
-0.6935107 -0.1997978 0.8728281 -0.9878241 -0.03559044 -0.1514491 1776155 female
-0.5783922 0.2771875 0.8493133 0.94817 0.1514979 -0.2793244 4343106 female
-0.6757728 -0.3672007 0.8323904 -0.9979076 0.0633314 0.01301701 1776161 female
-0.7260678 0.4763012 0.9825419 0.1638586 0.1238541 0.9786779 15462395 female
-0.7425781 0.01368847 0.8768355 0.927078 -0.2949676 -0.231345 1645342 female
-0.858756 0.6407512 0.8306719 -0.477015 0.8776672 0.04644195 13749452 female
-0.5583097 -0.07309838 0.9478116 0.8683171 -0.1360617 0.4769828 1973537 female
-0.594784 -0.6636274 0.8021848 0.9724355 0.03883572 -0.2299148 2105376 female
-0.9137233 -0.577466 0.855351 -0.9913488 -0.1157631 -0.06185797 1579291 female
-0.5312234 0.5978138 0.834909 0.6402589 0.7680603 -0.01232556 9013393 female
-0.8388196 -0.2608359 0.8766203 0.3530251 -0.02937294 -0.9351526 2698289 female
-0.9107348 0.2191325 1.006954 0.9603053 -0.2756925 -0.04251154 12172744 female
-0.5257085 0.5236204 0.8804573 0.3310955 0.04737517 0.9424072 8157824 female
-0.9088253 -0.6658726 0.9162177 -0.595745 0.7405543 0.3109137 16311770 female
-0.6943247 -0.1974664 0.8844315 -0.9976893 -0.06208867 0.0275862 1579291 female
-0.6556793 0.003498998 0.9950966 -0.1983858 -0.03566213 0.979475 2171945 female
-0.6246978 0.4238301 0.7528561 0.3737326 -0.365464 -0.8525022 9606042 female
-0.6959614 0.7479774 0.9458746 0.3691218 -0.1244546 0.9210104 13674927 female
-0.6484956 0.1959307 0.7598748 0.1699841 0.279139 -0.9450856 15200255 female
-0.8920869 -0.707804 0.8880449 0.1513831 -0.986149 -0.06777468 722698 female
-0.6847504 0.6422345 0.880529 0.4632934 0.1523553 0.8730103 13685215 female
-0.5104323 0.5629154 0.8183904 0.768504 0.483405 -0.4191912 14607351 female
-0.8199278 -0.0469777 0.8328825 0.1499311 -0.2765724 -0.9492251 2500652 female
-0.5784366 0.5554379 0.7526677 0.499608 0.01827645 -0.8660588 11186367 female
-0.7305618 0.7590809 0.9354113 -0.3815561 -0.2219989 0.8972912 15260103 female
-0.7686836 -0.01510482 0.9838182 0.7011386 -0.1656919 0.6935062 2170913 female
-0.5959725 -0.6116496 0.8007451 0.9778755 -0.05219037 -0.2025724 1776155 female
-0.8330113 0.5217009 0.9471002 -0.550072 0.4809351 0.6827314 8684427 female
-0.8112586 -0.2503883 0.8916565 0.8038803 -0.1955972 -0.5617101 2105124 female
-0.6935101 0.2950903 1.004136 0.1961438 0.1690988 0.9658846 6316394 female
-0.6408257 0.1373315 1.109335 -0.9432142 0.2646052 -0.2008258 14203577 female
-0.8658142 0.5053 0.8876046 0.6900306 -0.2957126 0.6606147 15725559 female
-0.6715447 0.2483606 1.00769 0.3839365 0.1652586 0.9084505 5130576 female
-0.5863193 0.5189869 0.9106997 0.7235461 0.157442 0.6720811 14015205 female
-0.8677642 -0.7099491 0.9607548 0.9462395 -0.3162104 0.06813023 6706519 female
-0.6565771 0.4463421 0.736895 0.09447864 -0.2629346 -0.9601766 15462391 female
-0.7087725 0.5361061 0.945181 0.04945334 0.6744701 0.7366441 3880764 female
-0.6292623 0.534484 0.9393817 0.2816648 0.6240869 0.7288213 12171461 female
-0.7010688 -0.01931132 0.8277056 -0.6595421 -0.2616988 -0.7046403 2302243 female
-0.7173325 0.4913107 0.7312797 -0.09620617 0.04497896 -0.9943447 15526648 female
-0.6009734 -0.5941023 0.8316889 0.7415331 -0.128592 0.6584777 1907998 female
-0.6623712 0.6979147 0.859211 0.8791454 -0.1571158 0.4499087 14993595 female
-0.6123543 -0.4661362 0.8679351 -0.008805314 -0.2647505 0.9642767 2105379 female
-0.6586351 0.2719854 0.9958275 0.4951854 0.1850783 0.8488448 14342371 female
-0.5307326 0.5933329 0.8564416 0.5318919 0.7382278 0.4148624 5724511 female
-0.7208871 -0.02555609 0.9276419 -0.9602091 -0.1503558 0.2353545 1907741 female
-0.6499705 0.04475174 0.7650357 0.1017009 -0.4534335 -0.8854688 2368300 female
-0.5487998 -0.01472396 0.9374713 0.910849 -0.06204991 0.408049 1973537 female
-0.5706069 0.2505378 0.8909596 -0.9981917 -0.01394463 -0.05847167 12700120 female
-0.6201767 0.8553354 0.8476939 0.9853722 0.1379187 0.1000998 2368292 female
-0.5449195 0.4262503 0.7833984 0.08715551 -0.1622057 -0.9829004 14276065 female
-0.8449553 0.3149619 0.9379835 -0.7631797 0.2263612 0.6052416 9079702 female
-0.8749375 -0.3018975 0.9658386 0.02879229 -0.512133 0.8584234 2630696 female
-0.9572366 -0.7018146 0.9704161 -0.7816879 0.5579529 0.2786623 1248778 female
-0.5762056 0.1120482 0.9606192 0.6390467 0.1977701 0.7433078 15330809 female
-0.5783827 0.0303101 1.072164 -0.4692479 0.3937863 0.7904041 11967381 female
-0.5081 0.5661289 0.8487675 0.8229296 0.5137862 0.2425089 12370377 female
-0.8611594 -0.6109277 0.839834 0.9646129 -0.03332985 -0.261555 1908771 female
-0.6081775 -0.3855812 0.8900312 0.05961735 -0.251211 0.9660946 2170403 female
-0.8367876 0.425804 0.9478458 -0.6116183 -0.612916 0.500257 13948637 female
-0.6934052 0.6173112 0.8941543 0.09787923 0.5243065 0.8458856 15263984 female
-0.8988531 -0.6480833 0.9040458 -0.5963504 0.6353415 0.4906195 2302243 female
-0.9044589 0.607248 0.8378732 -0.6898437 0.6739086 -0.2645051 14015722 female
-0.696699 0.2673678 0.7781051 -0.06207724 0.191423 -0.9795426 15201279 female
-0.5535784 0.5593902 0.8860669 0.07643293 0.1942945 0.9779609 15724535 female
-0.9142709 0.393669 0.82262 -0.1624799 -0.260252 -0.9517716 12897242 female
-0.8254027 -0.410303 0.8668711 0.9881727 -0.08331298 -0.1287387 1776673 female
-0.8727986 0.03454999 0.8079526 -0.5175985 -0.3870658 -0.7630674 2631465 female
-0.654016 0.5294134 0.9507749 0.121272 0.6460927 0.7535632 12765138 female
-0.5877689 -0.5430443 0.7985407 0.9119014 -0.1861579 -0.365761 1579035 female
-0.5881025 -0.06702268 0.8224006 0.4626133 -0.1412379 -0.8752376 2303275 female
-0.9503305 -0.6979893 0.9560053 -0.4364986 0.8983859 0.04870134 15651273 female
-0.7751501 0.2486823 0.7763553 -0.08779906 0.2880153 -0.9535924 14278895 female
-0.8947679 -0.6645347 0.9284929 -0.1750234 0.8641849 0.4717534 16443357 female
-0.6045271 -0.1262544 0.818596 0.3070244 -0.05817217 -0.9499221 2171945 female
-0.5888836 -0.3351873 0.8992863 0.539091 -0.2482595 0.804828 1777187 female
