# .PCD v0.7 - Point Cloud Data file format
VERSION 0.7
FIELDS x y z normal_x normal_y normal_z rgb label
SIZE 4 4 4 4 4 4 4 4
TYPE F F F F F F U U
COUNT 1 1 1 1 1 1 1 1
WIDTH 170
HEIGHT 1
VIEWPOINT 0 0 0 1 0 0 0
POINTS 170
DATA ascii
-0.8716379 0.1379671 0.8347997 -0.8203045 0.09419801 -0.5641165 8618891 female
-0.5513452 0.1570155 0.8350139 0.8114887 0.05811771 -0.581471 11121347 female
-0.8868473 -0.4674557 0.9146854 -0.3673045 -0.242042 0.8980551 2171174 female
-0.5532886 0.1086716 1.067673 -0.9300095 -0.2127704 -0.2996849 13285294 female
-0.5438707 -0.5505368 0.8773144 0.8106657 -0.1810092 0.5568274 2171937 female
-0.6401522 -0.1915403 0.9725932 -0.7129793 -0.2576809 0.6521205 2170913 female
-0.8037623 0.3716074 0.8047551 -0.5157385 -0.2741894 -0.8116859 15199223 female
-0.9238794 -0.7187856 0.955958 -0.1011069 -0.9942458 0.03539428 526344 female
-0.8290436 -0.1668133 1.005319 0.2150121 -0.220718 0.9513429 2039072 female
-0.9431606 0.2279263 0.9394534 0.279502 -0.7958868 -0.5370687 10921901 female
-0.9379551 0.4847353 0.86275 -0.9917206 0.1270263 0.01882845 7829376 female
-0.8658345 0.2563828 0.932282 -0.8810844 0.374276 0.2891501 14476786 female
-0.8889049 -0.4715529 0.8291044 -0.5132542 -0.05376476 -0.8565509 2170401 female
-0.9172447 0.3782178 0.9142204 0.06983255 0.1240525 0.9898153 8224648 female
-0.4857077 0.5205144 0.8392969 0.9204311 0.1839566 -0.3449154 15262960 female
-0.5368326 -0.01085296 0.9879634 0.8233591 -0.02434271 0.5669985 1973536 female
-0.9401531 0.1570165 1.156586 -0.3764298 -0.9235605 0.07305234 6771534 female
-0.8617771 0.0347055 1.014686 -0.5332362 0.1193964 0.8374984 2500651 female
-0.7910302 -0.2580833 0.9361814 0.9056157 -0.3024589 0.2972856 2169889 female
-0.5746217 -0.6121356 0.8902271 0.04816015 0.2220775 0.9738389 2499110 female
-0.8820855 0.401303 0.898943 0.7149039 -0.0790836 0.6947361 13224148 female
-0.8511589 0.4307966 0.9224937 -0.8961967 -0.3421366 0.282443 10987703 female
-0.9889126 0.2147555 0.9884201 -0.8964852 -0.3026875 -0.3235654 13028569 female
-0.5837692 0.3489813 0.9481943 0.8181126 0.1613304 0.551964 3420469 female
-0.8482425 0.3792983 0.8722356 -0.9868404 -0.06084449 -0.1498132 15001836 female
-0.5194647 0.3967081 0.901984 -0.02885462 0.06957191 0.9971595 15725047 female
-0.6355362 0.2714643 1.019049 0.5237205 0.2000227 0.8280748 6184287 female
-0.5971619 0.2281684 0.8097855 0.4212983 0.3245361 -0.8468672 6514804 female
-0.6233429 0.8740667 0.799198 0.8704635 0.3965906 -0.2915634 2631463 female
-0.7105556 0.4074436 1.006396 0.007298043 0.3620821 0.9321176 6184292 female
-0.4903567 0.2521982 0.8716078 0.3415459 -0.5460735 -0.7649511 11909053 female
-0.5242358 -0.4362881 0.8540483 0.9808941 -0.07798567 -0.1782273 1579553 female
-0.8454701 -0.03962125 0.8467295 -0.2406674 -0.205771 -0.948545 2105896 female
-0.7949219 -0.2029095 0.8869157 0.6797811 -0.07554644 -0.7295138 2171944 female
-0.5427325 -0.671699 0.8634981 0.9811457 0.1515605 -0.1199276 13087919 female
-0.7117919 0.82213 0.7398768 -0.1946671 -0.1737133 -0.9653643 14338761 female
-0.6391786 0.7588927 0.8885652 0.9413475 -0.2754245 0.1949515 16048595 female
-0.8020641 0.6504335 0.7913722 -0.3936835 0.654462 -0.6455174 13293286 female
-0.8492157 0.1498789 0.9882639 -0.5353315 0.2423017 0.8091416 14015981 female
-0.6768252 0.5667748 0.7573966 -0.1642438 0.124552 -0.9785248 12830678 female
-0.5883778 -0.1518316 1.00214 0.1712822 -0.2512452 0.952648 1842723 female
-0.7204892 0.3550239 1.023404 -0.06382841 0.255768 0.9646288 15067640 female
-0.7270339 0.0738252 0.7864627 0.1408789 -0.4305871 -0.8914863 2435119 female
-0.6803146 0.198815 1.045563 0.2228422 -0.1382588 0.9650005 4734801 female
-0.9239362 0.5732551 0.8498936 -0.8235687 0.5258288 -0.2126938 4934995 female
-0.8454347 0.4102881 0.9178192 -0.9274412 -0.2036906 0.3136288 13620448 female
-0.6251368 0.2703272 0.8132737 0.3042181 0.1592339 -0.9391996 13752817 female
-0.6875528 -0.07964784 0.9218482 -0.966303 -0.2527028 -0.04898794 2237218 female
-0.5217023 -0.05442568 0.9355093 0.9876741 -0.1216183 0.09853321 1908509 female
-0.5580344 0.6105172 0.8838078 0.08124452 0.7944057 0.6019293 12303555 female
-0.7891632 0.1377124 1.013649 -0.3377731 -0.100205 0.9358783 15133438 female
-0.6405314 0.7552794 0.8291044 0.8980194 -0.3800502 -0.2216374 3551790 female
-0.560728 0.4482571 0.8208418 0.8585466 -0.3633105 -0.3618055 13553878 female
-0.8725917 -0.3432341 0.8330722 -0.1202601 0.2711158 -0.9550045 2434089 female
-0.9175187 0.5452023 0.8201007 -0.6497331 0.2256492 -0.7258989 9078681 female
-0.742172 0.713621 0.8164485 -0.7964206 0.1507657 -0.5856482 10981510 female
-0.8607351 -0.1156047 1.011013 -0.3578572 -0.1515699 0.9213929 2171944 female
-0.5926587 0.6007962 0.9007433 0.1905193 0.6171756 0.7634113 10658478 female
-0.6785512 0.5403835 0.9734379 -0.0443947 0.6902512 0.7222067 15660798 female
-0.8213565 0.015598 0.8227964 -0.1447759 -0.4921498 -0.8583871 3157808 female
-0.7244653 0.8106179 0.9301463 -0.2482165 0.4214878 0.8722021 15718350 female
-0.5316805 -0.195708 0.9155323 0.9975132 -0.01356249 -0.06916308 2170921 female
-0.793569 0.4110027 0.7883409 -0.3893105 -0.3698128 -0.8436088 2698546 female
-0.8510935 -0.03382359 1.022727 -0.2848139 -0.0525388 0.957142 2500142 female
-0.5684314 -0.2657289 0.9719868 0.4424904 -0.3086132 0.8419977 2170402 female
-0.8736849 -0.008546578 0.8516334 -0.5821153 -0.2398483 -0.7769264 2500907 female
-0.6418533 0.4056179 0.9903556 0.4644881 0.2031474 0.861964 15724543 female
-0.5866706 0.3301592 0.9583578 0.7724766 0.2071924 0.6002927 6183780 female
-0.9052358 -0.3725151 0.9258322 -0.7418731 -0.1130844 0.6609359 2565671 female
-0.5665058 -0.1967036 0.9846322 0.4968118 -0.1959126 0.8454562 2170403 female
-0.6996436 0.1270355 1.034189 0.1388784 -0.3231116 0.9361151 15199223 female
-0.8272783 -0.2208629 0.8764609 0.237044 -0.03828853 -0.9707441 2565419 female
-0.8961564 -0.6875088 0.8307021 -0.8681736 -0.1841116 -0.4608444 10389125 female
-0.7929041 -0.2147733 0.961919 0.8196394 -0.2628822 0.5090032 1841436 female
-0.8612489 0.08565824 0.8168792 -0.6943881 -0.0304872 -0.7189546 2434093 female
-0.9944245 0.1327544 1.06687 -0.8157755 -0.3286405 -0.4759261 15068664 female
-0.821992 0.003539776 0.8293424 -0.09492341 -0.4180396 -0.9034558 2566447 female
-0.9017406 -0.6692368 0.8520252 -0.9163026 0.2233271 -0.3324373 14862529 female
-0.519101 0.1879684 0.9915905 -0.7640826 0.4051421 0.5020335 7633286 female
-0.6608825 -0.07193587 0.9971781 -0.6428898 -0.2580399 0.7211853 2105635 female
-0.9889669 0.2268217 1.018847 -0.8668874 0.4100583 0.2834755 11647164 female
-0.5531615 0.4780618 0.8654376 0.9323261 -0.2897033 0.2164259 13026505 female
-0.9526556 0.3987148 0.8872518 -0.8933837 0.3222032 0.3131305 12042183 female
-0.8973152 -0.3713388 0.9355259 -0.5556679 -0.1496673 0.8178221 2631464 female
-0.8759496 -0.3434179 0.8329264 -0.1767813 0.2681456 -0.9470197 2302505 female
-0.8282217 0.3899412 0.8225136 -0.7870106 -0.1802455 -0.590022 9408405 female
-0.6752383 -0.1025111 0.8939462 -0.9025937 -0.2227657 -0.3683749 2170913 female
-0.5180097 0.03451184 0.9510437 0.9520522 0.007637335 0.3058403 1974307 female
-0.6442695 0.8182662 0.7591799 0.6796128 -0.1875274 -0.7091967 3420972 female
-0.5408086 0.03772518 1.120433 -0.826778 -0.1940376 -0.5280035 6707029 female
-0.7579449 -0.04665493 0.8672713 0.6518176 -0.2910741 -0.7002926 2498854 female
-0.7374135 0.08345383 0.7796259 0.1676401 -0.302355 -0.938338 2829884 female
-0.870707 -0.1539768 1.001259 -0.4552144 -0.1572342 0.8763888 2172969 female
-0.8114814 0.2906467 0.8216242 -0.5148482 0.0804138 -0.8535016 11645893 female
-0.6684464 -0.1433025 0.8984581 -0.9406318 -0.1549095 -0.3020179 2105120 female
-0.5569231 0.2752253 0.9104187 0.9541448 0.2937355 0.05768134 14673128 female
-0.6120849 -0.246102 0.8625688 -0.2229694 -0.000400629 -0.9748254 2565677 female
-0.7205953 0.5071298 0.9960825 0.08790958 0.4175475 0.9043926 15461623 female
-0.7121257 0.04059764 0.8670628 0.2964764 -0.9244955 -0.2396037 1842204 female
-0.8614747 0.6289415 0.8666294 -0.201305 0.9203181 0.3353965 11117481 female
-0.5370669 -0.0907414 0.9738168 0.879654 -0.1282278 0.4580028 1841953 female
-0.5455897 -0.6496505 0.8411158 0.9622818 -0.009966593 -0.2718721 1842207 female
-0.852904 -0.4101459 0.9282525 0.2333531 -0.2501644 0.9396617 2170913 female
-0.5242748 0.6039967 0.8730899 0.5013472 0.7993047 0.3313049 9343126 female
-0.8268973 -0.2268783 0.8771805 0.2553281 -0.04130957 -0.9659716 2500140 female
-0.9255344 0.244721 0.9305793 0.7021646 -0.6479257 -0.2952238 13816027 female
-0.4893315 0.4855564 0.8799949 0.839636 0.03227385 0.5421898 8817806 female
-0.8969799 -0.6341799 0.8635858 -0.9884886 0.1487063 0.02787078 1710882 female
-0.6658723 -0.1215929 0.882498 -0.8361869 -0.1776566 -0.5188733 2038816 female
-0.5737661 -0.04274539 1.017808 0.4206583 -0.09872393 0.9018316 2039589 female
-0.6260744 0.4381876 0.7705804 0.2475211 -0.3438646 -0.9058092 8817042 female
-0.6724433 0.7286962 0.9206409 0.5958171 -0.6797047 0.427789 15586756 female
-0.5875332 0.1533612 0.7958438 0.5499653 0.07164524 -0.8321089 12106953 female
-0.9254995 -0.6971953 0.8898678 -0.876854 0.04966079 -0.478185 10917005 female
-0.6424056 0.6648673 0.853668 0.7829645 0.4960836 0.3753234 12363155 female
-0.5161371 0.5634769 0.8118889 0.6584183 0.2737845 -0.7010902 9474458 female
-0.7943335 -0.04324609 0.8476341 0.247535 -0.256518 -0.9343045 2500652 female
-0.5645329 0.5413819 0.7767494 0.471375 -0.1628218 -0.8667726 13817830 female
-0.7450336 0.7736451 0.924455 -0.7417467 -0.07822757 0.6661023 16244686 female
-0.7987117 0.0003272654 1.023887 0.2190602 -0.0570275 0.9740434 2171171 female
-0.5548245 -0.524931 0.81949 0.5371541 -0.1005957 -0.837464 2697264 female
-0.8286867 0.5200336 0.9686852 -0.6115637 0.5138012 0.6016628 14935794 female
-0.7930884 -0.235135 0.8959525 0.7908003 -0.1271453 -0.5987228 2236967 female
-0.7077416 0.3038071 1.031982 0.002125293 0.1629189 0.9866371 7434876 female
-0.5368677 0.1146066 1.083556 0.4594026 0.5537993 0.6944463 16175807 female
-0.8602051 0.4977205 0.887949 0.745865 -0.2860914 0.6015289 9277338 female
-0.6650414 0.2546332 1.037551 0.3159714 0.1772163 0.932071 5130576 female
-0.5628154 0.5141936 0.903893 0.7966226 -0.3577299 0.4872594 3815741 female
-0.866233 -0.7092602 0.9694853 0.9260696 -0.3211382 0.1981549 6180688 female
-0.6484488 0.4720582 0.7552509 0.07892518 -0.2500491 -0.9650111 15199231 female
-0.7346843 0.5412739 0.9748016 0.09749347 0.6859496 0.7210882 15396344 female
-0.6104637 0.5196748 0.982044 0.3737947 0.6240445 0.6861821 13357531 female
-0.686168 -0.01610456 0.8673308 -0.7455481 -0.2107295 -0.6322588 2237224 female
-0.6822009 0.4901238 0.7511398 -0.06321108 -0.07055901 -0.9955028 15463935 female
-0.5720248 -0.3078973 0.8341634 0.07598469 0.3662536 -0.9274075 2237738 female
-0.655976 0.7045795 0.8687293 0.8572016 -0.09327865 0.5064628 14993595 female
-0.5735485 -0.4254811 0.9171331 -0.0967496 -0.2328953 0.9676772 2171431 female
-0.651747 0.2791969 1.02645 0.431925 0.2033706 0.8786815 14342371 female
-0.5351683 0.5997368 0.8900006 0.2842925 0.6729038 0.6829189 9869474 female
-0.6999827 -0.01046995 0.967154 -0.9460397 -0.1598072 0.2819051 2434085 female
-0.6530811 0.07181136 0.7839733 0.006371685 -0.321745 -0.9468049 2303019 female
-0.5140865 0.01089718 0.9263472 0.9960409 -0.0650709 0.06056505 1776161 female
-0.5387523 0.2600284 0.8973414 -0.9921296 -0.1220094 0.02815239 14540526 female
-0.6195475 0.873727 0.8468181 0.9344901 0.3319185 0.128679 2895145 female
-0.5203228 0.4745009 0.8031006 0.3160084 -0.06346292 -0.9466314 13620191 female
-0.8417773 0.3007036 0.9521965 -0.8445427 0.2300926 0.4835339 14146793 female
-0.875374 -0.3215338 0.9530378 -0.2851475 -0.2732467 0.9187095 2301987 female
-0.9412773 -0.6988599 0.9767517 -0.285577 0.951278 0.1162582 14271422 female
-0.5314208 0.058529 0.9749342 0.8548516 0.07771522 0.5130195 1776675 female
-0.4977579 0.00289033 1.055231 0.8384235 -0.01942296 0.5446731 15255487 female
-0.5099707 0.589061 0.8466938 0.7292057 0.6326249 -0.2608541 13554654 female
-0.8392161 -0.5869761 0.8523862 0.9905205 -0.1319108 -0.03832185 1907745 female
-0.5760189 -0.5068857 0.8967525 -0.1534817 -0.193004 0.9691195 2301987 female
-0.8436576 0.3912282 0.9187578 -0.9476219 0.003756389 0.3193723 12369863 female
-0.669947 0.6329883 0.8981308 0.2699102 0.6293405 0.7287517 15396082 female
-0.8772046 -0.6678747 0.9414443 0.2325916 0.8126765 0.5342828 15848392 female
-0.8893669 0.6152937 0.8418926 -0.6331561 0.7312554 -0.2537302 12303039 female
-0.675111 0.2730047 0.8067536 -0.001490206 0.1895651 -0.981867 15201279 female
-0.5047549 0.5730469 0.8857522 0.6412516 0.4661351 0.6095198 13028813 female
-0.9207706 0.4085912 0.8278499 -0.4198759 -0.1347961 -0.8975155 5589847 female
-0.8114061 -0.4432034 0.871807 0.9837179 -0.1752077 -0.04001788 2040358 female
-0.8449438 0.0376177 0.8199502 -0.4397717 -0.3796805 -0.8139064 2631465 female
-0.6496032 0.540915 0.9721481 0.06955032 0.691876 0.7186587 12765138 female
-0.5453675 -0.5868772 0.8625734 0.9747072 -0.1280836 0.1831402 1578523 female
-0.5875392 -0.08917617 0.8484417 0.2094206 -0.05368185 -0.976351 2106409 female
-0.937532 -0.695595 0.9574528 -0.2589232 0.9534255 0.1547209 15781830 female
-0.7848918 0.3342121 0.8044988 -0.3227311 -0.1918707 -0.9268389 15398143 female
-0.8922407 -0.6306592 0.8831306 -0.9193214 0.2234226 0.3239297 2302502 female
-0.5755952 -0.1251534 0.8526741 0.3326842 -0.05838183 -0.9412293 2171688 female
-0.5580774 -0.3215027 0.9389008 0.4458902 -0.2417928 0.8618109 1908773 female
