# .PCD v0.7 - Point Cloud Data file format
VERSION 0.7
FIELDS x y z normal_x normal_y normal_z rgb label
SIZE 4 4 4 4 4 4 4 4
TYPE F F F F F F U U
COUNT 1 1 1 1 1 1 1 1
WIDTH 170
HEIGHT 1
VIEWPOINT 0 0 0 1 0 0 0
POINTS 170
DATA ascii
-0.9749491 0.1323502 -0.2466198 -0.8305079 0.05016646 -0.5547432 11910347 female
-0.6914052 0.1640192 -0.3004678 0.5476664 0.0654804 -0.8341306 9803174 female
-0.9585329 -0.4198864 -0.1181604 0.4449968 -0.2888784 0.8476598 2170913 female
-0.6336085 0.1185825 -0.08284534 -0.8668345 0.03946226 -0.497032 11974331 female
-0.6849824 -0.3016539 -0.2597811 -0.07356609 0.3673069 -0.9271859 2698289 female
-0.6531597 -0.1929934 -0.1221843 0.6836599 -0.1674219 0.7103374 2170145 female
-0.9480092 0.3233561 -0.2117222 -0.9524453 0.1116948 -0.2835001 12173257 female
-1.000736 -0.7044478 -0.1269949 0.05722482 -0.9816502 -0.1819014 657418 female
-0.946774 -0.5105123 -0.1742332 0.9619948 -0.2291979 0.1484393 1841948 female
-1.028432 0.1890104 -0.05308471 0.9244 -0.3661195 -0.1069629 12764108 female
-1.0394 0.4817032 -0.1814821 -0.9734914 0.1310372 0.1874667 7829376 female
-0.9431782 0.3126127 -0.2272685 -0.88837 0.1021771 -0.4476144 4013123 female
-0.9891703 -0.5280216 -0.218678 -0.1480285 0.03657955 -0.9883064 2499883 female
-0.9881729 0.3785242 -0.1542317 0.7178939 -0.08124401 0.6913956 14213617 female
-0.6147698 0.4910923 -0.3018888 0.535202 0.07740229 -0.8411705 8289676 female
-0.6346688 0.02284734 -0.1238977 0.8711546 0.06237236 0.4870312 1973536 female
-0.9837606 0.1460461 0.09191832 0.9610853 -0.06321282 -0.2689225 11901590 female
-0.8792599 0.06802144 -0.05001394 0.3356737 0.2143173 0.9172739 2434601 female
-0.9098865 -0.2699407 -0.1299787 0.8898008 -0.2364806 -0.3902966 1973278 female
-0.6964713 -0.6089881 -0.2103718 -0.7012872 0.1832457 0.6889248 2565671 female
-0.9958457 0.4175396 -0.1445449 0.3427081 0.01887239 0.9392524 13288397 female
-0.9468194 0.4017855 -0.1688792 -0.9516615 -0.1228349 0.2815174 14672877 female
-1.076551 0.226087 -0.07306521 -0.9977445 -0.0639521 0.02039649 5397866 female
-0.6779203 0.3414746 -0.1648562 0.9052306 0.1230308 0.4067197 3420469 female
-0.9527385 0.4222653 -0.1670223 -0.9112064 -0.3198772 0.2595796 14738664 female
-0.6205887 0.3615915 -0.2203771 0.03361012 -0.0002868449 0.9994349 14147815 female
-0.7272177 0.2436114 -0.0744612 0.6071413 0.141503 0.7818928 13620456 female
-0.7232817 0.2393142 -0.2949312 0.256326 0.3243504 -0.9105458 5327965 female
-0.7361359 0.8771776 -0.26668 0.8089466 0.4287279 -0.402241 2631463 female
-0.7307854 0.4757154 -0.08337976 0.07839391 0.174503 0.981531 14606327 female
-0.580494 0.2472255 -0.2409977 0.6489051 -0.4298582 -0.627809 11317177 female
-0.6340229 -0.4202271 -0.2495559 0.9343445 -0.04117862 -0.3539839 1579808 female
-0.9789992 -0.038904 -0.1967463 -0.5933868 -0.2361147 -0.7695076 2631470 female
-0.9093571 -0.2026777 -0.1558853 0.5853013 -0.1327422 -0.7998761 2171688 female
-0.649694 -0.6751209 -0.2336462 0.9358863 0.163167 -0.3122395 13087919 female
-0.8341385 0.8304807 -0.3142048 -0.3622933 -0.08118407 -0.9285218 14338761 female
-0.7353551 0.7651853 -0.2012157 0.9653914 -0.2451982 -0.08886637 15260103 female
-0.925234 0.6501018 -0.2586108 -0.5327405 0.7027187 -0.4715655 12437462 female
-0.9666401 0.1603814 -0.09829107 -0.6715828 0.2905305 0.6815927 6580853 female
-0.7957074 0.6099617 -0.3157482 -0.2292877 0.2427123 -0.9426122 13950196 female
-0.6351819 -0.1805905 -0.1509833 0.9568999 -0.09806989 0.2733587 2105377 female
-0.7994671 0.347487 -0.06671631 0.1104275 0.2235629 0.9684139 15067640 female
-0.8860626 0.08219036 -0.3007619 -0.146717 -0.2923708 -0.9449833 2960949 female
-0.7811849 0.1170125 -0.06272878 0.3006339 -0.3717524 0.8783048 4013901 female
-1.027386 0.5531647 -0.1684301 -0.8100967 0.3710372 0.4539543 7304056 female
-0.9482582 0.3398497 -0.1676923 -0.9768599 0.1048066 0.1864411 14935792 female
-0.7239048 0.2865331 -0.2864903 0.3442843 -0.02540282 -0.9385217 13488354 female
-0.7945312 -0.06550822 -0.1707587 -0.9668454 -0.2450437 0.07185835 2433573 female
-0.6230707 -0.03733582 -0.2016651 0.9617258 -0.1252038 -0.2437366 2105122 female
-0.6505195 0.6095482 -0.2260263 0.2964418 0.82797 0.4760126 12699337 female
-0.9206357 0.1806269 -0.075503 -0.4133695 0.04215833 0.9095869 14607351 female
-0.7452894 0.7733412 -0.2563191 0.7879579 -0.4646917 -0.4039603 2499619 female
-0.6748088 0.448989 -0.2892918 0.779313 -0.34079 -0.5258645 13553878 female
-0.9436942 -0.2890877 -0.1651851 0.5557731 0.3064394 -0.7727944 2697257 female
-1.002 0.5257155 -0.2444114 -0.3414932 -0.01100104 -0.9398199 9671839 female
-0.8479013 0.7235862 -0.249165 -0.8697153 0.09724224 -0.4838794 5984074 female
-0.9361849 -0.1106482 -0.03232306 0.04570179 -0.09532891 0.9943962 2171944 female
-0.6523372 0.6003555 -0.2120583 0.2295535 0.6687499 0.7071624 15330803 female
-0.7920973 0.5281432 -0.1046552 0.1604238 0.6513353 0.7416378 14146792 female
-0.9122176 -0.04483852 -0.2142773 0.06409618 -0.3354616 -0.9398708 2500651 female
-0.779133 0.8155324 -0.1235192 0.8293964 0.363008 0.4246491 14599093 female
-0.7310228 -0.1922629 -0.1196798 -0.5842851 -0.2410171 0.7749333 2170913 female
-0.8900188 0.4019281 -0.291546 -0.3967525 -0.2669944 -0.8782377 15198199 female
-0.9010383 -0.01712945 -0.03556084 0.2911336 -0.02120845 0.9564473 2170916 female
-0.7110873 -0.2817481 -0.1416998 -0.4943469 -0.4297657 0.7555943 2170913 female
-0.9896879 -0.008319587 -0.1972816 -0.7271677 -0.2644983 -0.6334571 2500907 female
-0.7263874 0.3964738 -0.1108334 0.6094893 0.1524161 0.7780052 15724543 female
-0.6796231 0.3225549 -0.1550477 0.870209 0.1710479 0.4620379 6183780 female
-1.01201 -0.2919518 -0.1698066 -0.6114023 0.3833475 -0.6922658 2171945 female
-0.7086169 -0.1986639 -0.1098062 -0.272078 -0.2248053 0.9356474 2170401 female
-0.7933897 0.1007655 -0.06767788 0.1641769 -0.5699477 0.8051121 2500391 female
-0.9327536 -0.2560387 -0.1526084 0.3328888 -0.03417851 -0.9423465 2631471 female
-0.994341 -0.6902497 -0.2011925 -0.03818733 -0.9915406 -0.1240524 919562 female
-0.9001781 -0.233765 -0.08984607 0.8853216 -0.2851844 0.367254 1973534 female
-0.9801368 0.06275594 -0.2380507 -0.7690703 -0.2071176 -0.6046761 2499881 female
-1.041182 0.1143082 0.02237975 0.9502127 -0.3107286 -0.02331417 6642776 female
-0.9339708 -0.02190517 -0.2223966 -0.163435 -0.3707015 -0.914259 2697516 female
-1.010816 -0.6590554 -0.2312423 -0.853824 0.2533881 -0.4547297 16770006 female
-0.6155894 0.1980119 -0.136357 -0.6340936 0.4569346 0.6238077 15068412 female
-0.6972808 -0.08413596 -0.08561765 0.04996401 -0.1686924 0.9844016 2171944 female
-1.063321 0.2531807 -0.06029808 -0.5376235 0.5318129 0.654321 13424860 female
-0.6608805 0.4739103 -0.2611645 0.9165425 -0.3887026 -0.09412817 11777205 female
-1.039753 0.3889059 -0.1474967 -0.5016698 0.274036 0.8205069 14016221 female
-0.9780031 -0.3970081 -0.1023084 0.180242 -0.2914484 0.9394523 2169889 female
-0.9415284 -0.2893312 -0.1638088 0.5812636 0.2932369 -0.759042 2631464 female
-0.9232032 0.3929733 -0.2669618 -0.7070477 -0.1766907 -0.6847364 15133430 female
-0.7743368 -0.1242862 -0.2043387 -0.921313 -0.2084411 -0.3282295 1972766 female
-0.6202308 0.06476983 -0.1797709 0.9916997 0.08464206 0.09678555 1908257 female
-0.7643414 0.8253209 -0.3074865 0.5432633 -0.1153582 -0.8315993 3420972 female
-0.6098313 0.05970461 -0.02493333 0.2462535 -0.9420316 -0.2278941 1642769 female
-0.8727356 -0.02483699 -0.2136851 0.4279503 -0.4007648 -0.8100901 2697257 female
-0.8463258 0.08017267 -0.2994931 -0.09651236 -0.3583192 -0.9285972 2171687 female
-1.001911 -0.258283 -0.1554261 -0.5516388 0.3433572 -0.7601318 2565673 female
-0.9493741 0.2698237 -0.2327935 -0.7443956 0.3969904 -0.5369114 3090992 female
-0.7672656 -0.173891 -0.1944437 -0.9735267 -0.1140373 -0.1980943 2170913 female
-0.6722167 0.2895492 -0.2376403 0.9008369 0.0765698 -0.4273522 14082023 female
-0.7435 -0.3670269 -0.2217454 -0.993651 0.02613302 0.109429 1776161 female
-0.776035 0.5000257 -0.09146378 0.0737227 0.4064688 0.9106855 14015206 female
-0.8262173 0.02791865 -0.1971018 0.7949734 -0.518794 -0.314436 2170913 female
-0.959927 0.6354515 -0.2098264 -0.479606 0.8640382 0.1530235 12370114 female
-0.6296596 -0.06306778 -0.1305352 0.9209655 -0.0765413 0.3820524 1973537 female
-0.6534274 -0.6617524 -0.2436204 0.9455795 0.05745912 -0.3202779 2105376 female
-1.012978 -0.5700698 -0.1930716 -0.9700196 -0.04590248 -0.2386523 1579032 female
-0.6172976 0.5923419 -0.2506467 0.6861585 0.7236992 -0.07379583 10132378 female
-0.9361686 -0.2525446 -0.1533723 0.286244 -0.03487958 -0.9575217 2698289 female
-1.02161 0.2202526 -0.104289 0.7695983 -0.5688132 -0.2901206 9474457 female
-0.5978839 0.4606142 -0.2829598 0.8907791 0.02822573 -0.4535592 15461628 female
-1.010381 -0.6527563 -0.1335259 -0.653715 0.6775247 0.3370713 15785175 female
-0.7654688 -0.1533676 -0.2100787 -0.8920758 -0.1493463 -0.4264932 2170914 female
-0.6871727 9.120163E-05 -0.07786575 0.2921833 0.003286507 0.9563567 2499878 female
-0.7276976 0.4284475 -0.3199058 0.2762663 -0.3511111 -0.8946496 9606042 female
-0.7977393 0.77873 -0.1195103 -0.3957825 0.1657974 0.9032538 13611434 female
-0.7482585 0.1978567 -0.3127215 0.06570936 0.2747536 -0.9592668 15200255 female
-1.026462 -0.6913863 -0.1710121 -0.6488048 -0.663139 -0.3732277 526344 female
-0.7760677 0.645034 -0.1846513 0.5649921 0.1593013 0.8095721 13685215 female
-0.6480672 0.5265728 -0.3129285 0.1491574 -0.1805188 -0.9721959 9409180 female
-0.9019729 -0.0338628 -0.2181591 0.1428576 -0.3663028 -0.9194639 2105124 female
-0.6929566 0.5597128 -0.3293169 0.3500369 0.02300379 -0.9364534 11383490 female
-0.8018931 0.7492755 -0.1194579 -0.3955492 -0.09509907 0.9135081 15257280 female
-0.848668 -0.008778645 -0.06936394 0.7531264 -0.1541949 0.6395502 2170913 female
-0.6657531 -0.555742 -0.2700433 0.6537321 -0.1478205 -0.7421479 1973281 female
-0.8908066 0.5151027 -0.08380108 -0.2519793 0.5882751 0.7684003 15133430 female
-0.9076049 -0.243853 -0.1406873 0.7575766 -0.2239762 -0.6131169 2105124 female
-0.7867096 0.2976811 -0.06207325 0.1784348 0.1403907 0.9738847 7434876 female
-0.6412084 0.1077715 -0.001729305 0.5876051 0.7162167 0.3765021 14797496 female
-0.9595748 0.5009822 -0.1603334 0.7099615 -0.3494736 0.6114106 15725559 female
-0.7445837 0.2501579 -0.06459019 0.479857 0.1617787 0.8623021 5130576 female
-0.6673744 0.5223079 -0.1811503 0.8275092 -0.08171411 0.5554741 14606311 female
-0.9661938 -0.6953789 -0.1066957 0.9162883 -0.3964972 -0.05661978 6641752 female
-0.7616083 0.4505678 -0.331797 -0.0158049 -0.2518727 -0.9676313 15462391 female
-0.7751731 0.5407462 -0.1217048 0.03947419 0.6372941 0.7696091 9145496 female
-0.686737 0.4795138 -0.1018517 0.6267612 0.252245 0.7372536 7895428 female
-0.7735227 -0.0535445 -0.2366318 -0.6493998 -0.2484075 -0.7187306 2237481 female
-0.823679 0.4940666 -0.3300164 -0.2162755 0.04827109 -0.9751384 15526648 female
-0.6594415 -0.5907847 -0.2172609 0.8053829 -0.06682186 0.5889763 1907998 female
-0.756906 0.716045 -0.2075777 0.9352296 -0.2630483 0.2369624 12429467 female
-0.672805 -0.4612897 -0.1874232 0.0970018 -0.2087434 0.9731479 2105379 female
-0.7330284 0.2732236 -0.07775541 0.5848714 0.1783978 0.7912647 14342371 female
-0.6846539 0.5969401 -0.1992731 0.3315288 0.5630408 0.7570164 11646908 female
-0.7928559 -0.03264822 -0.1297558 -0.8973598 -0.2098023 0.3882376 1579295 female
-0.8061215 0.07523696 -0.3095618 -0.3077793 -0.3155033 -0.8976244 2764858 female
-0.624714 -0.005258798 -0.143814 0.9518146 -0.007022871 0.3065935 1973537 female
-0.6441538 0.2707422 -0.2217401 -0.9322701 0.06086396 0.3566065 15198199 female
-0.7261322 0.872236 -0.2415321 0.9223327 0.3468944 -0.1701959 2039327 female
-0.6572966 0.4774054 -0.3104932 -0.2281551 -0.1372786 -0.9638982 12961486 female
-0.9366251 0.2684781 -0.1077334 -0.6950142 0.3172341 0.6452269 3289402 female
-0.9666504 -0.2931986 -0.06291623 0.07831449 -0.529368 0.84477 2630696 female
-1.049248 -0.6928195 -0.1050752 -0.8912095 0.4294291 -0.1460693 14534080 female
-0.6550816 0.1191174 -0.1211776 0.7091097 0.2369033 0.6641087 15330809 female
-0.600552 0.03463371 -0.0716106 -0.7760853 -0.1835272 0.6033319 12297634 female
-0.6154162 0.5886984 -0.2409928 0.7097383 0.6883158 0.1499764 12369597 female
-0.962091 -0.5784699 -0.2035427 0.9414371 -0.09928528 -0.3222401 2039327 female
-0.6699457 -0.3795168 -0.1703624 0.1649696 -0.1924704 0.9673366 2170403 female
-0.946891 0.3715608 -0.1684965 -0.9692805 6.031748E-05 0.2459579 10593705 female
-0.7953511 0.6171766 -0.1674175 0.144575 0.5421051 0.8277802 11974596 female
-1.000271 -0.6677974 -0.09720378 -0.2202238 0.8724781 0.4362149 16637655 female
-1.003857 0.6033336 -0.1918269 -0.6973649 0.7166576 -0.009171715 14607335 female
-0.807539 0.2494619 -0.2940403 -0.1255492 0.3067791 -0.9434637 13948650 female
-0.6197369 0.5504181 -0.2072151 0.4160039 0.1487866 0.8971083 5789280 female
-1.016673 0.3951262 -0.2277385 -0.2177723 -0.2078665 -0.9536073 12897242 female
-0.924616 -0.3989046 -0.1689655 0.9773704 -0.08873985 -0.192022 1776673 female
-0.9440509 -0.0203635 -0.220691 -0.2549556 -0.3677351 -0.8942978 2763826 female
-0.7508457 0.5305886 -0.1143554 0.1271442 0.638471 0.7590712 15659774 female
-0.6586789 -0.6198802 -0.2179901 0.8902514 0.0787213 0.448615 2829616 female
-0.6736083 -0.06318038 -0.2522469 0.3699887 -0.1503474 -0.9167901 2303275 female
-1.053083 -0.6974194 -0.08745454 -0.9920871 -0.01186063 -0.1249903 11112072 female
-0.8663389 0.2389477 -0.2877844 -0.1876592 0.2992967 -0.9355242 15201018 female
-1.009687 -0.6462621 -0.1423862 -0.72689 0.5960446 0.3411185 11970722 female
-0.6867967 -0.1231654 -0.2523152 0.2045022 -0.07796801 -0.975756 2171945 female
-0.651984 -0.3279867 -0.1659146 0.6262242 -0.1815419 0.7582123 1777187 female
