# .PCD v0.7 - Point Cloud Data file format
VERSION 0.7
FIELDS x y z normal_x normal_y normal_z rgb label
SIZE 4 4 4 4 4 4 4 4
TYPE F F F F F F U U
COUNT 1 1 1 1 1 1 1 1
WIDTH 170
HEIGHT 1
VIEWPOINT 0 0 0 1 0 0 0
POINTS 170
DATA ascii
-0.9381034 0.1276127 -0.1985963 -0.8252829 0.1092956 -0.554042 12173512 female
-0.6421067 0.1627742 -0.2425277 0.6076477 0.06362814 -0.7916538 9803174 female
-0.9220226 -0.4269631 -0.08687161 0.3458983 -0.2507352 0.9041494 2170913 female
-0.6194021 0.115304 0.003039995 -0.7747892 -0.4555981 -0.4383287 5917769 female
-0.6629848 -0.3045424 -0.2157413 -0.00764397 0.3888925 -0.9212514 2698289 female
-0.6627786 -0.1861876 -0.05722701 0.1452828 -0.2578546 0.9551983 2171688 female
-0.9066407 0.3150516 -0.1608814 -0.9511471 0.174695 -0.2545598 14080990 female
-0.9808756 -0.7094466 0.00443824 -0.3515808 -0.9358133 -0.02538327 526344 female
-0.9027396 -0.5177535 -0.1391876 0.9541938 -0.2237713 0.1985964 1841948 female
-0.9681395 0.2185941 -0.04781058 0.4911461 -0.7696856 -0.4078721 9935263 female
-0.9856992 0.4836646 -0.16068 -0.9878024 0.07472729 -0.1366098 10133932 female
-0.9061749 0.298512 -0.1695545 -0.9005981 0.2393576 -0.3628099 5460053 female
-0.9433113 -0.5372574 -0.1843603 -0.1077582 -0.009496802 -0.9941317 2499883 female
-0.9800909 0.4162689 -0.1132322 -0.5879783 0.2394529 0.7726215 11056058 female
-0.556143 0.504169 -0.2302279 0.5957669 0.08414009 -0.7987379 9671326 female
-0.6031668 0.01382119 -0.06605599 0.8374377 0.002350854 0.5465276 1973536 female
-0.9450061 0.1792423 0.1250774 -0.52776 -0.5907676 0.6102974 6181195 female
-0.8473698 0.06444295 -0.00854539 0.2783242 0.1803327 0.9434064 2434601 female
-0.8667696 -0.2737473 -0.1052727 0.9064496 -0.2386053 -0.3484489 1973278 female
-0.6696758 -0.5661064 -0.1659206 -0.02019403 -0.06215375 0.9978623 2171937 female
-0.9297735 0.4167557 -0.1136897 0.6164042 -0.05589366 0.7854437 11250613 female
-0.9048002 0.4577494 -0.09044532 -0.9469807 -0.1570307 0.2803015 14213609 female
-1.012665 0.2389094 -0.02570998 -0.9924874 -0.1178042 0.03302874 5397866 female
-0.6352104 0.3385112 -0.1040661 0.8724292 0.1047545 0.4773822 3420469 female
-0.9091223 0.4427577 -0.1188892 -0.9504987 -0.2247876 0.2145291 14344938 female
-0.5904085 0.3646954 -0.1525825 -0.3976038 -0.02851237 0.9171141 7829371 female
-0.6830407 0.2631502 -0.03081001 0.613903 0.1589862 0.7732053 6184287 female
-0.6888068 0.2208474 -0.2495974 0.1844397 0.3099088 -0.9327049 11844804 female
-0.6721106 0.8759818 -0.2047255 0.8530609 0.4148881 -0.3164727 2631463 female
-0.753547 0.3983728 -0.0318125 0.1060549 0.3141193 0.9434413 6184292 female
-0.5277848 0.2773174 -0.1556514 0.9861673 -0.1036416 -0.1293548 8423567 female
-0.6177452 -0.4255814 -0.2052439 0.9489716 -0.0746268 -0.3064046 1579808 female
-0.9208372 -0.03943097 -0.1725786 -0.3695885 -0.2305145 -0.9001486 2105896 female
-0.872842 -0.2237901 -0.1300991 0.4990622 -0.1011767 -0.8606394 2303014 female
-0.6443107 -0.6793071 -0.1955257 0.9517416 0.1347822 -0.2757201 13087919 female
-0.7772352 0.8673834 -0.2503444 -0.5135809 0.345343 -0.7854763 9473672 female
-0.6791219 0.76413 -0.1619335 0.8079154 -0.5311273 0.2552969 16768982 female
-0.8666305 0.6528769 -0.2168622 -0.4756233 0.7160609 -0.5109199 12437462 female
-0.9319845 0.1603704 -0.0606217 -0.714089 0.2764562 0.6431555 6580853 female
-0.7332575 0.6277378 -0.2571149 -0.0873085 0.2873886 -0.9538265 9274502 female
-0.6321426 -0.1735763 -0.06787685 0.6261982 -0.2332493 0.743956 1974050 female
-0.7561478 0.3446269 -0.01568263 0.08512121 0.2118689 0.9735841 12633296 female
-0.8379622 0.08556212 -0.2582479 -0.08229522 -0.2731975 -0.9584313 2960949 female
-0.7216141 0.2208765 -0.0009581785 0.342734 0.0265379 0.9390576 15002619 female
-0.9765059 0.5564772 -0.1339502 -0.8379276 0.3602589 0.4099888 7304056 female
-0.9035704 0.3499649 -0.1449243 -0.9971055 0.05568088 -0.05177193 6185065 female
-0.7021176 0.2687666 -0.23749 0.139375 0.1250952 -0.9823064 15200255 female
-0.7640849 -0.06441432 -0.1264924 -0.981101 -0.1934903 -0.00152454 2433573 female
-0.5896084 -0.04476925 -0.1449747 0.968287 -0.1701852 -0.1829136 2105122 female
-0.597252 0.6067108 -0.1587804 0.2561736 0.8200259 0.5117936 12699337 female
-0.8873844 0.1803815 -0.03426813 -0.474952 0.02602447 0.8796268 14607351 female
-0.7038177 0.7231298 -0.1934457 0.8225894 -0.139485 -0.5512627 4866113 female
-0.6064428 0.4513182 -0.1575341 0.9847429 -0.1638263 0.05867011 13816538 female
-0.8991232 -0.2951081 -0.1412181 0.5877654 0.2817843 -0.7583729 2697257 female
-0.9539847 0.5359545 -0.2052046 -0.3910307 0.01939824 -0.9201732 10725043 female
-0.792683 0.7159271 -0.1954598 -0.8358275 0.2217625 -0.5022087 10981510 female
-0.9008014 -0.1158351 -0.002758062 -0.008759539 -0.1361222 0.9906533 2171944 female
-0.6255783 0.5912363 -0.1373836 0.1974468 0.5553349 0.8078477 13751265 female
-0.7367154 0.5281153 -0.05549916 0.05681823 0.6486164 0.7589918 14278121 female
-0.868703 -0.0421002 -0.1788673 0.1246447 -0.296011 -0.947017 2500651 female
-0.7389817 0.8066895 -0.0565911 -0.2737169 0.6207286 0.7346939 14401976 female
-0.7062689 -0.1915383 -0.06969158 -0.5733409 -0.2382853 0.7839007 2170401 female
-0.8348627 0.4036835 -0.2476497 -0.3294308 -0.2592792 -0.907882 15198199 female
-0.9203669 -0.01892512 -0.001923754 -0.4203082 0.03313371 0.9067762 2368809 female
-0.6254519 -0.2807169 -0.1089734 0.8534736 -0.2047418 0.4792324 2039075 female
-0.9476473 -0.007320356 -0.165227 -0.6847036 -0.2485987 -0.685113 2500907 female
-0.6459179 0.4772039 -0.2673265 0.4994923 -0.2654377 -0.8246516 14607351 female
-0.6332387 0.3281198 -0.1058594 0.8865845 0.1356421 0.442232 13752800 female
-0.956489 -0.2880083 -0.1481247 -0.3790228 0.3968914 -0.8359539 2303275 female
-0.6877872 -0.1925216 -0.06032128 -0.2833388 -0.2470945 0.9266409 2170660 female
-0.7309899 0.1739797 -0.002555648 0.329419 -0.211415 0.9202102 4606287 female
-0.8862277 -0.271951 -0.1247372 0.5329041 -0.04911014 -0.8447493 2632488 female
-0.9399318 -0.6992248 -0.1324367 0.2016457 -0.9792652 0.0194609 986381 female
-0.8590393 -0.2362266 -0.06445419 0.8683339 -0.2789438 0.4101056 1973534 female
-0.9221735 0.09251921 -0.2210458 -0.6652905 -0.01457858 -0.7464423 2566703 female
-0.9710261 0.1408042 0.08158933 0.9670511 -0.2544125 0.009301004 6642776 female
-0.8904995 -0.01912723 -0.1872657 -0.1033756 -0.3367423 -0.9359049 2697516 female
-0.9724541 -0.6780688 -0.182187 -0.9231482 0.03130632 -0.3831674 14269620 female
-0.5946388 0.2120352 -0.07945756 -0.8512108 0.3362305 0.4029755 14147056 female
-0.6742851 -0.09095292 -0.03596298 -0.02702017 -0.2001557 0.9793915 2171944 female
-1.001027 0.2679499 -0.01615956 -0.5678136 0.5700946 0.5937844 13424860 female
-0.6069103 0.470281 -0.1986374 0.9096573 -0.4143102 -0.02950575 10132382 female
-0.992154 0.4203196 -0.1311213 -0.9077487 0.236425 0.346548 5001303 female
-0.9365446 -0.4009713 -0.07425332 0.1403335 -0.2481924 0.958492 2169889 female
-0.9341031 -0.3155738 -0.165697 0.0479168 0.3467044 -0.9367497 2697516 female
-0.8738447 0.371799 -0.2178843 -0.6816611 -0.2139497 -0.6996883 7764347 female
-0.7437273 -0.1645502 -0.1380702 -0.9929208 -0.09678944 -0.0688494 1841436 female
-0.5827243 0.05737566 -0.1194587 0.9853224 0.03620976 0.1668195 1908257 female
-0.6973144 0.8251569 -0.2487099 0.6180562 -0.1184437 -0.77716 3420972 female
-0.613812 0.05913845 0.07684632 0.01762551 -0.7948947 -0.6064913 11969695 female
-0.8315967 -0.04772962 -0.1637614 0.5477403 -0.3274556 -0.7699049 2498854 female
-0.7984509 0.08277693 -0.2541016 -0.0355415 -0.3407126 -0.9394955 2171687 female
-0.9468392 -0.1751438 -0.02338169 -0.6487003 -0.07695314 0.7571434 2170657 female
-0.8830355 0.2753351 -0.2090208 -0.5561316 0.3112273 -0.77062 14082292 female
-0.7423725 -0.1493107 -0.1558944 -0.9394975 -0.1034914 -0.3265485 2170913 female
-0.6228886 0.2772962 -0.1707748 0.9405246 0.1407079 -0.3092164 4343106 female
-0.7262443 -0.3681296 -0.1820637 -0.9960291 0.06694617 0.05868714 1776161 female
-0.7646865 0.4925668 -0.03320204 0.2049741 0.3034752 0.9305313 13290450 female
-0.7846263 0.03843999 -0.172832 0.2532573 -0.932182 -0.2586455 1842204 female
-0.9003361 0.6434685 -0.1753202 -0.4783629 0.8754172 0.06938014 13749452 female
-0.6026536 -0.07243884 -0.07548662 0.8872567 -0.1395443 0.4396622 1973537 female
-0.6472898 -0.6658201 -0.2054886 0.9589611 0.0280653 -0.2821454 2105376 female
-0.9683003 -0.5779783 -0.1577268 -0.9597967 -0.05371014 -0.2755098 1579032 female
-0.5725736 0.598693 -0.1838153 0.6465173 0.762077 -0.03541224 9013393 female
-0.8858544 -0.2659445 -0.1262879 0.4792705 -0.06637508 -0.8751538 2369060 female
-0.9635646 0.1989369 0.02113648 0.9745547 -0.2175014 -0.05418796 9672602 female
-0.5430076 0.4623272 -0.2099339 0.9315415 -0.01579397 -0.3632919 8949144 female
-0.9664626 -0.6603938 -0.08588494 -0.5840707 0.7468033 0.318035 16311770 female
-0.7418187 -0.1962836 -0.1332201 -0.9957851 -0.05779912 0.07121259 1579291 female
-0.6976175 0.004556829 -0.02392543 -0.1564296 -0.0342482 0.9870952 2171945 female
-0.6697876 0.4267331 -0.2624205 0.3432783 -0.3553264 -0.8694269 9606042 female
-0.7291495 0.7537208 -0.06685077 0.5804348 0.09675063 0.8085386 11896460 female
-0.6972824 0.1978644 -0.2584252 0.1411897 0.2844723 -0.9482304 15200255 female
-0.95051 -0.702606 -0.1142646 0.1417218 -0.9875628 -0.06807864 722698 female
-0.7245383 0.6440327 -0.1298189 0.4916256 0.1406922 0.8593661 13685215 female
-0.5983491 0.5233383 -0.2489234 0.2694268 -0.2978283 -0.9158098 15198191 female
-0.8701769 -0.04410772 -0.1785333 0.1160466 -0.2911758 -0.9496051 2500652 female
-0.6247094 0.5586577 -0.2638563 0.4507924 0.03350003 -0.892 11186367 female
-0.7685457 0.781408 -0.07085336 -0.1814858 -0.004829374 0.9833817 16773348 female
-0.8138873 -0.01127164 -0.02940815 0.7178068 -0.170057 0.6751549 2170913 female
-0.6541096 -0.5592453 -0.2302359 0.683419 -0.1625042 -0.7117098 1973281 female
-0.855826 0.5248456 -0.05066749 -0.3453851 0.583378 0.7351049 5724514 female
-0.8836683 -0.2349356 -0.1321036 0.3169632 -0.1139419 -0.9415686 2500137 female
-0.7525175 0.2971856 -0.01001633 0.1056585 0.1368558 0.9849399 7434876 female
-0.6403978 0.1262948 0.05171891 -0.7436147 0.6347995 -0.2099209 16771549 female
-0.9288422 0.5873495 -0.1079108 -0.1411998 0.3208207 0.9365558 12303555 female
-0.7110168 0.2478679 -0.009654967 0.4170868 0.1464486 0.8969902 5130576 female
-0.6313266 0.5305706 -0.1035453 0.6362831 0.2491738 0.7301071 7961988 female
-0.9251215 -0.7047577 -0.04200492 0.9448571 -0.3232136 0.05270761 6706519 female
-0.7019557 0.4497617 -0.2770171 0.0617098 -0.2488097 -0.9665846 15462391 female
-0.7316198 0.5393865 -0.06796332 -0.01467503 0.6311577 0.7755157 9145496 female
-0.6511453 0.5006091 -0.05312178 0.4733086 0.5294431 0.7040375 14607854 female
-0.7502961 -0.01807829 -0.1893318 -0.689593 -0.2573906 -0.6769133 2302243 female
-0.7625454 0.4951333 -0.2801566 -0.1273458 0.0593807 -0.9900793 15526648 female
-0.6518839 -0.5952855 -0.178042 0.7733533 -0.1077194 0.6247569 1907998 female
-0.7029642 0.7003164 -0.1512736 0.8919584 -0.1582506 0.4235175 14993595 female
-0.644889 -0.5032417 -0.1594617 0.5125455 -0.2268435 0.8281541 2171428 female
-0.6981845 0.2711472 -0.02163411 0.5265058 0.1639052 0.8342222 14342371 female
-0.5707695 0.5936013 -0.1624655 0.5658145 0.7230702 0.3962618 5724511 female
-0.7657936 -0.02422403 -0.0885794 -0.950186 -0.1451685 0.275813 1907741 female
-0.6909136 0.03464255 -0.2470625 0.09579445 -0.5575663 -0.8245867 2171945 female
-0.5934375 -0.01427126 -0.08626826 0.9268537 -0.06689486 0.3694149 1973537 female
-0.6024424 0.2755382 -0.1504013 -0.9239435 0.2013601 0.3252421 9147032 female
-0.6617007 0.8580958 -0.1626974 0.9870296 0.141511 0.07580941 2368292 female
-0.5916747 0.4634037 -0.2436067 0.001285787 -0.1111887 -0.9937985 11184050 female
-0.9012961 0.275901 -0.07319291 -0.7674257 0.3376927 0.5449967 13621221 female
-0.9265319 -0.296032 -0.03967358 0.03998693 -0.5041946 0.8626639 2630696 female
-1.011825 -0.6955582 -0.04778873 -0.8380602 0.5382282 -0.08925011 11112842 female
-0.5931632 0.02578197 -0.08398302 0.9098181 0.005249108 0.414974 1973537 female
-0.5919662 0.03197138 0.01124421 -0.9458437 -0.1381978 -0.2937364 10454657 female
-0.5611712 0.585277 -0.1699685 0.7009628 0.6737768 0.2338291 12369597 female
-0.9170357 -0.58701 -0.1657062 0.953202 -0.1173681 -0.2786227 2039327 female
-0.6566319 -0.5800502 -0.1712214 0.5242459 -0.1152602 0.8437307 2171172 female
-0.9008462 0.388911 -0.1254843 -0.9725847 0.009785905 0.2323432 11581116 female
-0.7458535 0.6165724 -0.1146304 0.0818508 0.5333476 0.8419268 11974596 female
-0.9592905 -0.6267233 -0.1161906 -0.7822931 0.2886306 0.5520054 2236968 female
-0.9515857 0.6074437 -0.1563707 -0.6853805 0.7257037 -0.06006378 14607335 female
-0.7436752 0.2702546 -0.2379908 -0.09257863 0.2049543 -0.9743834 15201279 female
-0.5880036 0.5614389 -0.1330413 0.1850578 0.1997726 0.9622082 11316404 female
-0.9434913 0.3606224 -0.1776112 0.4652411 -0.4156254 -0.781541 2763818 female
-0.8804117 -0.4059468 -0.1386707 0.9842628 -0.09776862 -0.1472006 1776673 female
-0.8893508 0.008464226 -0.198824 -0.1443379 -0.4895341 -0.8599552 2895412 female
-0.715976 0.5217053 -0.05266835 0.0359612 0.5989853 0.7999521 10395047 female
-0.6522386 -0.6241981 -0.1794608 0.8719019 0.03983536 0.4880576 2829616 female
-0.6378102 -0.06638269 -0.1994942 0.424125 -0.143831 -0.8941088 2303275 female
-1.007209 -0.6913502 -0.05476132 -0.5156749 0.8567448 -0.008229014 16309463 female
-0.8158783 0.2409374 -0.2415375 -0.1121963 0.3122786 -0.943342 15201018 female
-0.9545429 -0.6557405 -0.08127462 -0.2829576 0.841545 0.4601489 16774119 female
-0.6546091 -0.1255753 -0.2026859 0.2656353 -0.0610512 -0.9621385 2171945 female
-0.6362339 -0.3342091 -0.12074 0.5764824 -0.2240328 0.7857973 1777187 female
