# .PCD v0.7 - Point Cloud Data file format
VERSION 0.7
FIELDS x y z normal_x normal_y normal_z rgb label
SIZE 4 4 4 4 4 4 4 4
TYPE F F F F F F U U
COUNT 1 1 1 1 1 1 1 1
WIDTH 170
HEIGHT 1
VIEWPOINT 0 0 0 1 0 0 0
POINTS 170
DATA ascii
-0.9615089 0.1378397 -0.2026963 -0.891296 0.1276956 -0.4350691 14079973 female
-0.6598875 0.1681588 -0.2650289 0.5952203 0.07896025 -0.7996738 9803174 female
-0.9413258 -0.424989 -0.1079733 0.3210565 -0.2491955 0.9136872 2170913 female
-0.6075662 0.1157049 -0.04831192 -0.909518 0.3320709 -0.2500118 12890545 female
-0.6555521 -0.3181608 -0.2454396 0.102692 0.3252993 -0.9400184 2237738 female
-0.6656105 -0.1803927 -0.08126649 0.1672918 -0.2516885 0.9532399 2171688 female
-0.8926604 0.3654139 -0.2356769 -0.6731806 -0.2393916 -0.6996567 12172489 female
-0.9974046 -0.7128439 -0.09076323 0.02865936 -0.9964197 -0.07953914 789772 female
-0.9246845 -0.5386696 -0.1718562 0.9830648 -0.1826252 0.01522121 1776929 female
-1.009157 0.1848297 -0.0358589 0.931011 -0.360932 -0.0542836 12238536 female
-1.013082 0.4822168 -0.1838256 -0.9844071 0.08993796 -0.1511746 10133932 female
-0.9418119 0.2617386 -0.1202579 -0.8547083 0.4121407 0.3156163 13753065 female
-0.9777712 -0.468705 -0.2025388 -0.4035639 -0.03880814 -0.9141281 1973537 female
-0.9620686 0.3784063 -0.13871 0.6874021 -0.06634084 0.7232409 15133945 female
-0.5676351 0.5371927 -0.2373913 0.8886501 0.2846417 -0.3595556 7698310 female
-0.6088998 -0.0127876 -0.09684736 0.8901438 -0.02685238 0.454888 1973536 female
-0.9720813 0.1450072 0.1114617 0.9949212 -0.07618231 -0.06578826 10126725 female
-0.9299229 0.04231185 -0.02715524 -0.4234203 0.1610081 0.8915108 2500651 female
-0.8799936 -0.2362937 -0.0823912 0.8379239 -0.2931672 0.4603656 2105120 female
-0.6587198 -0.5903388 -0.1812859 0.0818218 0.09200583 0.992391 2434601 female
-0.971317 0.4191862 -0.1292729 0.281854 0.03036397 0.9589767 13288397 female
-0.9203624 0.4306161 -0.1183625 -0.8596607 -0.3440945 0.3776008 10987703 female
-1.054818 0.2255765 -0.06348668 -0.9962566 -0.07087974 -0.04948613 5397866 female
-0.65379 0.3447183 -0.1275146 0.8817882 0.129005 0.4536598 3420469 female
-0.9244824 0.3818592 -0.1702954 -0.9986572 -0.04079843 -0.03192552 15001836 female
-0.5942203 0.4296089 -0.1847261 0.2488011 0.01196853 0.9684806 6578796 female
-0.698983 0.267605 -0.05265575 0.6253248 0.1719851 0.7611767 6184287 female
-0.7077618 0.2253134 -0.2712228 0.1649873 0.3167926 -0.9340351 11844804 female
-0.7100036 0.8785024 -0.2494645 0.8251921 0.4219322 -0.3755412 2631463 female
-0.7000976 0.5097536 -0.06733649 0.1775153 0.5908406 0.787017 10856115 female
-0.541903 0.2574778 -0.2008643 0.9073287 -0.1724277 -0.3834363 9013397 female
-0.6139078 -0.4402228 -0.2265925 0.9474655 -0.08415253 -0.3085894 1579553 female
-0.9360644 -0.03758924 -0.1937207 -0.3600775 -0.2263492 -0.9050471 2105896 female
-0.8856012 -0.2002547 -0.1524626 0.587657 -0.1093608 -0.8016854 2171944 female
-0.6299965 -0.6751477 -0.2073556 0.9531637 0.1497747 -0.2627671 13087919 female
-0.8046288 0.8282957 -0.3001179 -0.3091261 -0.1292067 -0.9422031 14338761 female
-0.7133212 0.7712097 -0.1532308 0.9605131 -0.2071621 0.185738 16574163 female
-0.891352 0.6578189 -0.2345659 -0.5122553 0.77733 -0.3651749 11582152 female
-0.92304 0.1668263 -0.06406791 -0.5180179 0.1947408 0.8329067 3552582 female
-0.758922 0.5864089 -0.2978377 -0.2451043 0.2056494 -0.9474345 14739705 female
-0.6356145 -0.166625 -0.0922057 0.6443995 -0.2085578 0.7356989 1974050 female
-0.7805267 0.351496 -0.03626124 0.05800859 0.2312632 0.9711603 15067640 female
-0.82288 0.07399034 -0.2722601 0.01958727 -0.4360004 -0.8997332 2435119 female
-0.7383253 0.2178884 -0.02101151 0.3462498 -0.01331925 0.9380478 12700887 female
-1.003326 0.554291 -0.1563386 -0.8434855 0.3633465 0.3956155 7304056 female
-0.9130355 0.4406157 -0.09153363 -0.7853674 -0.4413074 0.4341035 12962258 female
-0.722064 0.2728295 -0.2589184 0.1191993 0.128491 -0.984521 15200255 female
-0.7796108 -0.03480528 -0.1479363 -0.9841088 -0.1773008 0.009707959 3290426 female
-0.6007453 -0.05624238 -0.1509974 0.9918699 -0.1233056 -0.0314596 1908509 female
-0.6330327 0.6143531 -0.1933291 0.1981836 0.8201414 0.5367415 13422293 female
-0.8553807 0.1406769 -0.03961553 -0.2222335 -0.08033197 0.9716784 15133438 female
-0.7360422 0.7257587 -0.2279692 0.8037239 -0.1447492 -0.577127 4866113 female
-0.6297911 0.4553577 -0.1599878 0.9821641 -0.1603685 0.09816162 6973546 female
-0.9508005 -0.3176588 -0.1888286 0.07850265 0.3319294 -0.940032 2697774 female
-0.9652537 0.5310063 -0.2322029 -0.2390654 -0.1278795 -0.9625459 9804198 female
-0.8246582 0.7157949 -0.2258705 -0.8622706 0.1689268 -0.4774445 10981510 female
-0.9333577 -0.1078228 -0.02520259 -0.2466601 -0.1104193 0.962791 2171944 female
-0.6404034 0.602221 -0.1777952 0.1745427 0.658615 0.7319571 16251135 female
-0.7578231 0.5348194 -0.08099328 0.06691797 0.6753456 0.7344592 14278121 female
-0.8837931 -0.04069867 -0.1993549 0.1332432 -0.2955697 -0.9459836 2500651 female
-0.7778341 0.8056018 -0.09888025 -0.8249696 0.4030671 0.3961844 13282465 female
-0.7090214 -0.1874188 -0.09330878 -0.5539628 -0.260171 0.7908453 2170401 female
-0.8430523 0.3816042 -0.2657717 -0.2042576 -0.2689746 -0.9412394 8288646 female
-0.9382935 -0.01721337 -0.02314332 -0.4337887 0.03652862 0.9002739 2368809 female
-0.6259005 -0.263499 -0.1293198 0.8648018 -0.1494239 0.4793644 2171174 female
-0.9626653 -0.005436277 -0.1865342 -0.6784688 -0.2433781 -0.6931431 2500907 female
-0.7173274 0.4074821 -0.07126646 0.4493215 0.1359017 0.8829727 15200255 female
-0.6516831 0.3342094 -0.1292585 0.8940765 0.1587536 0.418837 13752800 female
-0.9913958 -0.3666229 -0.09977756 -0.6690397 -0.1142398 0.7343944 2565671 female
-0.6387448 -0.1981346 -0.09680911 0.6035052 -0.1930311 0.773641 2170403 female
-0.7492467 0.1449836 -0.02960404 0.368884 -0.2549935 0.8938137 14541297 female
-0.919279 -0.2171069 -0.1580475 0.1221558 -0.06137275 -0.9906116 2565419 female
-0.9914197 -0.6921626 -0.1791576 -0.606747 -0.734403 -0.3041553 1051664 female
-0.8765921 -0.2502999 -0.1003176 0.9266223 -0.3027986 0.2228992 2038559 female
-0.9467425 0.09084889 -0.2312807 -0.7275248 0.001140921 -0.6860804 2696745 female
-1.025382 0.113231 0.03337233 0.9512596 -0.3057725 0.04010431 6642776 female
-0.905262 -0.01764071 -0.2079046 -0.09597006 -0.3346483 -0.9374435 2697516 female
-0.9880384 -0.6677089 -0.2002711 -0.9006426 0.2402038 -0.3621396 15124160 female
-0.6025768 0.2250397 -0.1472358 -0.8771507 0.1265935 0.4632287 7830410 female
-0.7488275 -0.06272041 -0.08404669 -0.7180388 -0.2665659 0.6429331 1973534 female
-1.042701 0.2526407 -0.04958781 -0.5856598 0.5222709 0.6198674 13424860 female
-0.6311117 0.4832136 -0.1901169 0.973973 -0.1876656 0.1271149 14079966 female
-1.014462 0.3898202 -0.1347573 -0.5571072 0.27074 0.7850679 14016221 female
-0.9825091 -0.365453 -0.09095321 -0.467435 -0.1509201 0.8710498 2631464 female
-0.9510788 -0.3137607 -0.1874081 0.07302389 0.3442647 -0.9360285 2697516 female
-0.9078101 0.4053609 -0.2260039 -0.8227116 -0.2610652 -0.504966 5460312 female
-0.7490044 -0.1582228 -0.1554141 -0.9882318 -0.1524776 0.01218448 1775899 female
-0.5951802 0.03226796 -0.1359974 0.9836433 0.002922575 0.1801038 1974307 female
-0.7352458 0.8244306 -0.2893516 0.5898714 -0.1445544 -0.794453 3420972 female
-0.5866255 0.06197735 -0.02007267 -0.8987604 -0.3104323 -0.309615 8089191 female
-0.8468814 -0.04664834 -0.1838357 0.5539773 -0.3305246 -0.7641091 2498854 female
-0.8447468 0.1025309 -0.2820403 -0.04787838 -0.1722237 -0.9838936 5263457 female
-0.9662815 -0.1731284 -0.04521826 -0.661859 -0.07137739 0.7462224 2170657 female
-0.8991542 0.2894227 -0.225142 -0.6198468 0.1610912 -0.7680102 5524558 female
-0.744851 -0.1960184 -0.1682725 -0.992609 -0.07162672 -0.09796448 1776155 female
-0.6339898 0.2712826 -0.1699936 0.9615498 0.2691468 -0.05460807 14673128 female
-0.7078841 -0.2760133 -0.2068098 -0.5541601 0.04819275 -0.8310139 2170913 female
-0.7556881 0.4871868 -0.05590416 -0.001132812 0.209031 0.9779084 15396603 female
-0.7986186 0.03690317 -0.1777993 0.7739125 -0.5749148 -0.2655794 1645081 female
-0.9323898 0.6305659 -0.1695478 -0.1730532 0.8986734 0.4030368 12894660 female
-0.6108939 -0.09249344 -0.1110334 0.9319139 -0.1293085 0.3388449 1841953 female
-0.6360874 -0.653801 -0.229674 0.9141946 -0.01676907 -0.4049283 1842207 female
-0.9390299 -0.4042231 -0.1029241 0.3300383 -0.2515889 0.9098229 2170913 female
-0.5894327 0.5947005 -0.2183564 0.6880493 0.7224777 -0.06792735 10132378 female
-0.9188769 -0.2229553 -0.1571972 0.1416755 -0.06285959 -0.9879153 2500140 female
-0.99779 0.2203901 -0.0908599 0.7918813 -0.5611421 -0.2409222 9474457 female
-0.5634516 0.4851249 -0.2186346 0.9854709 0.0171543 0.1689761 10725291 female
-0.9897491 -0.6238823 -0.1809652 -0.9670537 0.1022267 -0.2331457 2105120 female
-0.7457288 -0.1781566 -0.1741151 -0.9697009 -0.07804915 -0.2314921 1907741 female
-0.6907818 0.01987502 -0.04536312 0.04289882 0.009995152 0.9990294 2237481 female
-0.7357399 0.4417455 -0.2975961 0.01872924 -0.2767765 -0.9607518 12237251 female
-0.7603449 0.7476148 -0.102386 0.4693961 -0.07169665 0.8800721 16246750 female
-0.6813716 0.1509952 -0.2801274 0.445766 0.0619842 -0.8930009 12106953 female
-0.982899 -0.702125 -0.1377967 0.06676514 -0.9897473 -0.1262649 723979 female
-0.7513471 0.6442133 -0.1591383 0.4957519 0.2648909 0.8270809 14277095 female
-0.6211383 0.5384532 -0.2824523 0.2849114 -0.1363507 -0.9488066 5658203 female
-0.8853033 -0.04269228 -0.1990381 0.1248242 -0.2907377 -0.9486256 2500652 female
-0.6675066 0.5869533 -0.2964584 0.3471637 0.2528984 -0.9030613 16185343 female
-0.7955628 0.7547615 -0.1080541 -0.4458967 0.005703233 0.8950663 14864572 female
-0.8669921 0.006518743 -0.02457149 0.3350319 -0.03164837 0.9416751 2171171 female
-0.6475936 -0.5427927 -0.2514757 0.5059736 -0.13954 -0.851187 2302502 female
-0.8767239 0.5283648 -0.0716235 -0.3356741 0.5977125 0.728054 5724514 female
-0.8821878 -0.2449443 -0.1364282 0.7967424 -0.2215842 -0.5622294 2105124 female
-0.7683133 0.3006062 -0.03057077 0.1245448 0.141631 0.9820536 7434876 female
-0.5989589 0.1063726 -0.004853173 0.6053292 0.5020746 0.6176549 14727601 female
-0.955114 0.5856616 -0.1301001 -0.1438724 0.3302571 0.9328617 12303555 female
-0.7298532 0.2927805 -0.03811589 0.4109899 0.1625736 0.8970268 11053494 female
-0.6429855 0.5293798 -0.1489756 0.7593892 -0.0715072 0.6466954 10526630 female
-0.9735131 -0.7150869 -0.04925279 -0.05430089 -0.9972556 0.05032483 526089 female
-0.7225578 0.4523661 -0.300611 0.06946097 -0.283686 -0.9563982 15725567 female
-0.7835618 0.5450708 -0.09000438 0.2181209 0.6584219 0.7203498 3419956 female
-0.6905657 0.5574667 -0.1161677 0.3121719 0.6252167 0.7152991 2697265 female
-0.7621676 -0.01581308 -0.2109145 -0.6887901 -0.2790842 -0.6690891 2302243 female
-0.7806237 0.5054943 -0.3037398 -0.2580906 0.1583653 -0.9530528 13618138 female
-0.6368211 -0.561534 -0.1909893 0.7365627 -0.1457639 0.6604759 2171682 female
-0.7320593 0.7198875 -0.1843522 0.9243973 -0.2383589 0.2977827 12429467 female
-0.6541651 -0.4273992 -0.1576969 0.03799855 -0.2021301 0.9786212 2171431 female
-0.7260945 0.2718762 -0.03553621 0.4350776 0.1760786 0.8830083 4539471 female
-0.6639035 0.5983894 -0.1646899 0.3000274 0.5717901 0.7635704 10987956 female
-0.7851763 0.01283392 -0.1296653 -0.9900553 -0.06182416 0.1263655 2169889 female
-0.7166011 0.0505552 -0.276475 0.06096185 -0.4448563 -0.8935248 2368300 female
-0.5945764 0.008666867 -0.160972 0.9951621 -0.06985622 -0.06908396 1776161 female
-0.6085618 0.2320262 -0.1944923 -0.840469 -0.4191114 -0.3434494 13553880 female
-0.6973066 0.863443 -0.2069562 0.9839741 0.1764473 0.0257178 2368292 female
-0.6237711 0.4868786 -0.2795421 -0.1129389 -0.09895287 -0.9886622 12828875 female
-0.9125808 0.2864122 -0.08882357 -0.7514605 0.2900526 0.5926016 9145493 female
-0.9589698 -0.3155711 -0.07557321 -0.1865703 -0.2710879 0.9443001 2301987 female
-1.021784 -0.6892127 -0.08159621 -0.4560766 0.8892053 0.03616765 16243156 female
-0.6049866 0.03362165 -0.1079209 0.9145662 0.03757862 0.4026865 1973537 female
-0.5562826 0.03677796 -0.06032288 0.9315403 -0.1344783 -0.3378584 16574943 female
-0.5786066 0.5722513 -0.232762 0.7639331 0.5265887 -0.3729751 14081007 female
-0.9334573 -0.5868915 -0.1756428 0.9931793 -0.08974627 -0.0744346 1973022 female
-0.6541827 -0.5209383 -0.1768069 0.09883714 -0.1517055 0.9834718 2499878 female
-0.9004361 0.4074086 -0.1033292 -0.7791523 -0.1714468 0.6029326 14606319 female
-0.7588029 0.6236181 -0.1450194 0.1467288 0.5457676 0.82499 15263984 female
-0.9764177 -0.6411991 -0.1200074 -0.6034743 0.6361827 0.4807185 2302243 female
-0.9682709 0.6141536 -0.1874031 -0.6691905 0.7289767 -0.1441421 12303039 female
-0.7637505 0.2734564 -0.2586201 -0.1150464 0.20325 -0.9723445 15201279 female
-0.5979128 0.5803143 -0.1782669 0.455568 0.3930319 0.7987388 9802653 female
-0.9864287 0.3958713 -0.2134946 -0.1536335 -0.2178452 -0.9638155 12897242 female
-0.9031259 -0.4352126 -0.1568035 0.9822409 -0.1873396 0.0103253 1842720 female
-0.9038736 0.009809 -0.2193043 -0.1395924 -0.4872333 -0.8620427 2895412 female
-0.7368392 0.5291098 -0.07879753 0.04885898 0.6265543 0.7778448 10395047 female
-0.635231 -0.6172068 -0.1980036 0.9456466 0.01601507 0.3248014 2369581 female
-0.6853554 -0.1067796 -0.228612 -0.02830405 -0.05883307 -0.9978665 2106409 female
-1.025949 -0.6916077 -0.06687558 -0.3402168 0.9337568 0.111134 15518401 female
-0.8711419 0.3379214 -0.2464719 -0.4367531 -0.1618434 -0.8849031 15398143 female
-0.9944345 -0.6822677 -0.06651886 -0.2905763 0.9095928 0.2969955 16506325 female
-0.6614313 -0.09330767 -0.2264252 0.2679714 -0.04285813 -0.9624731 2171945 female
-0.6292996 -0.3185744 -0.145591 0.7002041 -0.16729 0.6940665 2040353 female
