# .PCD v0.7 - Point Cloud Data file format
VERSION 0.7
FIELDS x y z normal_x normal_y normal_z rgb label
SIZE 4 4 4 4 4 4 4 4
TYPE F F F F F F U U
COUNT 1 1 1 1 1 1 1 1
WIDTH 170
HEIGHT 1
VIEWPOINT 0 0 0 1 0 0 0
POINTS 170
DATA ascii
-0.964821 0.1371056 -0.2091195 -0.8927581 0.1276798 -0.4320657 14079973 female
-0.6635239 0.1672327 -0.2726445 0.5921894 0.07791308 -0.8020233 9803174 female
-0.9464098 -0.4252027 -0.112742 0.320314 -0.2488015 0.914055 2170913 female
-0.6092846 0.1175127 -0.05396043 -0.9112964 0.3270771 -0.2501186 12890545 female
-0.6308734 -0.5543883 -0.1992458 0.8835548 -0.1582256 0.4407899 2171937 female
-0.6672381 -0.1802126 -0.08606881 0.1724822 -0.2417858 0.9548767 2171688 female
-0.8960365 0.365052 -0.2419489 -0.6777563 -0.2348917 -0.6967584 12172489 female
-1.005065 -0.7132123 -0.09381517 0.01881463 -0.9973783 -0.06987513 855565 female
-0.9302239 -0.5390526 -0.1764181 0.9823818 -0.1862675 0.01517861 1776929 female
-1.013527 0.1814406 -0.04557292 0.929911 -0.3636007 -0.05531783 12238536 female
-1.016042 0.4812607 -0.1894645 -0.9844635 0.09230511 -0.14937 10133932 female
-0.9447826 0.2610663 -0.1268191 -0.8530336 0.4127191 0.319369 13753065 female
-0.9830492 -0.4689433 -0.2072172 -0.4039278 -0.0388254 -0.9139665 1973537 female
-0.9650605 0.3769462 -0.1454175 0.6877246 -0.07478177 0.7221097 15133945 female
-0.5709192 0.5368134 -0.2450833 0.8850732 0.2878242 -0.3657904 7698310 female
-0.6114299 -0.01256933 -0.1036203 0.8920425 -0.01880142 0.4515602 1973536 female
-0.9778731 0.1370442 0.103088 0.9475457 -0.3194757 0.009614614 8285035 female
-0.933061 0.04231493 -0.03351613 -0.4211157 0.1661204 0.8916644 2500651 female
-0.884355 -0.2366877 -0.0875942 0.8372551 -0.2949788 0.4604252 2105120 female
-0.6596674 -0.5910125 -0.1829546 0.08816683 0.09898145 0.9911757 2434601 female
-0.9742729 0.4176417 -0.1355967 0.2827888 0.02028949 0.9589676 13288397 female
-0.9229122 0.4297049 -0.1240949 -0.8577443 -0.3451351 0.380994 10987703 female
-1.055672 0.2566799 -0.07961945 -0.9189307 0.2603653 0.2962706 11913167 female
-0.6565943 0.3434978 -0.1352296 0.884594 0.1253548 0.4491988 3420469 female
-0.927432 0.3812636 -0.1762787 -0.9989029 -0.03873959 -0.02631111 15001836 female
-0.596806 0.4290362 -0.1924902 0.2568801 0.010073 0.9663908 6578796 female
-0.7123263 0.263404 -0.05118718 0.566425 0.1649877 0.8074291 14541554 female
-0.7114044 0.2244564 -0.2787067 0.1613583 0.3160938 -0.9349054 11844804 female
-0.7130084 0.8780784 -0.2537841 0.8224273 0.4229227 -0.3804599 2631463 female
-0.7022488 0.5083385 -0.07403637 0.1831551 0.5864075 0.7890377 10856115 female
-0.5444092 0.2575086 -0.2085608 0.9060495 -0.1757138 -0.384966 9013397 female
-0.6154859 -0.4411027 -0.2295918 0.9455848 -0.0840584 -0.3143305 1579553 female
-0.9397951 -0.0382267 -0.1997934 -0.3626954 -0.2284188 -0.9034805 2105896 female
-0.8899134 -0.2008877 -0.1578404 0.586178 -0.1144882 -0.8020523 2171944 female
-0.6309206 -0.6759283 -0.2086503 0.951012 0.1505715 -0.2700081 13087919 female
-0.8082416 0.8284852 -0.3038881 -0.3187473 -0.1209311 -0.9400935 14338761 female
-0.7156476 0.7700477 -0.1583575 0.9617783 -0.2108195 0.1747502 16574163 female
-0.8946684 0.6573791 -0.2390372 -0.5150857 0.7791268 -0.3572787 11582152 female
-0.925805 0.1663729 -0.07074519 -0.514964 0.1978983 0.8340554 3552582 female
-0.7626747 0.5863374 -0.3036838 -0.2521099 0.2110787 -0.9443973 14739705 female
-0.659846 -0.1531753 -0.08144689 0.2994552 -0.2406348 0.9232667 1842723 female
-0.7749676 0.3472569 -0.04327448 0.1104568 0.2169185 0.9699205 12633296 female
-0.844618 0.06289984 -0.275817 0.02260243 -0.4722976 -0.8811493 2566703 female
-0.7409238 0.2171059 -0.02844135 0.3501848 -0.01345151 0.9365841 12700887 female
-1.006196 0.5529906 -0.1611979 -0.8430883 0.3594116 0.4000319 7304056 female
-0.9182063 0.40982 -0.1302747 -0.8837988 -0.204464 0.4208256 13620448 female
-0.7256713 0.2720857 -0.2664284 0.1148676 0.1292356 -0.9849384 15200255 female
-0.7822568 -0.03581943 -0.1538519 -0.9833242 -0.1812098 0.01538085 3290426 female
-0.6032598 -0.05647592 -0.1573387 0.9922825 -0.1192179 -0.03409487 1908509 female
-0.6359881 0.6136941 -0.2001014 0.2031167 0.8175301 0.5388768 13422293 female
-0.8581251 0.1401709 -0.04644579 -0.2191076 -0.07729058 0.9726346 15133438 female
-0.7391699 0.7252079 -0.2331993 0.798196 -0.1425416 -0.5852905 4866113 female
-0.6440501 0.4481073 -0.2532963 0.8463252 -0.3355774 -0.4136683 13619671 female
-0.9555032 -0.3179941 -0.193772 0.07941896 0.3298129 -0.9406998 2697774 female
-0.9584799 0.5201918 -0.2376138 -0.1299753 -0.1998355 -0.9711705 12895180 female
-0.8277701 0.7154223 -0.2303811 -0.8659162 0.1741326 -0.4688997 10981510 female
-0.9371091 -0.1077672 -0.0309166 -0.2454577 -0.1053225 0.9636689 2171944 female
-0.628613 0.6026659 -0.1878626 0.2117296 0.6785395 0.703388 15330803 female
-0.7734218 0.5322642 -0.08366522 0.1251604 0.6666755 0.7347643 14146792 female
-0.8875395 -0.04155146 -0.20553 0.1302797 -0.2995158 -0.9451548 2500651 female
-0.7795416 0.8041674 -0.1031289 -0.820079 0.40187 0.4073953 13282465 female
-0.7106417 -0.1875601 -0.09783576 -0.5493885 -0.2549262 0.7957292 2170401 female
-0.8829217 0.4147931 -0.2652346 -0.4987541 -0.3325815 -0.8003961 2698546 female
-0.9416795 -0.01713347 -0.02923334 -0.432039 0.04198407 0.9008771 2368809 female
-0.627312 -0.2636765 -0.1334981 0.8677416 -0.1423097 0.4762062 2171174 female
-0.9662362 -0.005966313 -0.1926478 -0.6807348 -0.2434515 -0.6908918 2500907 female
-0.7073439 0.4000053 -0.08421214 0.5725369 0.1648951 0.8031259 15724543 female
-0.6545295 0.3330013 -0.1370291 0.8967059 0.1553937 0.4144532 13752800 female
-0.9784993 -0.2862788 -0.1754692 -0.3556008 0.3958851 -0.846654 2303275 female
-0.6403422 -0.1979931 -0.1015414 0.6075512 -0.1831372 0.7728792 2170403 female
-0.7519553 0.1444526 -0.0368992 0.3724748 -0.2528301 0.8929386 14541297 female
-0.9109659 -0.2588301 -0.1551467 0.3949126 -0.05203587 -0.9172438 2631471 female
-0.9974722 -0.6923211 -0.1836119 -0.6088431 -0.7324166 -0.3047556 1051664 female
-0.8810177 -0.2507643 -0.1054771 0.9256583 -0.3056727 0.2229819 2038559 female
-0.9411531 0.1111649 -0.2469884 -0.7146474 0.0244028 -0.6990591 15595005 female
-1.031288 0.105731 0.01358511 0.8881058 -0.4261164 -0.1723166 6972001 female
-0.90892 -0.01845972 -0.2141099 -0.09910361 -0.3376066 -0.9360557 2697516 female
-0.9940287 -0.6678635 -0.2046975 -0.8998911 0.2429841 -0.362153 15124160 female
-0.6048328 0.22565 -0.1542854 -0.8754771 0.1311443 0.4651248 7830410 female
-0.7510439 -0.06296773 -0.08971684 -0.7143518 -0.2634837 0.6482884 1973534 female
-1.046721 0.2496104 -0.05830105 -0.587121 0.5136883 0.6256302 13424860 female
-0.6340948 0.4824909 -0.1974432 0.9748498 -0.1881936 0.1193782 14079966 female
-1.017434 0.3883651 -0.1413117 -0.5561531 0.2627155 0.7884633 14016221 female
-0.9873606 -0.3654767 -0.09581728 -0.4676989 -0.1475547 0.8714846 2631464 female
-0.9557669 -0.3140934 -0.1923576 0.07398068 0.3421657 -0.9367228 2697516 female
-0.9124447 0.3770819 -0.2269451 -0.8368263 -0.1871252 -0.5144957 10066337 female
-0.7510175 -0.1591621 -0.1600885 -0.9874807 -0.1567566 0.01758267 1775899 female
-0.5980731 0.03205699 -0.1432925 0.9843589 0.007956226 0.175995 1974307 female
-0.7387722 0.8243797 -0.2938366 0.5817195 -0.1396823 -0.8013059 3420972 female
-0.5881047 0.06419457 -0.02512664 -0.8995224 -0.3161113 -0.301551 8089191 female
-0.8484294 -0.02154149 -0.2013093 0.4828462 -0.3701527 -0.7936288 2697257 female
-0.848444 0.101612 -0.2888427 -0.0519505 -0.1735977 -0.9834454 5263457 female
-0.970336 -0.1730498 -0.05056791 -0.661037 -0.06582087 0.7474608 2170657 female
-0.9334303 0.2772971 -0.1996826 -0.8220841 0.4098864 -0.3951845 7698044 female
-0.746725 -0.1970271 -0.1725444 -0.9927048 -0.07674666 -0.09299025 1776155 female
-0.637199 0.270346 -0.1779367 0.9615762 0.2681554 -0.05885529 14673128 female
-0.709681 -0.2770423 -0.2104209 -0.5587873 0.04014393 -0.8283387 2170913 female
-0.7577916 0.4857601 -0.06235922 0.005166352 0.2038665 0.9789851 15396603 female
-0.8019277 0.03573548 -0.1843524 0.7699865 -0.5802032 -0.2654902 1645081 female
-0.9354055 0.6294845 -0.1739644 -0.1738629 0.8948322 0.4111534 12894660 female
-0.6130725 -0.092349 -0.116939 0.9337766 -0.1217825 0.3364972 1841953 female
-0.6371971 -0.6547435 -0.2310555 0.9115281 -0.01710806 -0.4108818 1842207 female
-0.9948708 -0.5702638 -0.1735644 -0.9925378 -0.09952515 -0.07045119 1579291 female
-0.5926247 0.5941995 -0.2256438 0.6868287 0.7233806 -0.07061724 10132378 female
-0.9143044 -0.2552355 -0.1562012 0.3498126 -0.05164329 -0.9353951 2698289 female
-1.001707 0.2179097 -0.09987742 0.7910707 -0.5599691 -0.2462555 9474457 female
-0.5672475 0.469523 -0.2257924 0.9806818 0.02227574 0.1943372 5790560 female
-0.9956035 -0.6240346 -0.185382 -0.9667243 0.1054215 -0.2330889 2105120 female
-0.7477155 -0.179246 -0.1785887 -0.9702732 -0.08455327 -0.2267611 1907741 female
-0.6932361 0.02025125 -0.05208932 0.04711368 0.01986744 0.9986919 2237481 female
-0.7393926 0.4415325 -0.3044213 0.01235589 -0.27192 -0.9622406 12237251 female
-0.7713063 0.7529902 -0.10241 0.1141446 -0.2550281 0.9601727 15717326 female
-0.6850601 0.1500688 -0.2876257 0.4423534 0.06093331 -0.8947685 12106953 female
-0.9889695 -0.7023394 -0.1422575 0.06394537 -0.9898396 -0.1269984 723979 female
-0.740351 0.645443 -0.175451 0.5930271 0.3155361 0.7407806 13751003 female
-0.6248754 0.5381806 -0.2897236 0.2764493 -0.1319699 -0.9519242 5658203 female
-0.8890592 -0.04353714 -0.2052026 0.1218796 -0.2946779 -0.9477924 2500652 female
-0.6713616 0.5868091 -0.3030468 0.3392672 0.257408 -0.9047866 16185343 female
-0.8003585 0.7646726 -0.1120442 -0.2784043 -0.2042229 0.9385009 15062724 female
-0.8702683 0.0063121 -0.03091132 0.3365031 -0.02907197 0.9412335 2171171 female
-0.6491068 -0.54392 -0.2535421 0.5006763 -0.1442203 -0.853536 2302502 female
-0.8729752 0.5190376 -0.06704611 -0.2890589 0.6012321 0.7449597 15133430 female
-0.8866251 -0.2455001 -0.1415948 0.7953895 -0.2263242 -0.5622569 2105124 female
-0.7347013 0.3125842 -0.04782529 0.4178977 0.1461718 0.8966578 13225949 female
-0.6004599 0.1087593 -0.010425 0.6071499 0.5113094 0.6082199 14727601 female
-0.9578375 0.5841981 -0.1347728 -0.1410454 0.3218544 0.9362243 12303555 female
-0.7323462 0.2915566 -0.04560431 0.4157364 0.1596418 0.8953645 11053494 female
-0.6504468 0.5338855 -0.1487314 0.7106479 0.1139852 0.6942528 9343641 female
-0.9796633 -0.7153902 -0.05369794 -0.05720237 -0.9971303 0.04958786 526089 female
-0.7262356 0.4521893 -0.3074622 0.06300628 -0.2787367 -0.9582985 15725567 female
-0.7558487 0.544619 -0.1002647 0.001994106 0.6525609 0.7577337 9145496 female
-0.6930168 0.5563298 -0.1226562 0.3173461 0.6209988 0.7166952 2697265 female
-0.7652192 -0.01727894 -0.2171634 -0.6904109 -0.2868558 -0.6641134 2302243 female
-0.7843632 0.5054604 -0.3099281 -0.2647412 0.163871 -0.9502938 13618138 female
-0.6378932 -0.5622221 -0.1930103 0.741239 -0.1394551 0.6565951 2171682 female
-0.734813 0.7190129 -0.1896449 0.9264471 -0.2428205 0.2876352 12429467 female
-0.6553187 -0.4279042 -0.1605316 0.04491706 -0.1951534 0.9797436 2171431 female
-0.7286437 0.2707709 -0.04307654 0.4395441 0.1740038 0.8812057 4539471 female
-0.6614783 0.599486 -0.1756445 0.3091019 0.5758542 0.7568672 11646908 female
-0.7879769 0.01195632 -0.1359862 -0.9893157 -0.06363507 0.1311675 2169889 female
-0.7202634 0.04934403 -0.2836628 0.05758901 -0.4475423 -0.8924065 2368300 female
-0.5974795 0.008269977 -0.1680647 0.9951274 -0.06667005 -0.07264046 1776161 female
-0.6110145 0.2320552 -0.2016056 -0.8413505 -0.4241666 -0.3349807 13553880 female
-0.699928 0.8626587 -0.2115253 0.9846098 0.173904 0.01734883 2368292 female
-0.6272932 0.4864918 -0.2868783 -0.1210184 -0.0963238 -0.9879657 12828875 female
-0.9153638 0.2856348 -0.09543187 -0.7482618 0.2898136 0.5967515 9145493 female
-0.952817 -0.3075253 -0.07430644 0.02871663 -0.4245062 0.9049695 1776669 female
-1.027816 -0.6893517 -0.08607469 -0.4535024 0.8905192 0.03621031 16243156 female
-0.6077762 0.03364729 -0.1151831 0.916047 0.04445617 0.3985994 1973537 female
-0.5578954 0.038541 -0.06518752 0.9302315 -0.1371989 -0.3403611 16574943 female
-0.5819112 0.5718336 -0.2402385 0.760034 0.5293394 -0.3770253 14081007 female
-0.9391872 -0.587242 -0.1801089 0.9928244 -0.09346791 -0.07458836 1973022 female
-0.6552563 -0.5215709 -0.1789964 0.1057515 -0.1446401 0.983817 2499878 female
-0.9167796 0.3912174 -0.1302856 -0.900032 0.006869334 0.4357696 12369863 female
-0.7723278 0.6262404 -0.1523354 0.06878933 0.5058668 0.8598644 16120317 female
-0.98232 -0.6414039 -0.1244146 -0.6015695 0.6379639 0.4807455 2302243 female
-0.965943 0.6138085 -0.2039929 -0.7032549 0.661791 -0.2597404 11711421 female
-0.7673686 0.2727653 -0.2659368 -0.1193706 0.2045504 -0.9715502 15201279 female
-0.6007345 0.5796332 -0.1855248 0.462478 0.3900089 0.7962456 9802653 female
-0.9894841 0.3952207 -0.2200361 -0.1547136 -0.2075654 -0.9659091 12897242 female
-0.9082634 -0.4356577 -0.1615622 0.9815282 -0.1910336 0.01041412 1842720 female
-0.9074377 0.008932922 -0.225588 -0.1430377 -0.4896413 -0.8601114 2895412 female
-0.7317938 0.5347464 -0.09163126 0.09009364 0.65371 0.751363 15659774 female
-0.6339331 -0.5879333 -0.2197884 0.9748862 -0.130774 -0.1802636 1578779 female
-0.6879342 -0.108147 -0.2341394 -0.03195436 -0.06854721 -0.997136 2106409 female
-1.032004 -0.6917487 -0.0713765 -0.3374935 0.9347172 0.1113635 15518401 female
-0.8746424 0.337502 -0.2530428 -0.4418812 -0.1581751 -0.8830184 15398143 female
-0.9791442 -0.6581054 -0.1001261 -0.1828894 0.8621986 0.4724036 16443357 female
-0.6640691 -0.09454606 -0.232181 0.2643608 -0.05088373 -0.9630806 2171945 female
-0.6306192 -0.3189335 -0.1493384 0.7049617 -0.1601506 0.6909275 2040353 female
