# .PCD v0.7 - Point Cloud Data file format
VERSION 0.7
FIELDS x y z normal_x normal_y normal_z rgb label
SIZE 4 4 4 4 4 4 4 4
TYPE F F F F F F U U
COUNT 1 1 1 1 1 1 1 1
WIDTH 170
HEIGHT 1
VIEWPOINT 0 0 0 1 0 0 0
POINTS 170
DATA ascii
-0.8712603 0.1384015 0.8326381 -0.8289707 0.09961917 -0.5503485 8618891 female
-0.550938 0.1556374 0.8275539 0.8020419 0.05446998 -0.5947787 11121347 female
-0.889557 -0.4666607 0.912731 -0.3559991 -0.2429153 0.9023618 2171174 female
-0.5489599 0.1073765 1.06043 -0.9341139 -0.2094722 -0.2890546 13285294 female
-0.5463949 -0.552134 0.8704013 0.8193294 -0.1835585 0.5431442 2171937 female
-0.6392277 -0.1925156 0.9665726 -0.7031019 -0.2537084 0.6642889 2170913 female
-0.8025494 0.3719637 0.8021784 -0.5304824 -0.2670992 -0.8045163 15199223 female
-0.9390754 -0.7142642 0.9757878 -0.2144295 -0.9759885 0.03829393 526344 female
-0.8282794 -0.1664558 1.003013 0.228521 -0.2208834 0.9481501 2039072 female
-0.9430721 0.2292129 0.9398229 0.2652809 -0.8001469 -0.5379507 10921901 female
-0.9357069 0.4858156 0.8630379 -0.9899037 0.1379822 0.03242683 7829376 female
-0.8631691 0.256594 0.930191 -0.8740436 0.3785326 0.3045667 14476786 female
-0.8928601 -0.4704331 0.8271661 -0.5257488 -0.04735439 -0.8493208 2170401 female
-0.9154888 0.3790328 0.9141248 0.08436707 0.1224625 0.9888807 8224648 female
-0.4830651 0.5191451 0.8323499 0.9154801 0.1836461 -0.3580088 15262960 female
-0.5347601 -0.01238089 0.9801407 0.8326681 -0.02848233 0.5530395 1973536 female
-0.9388996 0.1586521 1.157054 -0.386806 -0.9188471 0.0781102 6771534 female
-0.8592122 0.03534111 1.012415 -0.518645 0.1250723 0.8457921 2500651 female
-0.7920896 -0.2580618 0.9335134 0.9078009 -0.3091748 0.2833875 2169889 female
-0.5772294 -0.6135112 0.8839765 0.06634512 0.2251359 0.9720659 2499110 female
-0.8802823 0.4017296 0.8984035 0.7232883 -0.08772544 0.6849512 13224148 female
-0.8477 0.4307704 0.9210057 -0.893267 -0.3389419 0.2952838 10987703 female
-0.9885259 0.2166748 0.9892337 -0.9028943 -0.2927762 -0.3147444 13028569 female
-0.5803768 0.3474101 0.9418731 0.8279154 0.1539562 0.5393084 3420469 female
-0.8458765 0.3795393 0.8704237 -0.9894674 -0.05476037 -0.1339988 15001836 female
-0.5160984 0.3951131 0.8949144 -0.01353741 0.06466044 0.9978155 15725047 female
-0.6314095 0.2700153 1.013185 0.5385038 0.1939639 0.8199949 6184287 female
-0.5967444 0.2271261 0.8032283 0.409021 0.3239327 -0.853094 6514804 female
-0.6197852 0.8734658 0.7960404 0.8675495 0.3941992 -0.303257 2631463 female
-0.7058746 0.4062477 1.002463 0.02440693 0.3572032 0.9337078 6184292 female
-0.500691 0.2505119 0.8596599 0.103447 -0.5736982 -0.8125079 11053232 female
-0.5265905 -0.4380462 0.8465189 0.977254 -0.08331276 -0.1950223 1579553 female
-0.8461834 -0.03940587 0.8443012 -0.2576013 -0.2054198 -0.9441633 2105896 female
-0.7963347 -0.2029475 0.8842064 0.6677296 -0.08125087 -0.7399565 2171944 female
-0.5460598 -0.6732744 0.8568876 0.9793934 0.1473476 -0.1381203 13087919 female
-0.7093744 0.8222069 0.7378579 -0.2104171 -0.1681 -0.9630508 14338761 female
-0.6347415 0.7579342 0.8850921 0.9430311 -0.2804658 0.1789727 16048595 female
-0.7995989 0.6506733 0.7899722 -0.4005496 0.6590121 -0.6366028 13293286 female
-0.8462095 0.1501415 0.9856932 -0.5203014 0.2461135 0.8177497 14015981 female
-0.6753707 0.5665446 0.753667 -0.1793731 0.1294221 -0.9752309 12830678 female
-0.5867657 -0.1530683 0.9952368 0.1860905 -0.2518116 0.9497164 1842723 female
-0.7158189 0.3538225 1.019338 -0.04663346 0.2513212 0.9667797 15067640 female
-0.7278816 0.07344835 0.7818456 0.1233521 -0.4305406 -0.8941023 2435119 female
-0.6761397 0.197764 1.040283 0.2380552 -0.1415301 0.9608845 4734801 female
-0.9209674 0.5740932 0.8501405 -0.8219934 0.5334601 -0.1993669 4934995 female
-0.8421597 0.4102612 0.9161266 -0.9232801 -0.2005047 0.3276459 13620448 female
-0.6244111 0.2695132 0.8072652 0.2895764 0.1602421 -0.9436461 13752817 female
-0.6869136 -0.0804176 0.9165954 -0.9682628 -0.2477984 -0.03260569 2237218 female
-0.5207368 -0.05603027 0.9274471 0.9885637 -0.1266146 0.08191843 1908509 female
-0.5543789 0.6091754 0.8783708 0.09437723 0.7914796 0.603865 12303555 female
-0.7858397 0.137531 1.010107 -0.3228419 -0.09808202 0.941357 15133438 female
-0.6370348 0.7546129 0.8256341 0.8926941 -0.3830218 -0.2374693 3551790 female
-0.5512626 0.4570677 0.8843302 0.9815248 -0.1349438 0.1356436 13816538 female
-0.8756742 -0.3422602 0.8313825 -0.132227 0.275126 -0.9522718 2434089 female
-0.915215 0.5460497 0.8201914 -0.6580624 0.2333731 -0.7158846 9078681 female
-0.7390391 0.7134594 0.8143706 -0.8048125 0.1570166 -0.5723833 10981510 female
-0.8594466 -0.1149592 1.009074 -0.3441716 -0.1469009 0.9273435 2171944 female
-0.5887611 0.5995504 0.8957926 0.2055608 0.6130327 0.7628471 10658478 female
-0.6737363 0.5392726 0.9696134 -0.02920616 0.6874878 0.7256085 15660798 female
-0.8219979 0.01564413 0.8198472 -0.1623459 -0.4916624 -0.8555185 3157808 female
-0.7150173 0.8089228 0.930081 -0.3528376 0.4041238 0.8439133 14995651 female
-0.5317614 -0.1972646 0.907673 0.9961182 -0.01864026 -0.08602986 2170921 female
-0.7924047 0.4113559 0.7858362 -0.4050372 -0.3634624 -0.8389517 2698546 female
-0.8489583 -0.03322872 1.020441 -0.2697394 -0.04834068 0.9617192 2500142 female
-0.5678965 -0.267031 0.9647926 0.4553066 -0.3095715 0.8347822 2170402 female
-0.8740584 -0.008098975 0.849611 -0.5964344 -0.236403 -0.7670591 2500907 female
-0.6374531 0.4041418 0.9853008 0.4795119 0.1961316 0.8553367 15724543 female
-0.5832219 0.3285626 0.9519673 0.7833617 0.199975 0.5885189 6183780 female
-0.9071721 -0.3716431 0.9244881 -0.7330556 -0.1105833 0.6711191 2565671 female
-0.5654176 -0.1980414 0.9773623 0.5100165 -0.1979544 0.8370766 2170403 female
-0.6960571 0.1261936 1.029135 0.1526792 -0.3251787 0.9332459 15199223 female
-0.8289782 -0.2205905 0.8743472 0.2217547 -0.03986849 -0.9742871 2565419 female
-0.901462 -0.6863448 0.8280705 -0.8755484 -0.1768747 -0.4495891 10389125 female
-0.7932386 -0.2147723 0.9592095 0.8254888 -0.2687967 0.4963029 1841436 female
-0.8614877 0.08604185 0.8145176 -0.706372 -0.02571955 -0.7073734 2434093 female
-0.9946257 0.1743883 1.077483 -0.9011409 0.2746662 0.3354157 7699066 female
-0.8226264 0.003579475 0.8264325 -0.1127356 -0.4181913 -0.901336 2566447 female
-0.9066369 -0.6681123 0.8495333 -0.9193069 0.2304176 -0.3190336 14862529 female
-0.5153762 0.1865655 0.9839959 -0.7564587 0.4077126 0.5114105 7633286 female
-0.6589383 -0.07281801 0.9914877 -0.6319132 -0.2546249 0.7320191 2105635 female
-0.9881601 0.2288006 1.019636 -0.8593978 0.4207505 0.2905246 11647164 female
-0.5504265 0.476763 0.8593347 0.9342432 -0.295206 0.2001076 13026505 female
-0.9510225 0.399947 0.8876395 -0.8854963 0.3319226 0.3251517 12042183 female
-0.8991054 -0.3705516 0.9340717 -0.5448585 -0.1489159 0.8251989 2631464 female
-0.8790349 -0.3424214 0.8312842 -0.1886475 0.2724999 -0.9434807 2302505 female
-0.8239435 0.4022902 0.816115 -0.7640232 -0.282458 -0.5800741 5460312 female
-0.6751865 -0.1033501 0.8884951 -0.9097983 -0.2182726 -0.3530213 2170913 female
-0.5163474 0.03286885 0.9428551 0.9571013 0.002726188 0.2897406 1974307 female
-0.6415817 0.8179542 0.7560881 0.6676928 -0.1870858 -0.7205451 3420972 female
-0.5359774 0.03711295 1.11249 -0.8410169 -0.168755 -0.5140158 7232859 female
-0.7583937 -0.04708861 0.8634246 0.6381372 -0.2972465 -0.7102291 2498854 female
-0.7491592 0.1012301 0.7699313 0.06005534 -0.1700992 -0.9835952 5263457 female
-0.8698963 -0.1532974 0.9995939 -0.4423783 -0.1521303 0.8838314 2172969 female
-0.8104706 0.2908779 0.8187494 -0.5284376 0.08647226 -0.8445569 11645893 female
-0.6685261 -0.1441763 0.8929061 -0.9463609 -0.150223 -0.2860664 2105120 female
-0.5545788 0.2737238 0.9032736 0.9566483 0.2880787 0.0428333 14673128 female
-0.6133168 -0.2473332 0.8560817 -0.2395603 -0.0006523989 -0.9708813 2565677 female
-0.7155727 0.5060994 0.9928186 0.1046831 0.4130379 0.9046773 15461623 female
-0.7118676 0.03988974 0.8622764 0.2868206 -0.926432 -0.2438395 1842204 female
-0.8578951 0.6292264 0.8660808 -0.1908537 0.9204162 0.3411873 11117481 female
-0.535634 -0.09225267 0.9660316 0.8865852 -0.1325707 0.443161 1841953 female
-0.5492309 -0.6513108 0.8344858 0.9572368 -0.01488479 -0.2889223 1842207 female
-0.855054 -0.4096198 0.9260204 0.2451479 -0.2550138 0.9353451 2170913 female
-0.520826 0.6025483 0.8671145 0.5100368 0.7956555 0.3267948 9343126 female
-0.8286263 -0.2265904 0.8750674 0.2401717 -0.04278786 -0.969787 2500140 female
-0.9253321 0.2457831 0.9307506 0.6918228 -0.6566482 -0.3003239 13816027 female
-0.4861345 0.4840077 0.8729281 0.8479028 0.0278832 0.5294179 8817806 female
-0.9013861 -0.626345 0.8567563 -0.9957249 0.09217507 0.005978632 1907741 female
-0.6658531 -0.1303459 0.8810831 -0.87591 -0.1660305 -0.4530072 2170657 female
-0.5713381 -0.04406976 1.010633 0.4353725 -0.1006399 0.8946074 2039589 female
-0.6250679 0.4377245 0.7654861 0.2310415 -0.3407573 -0.9113201 8817042 female
-0.6751368 0.7324861 0.9319981 0.63795 -0.4472135 0.626913 15982546 female
-0.58778 0.1522491 0.7890064 0.5364612 0.06999357 -0.8410174 12106953 female
-0.9300572 -0.6960521 0.8875964 -0.8829511 0.0569863 -0.4659936 10917005 female
-0.6389207 0.6640828 0.849785 0.7910669 0.4908769 0.3650385 12363155 female
-0.5138115 0.5622797 0.8056125 0.6487663 0.274542 -0.7097387 9474458 female
-0.795065 -0.04342587 0.8443692 0.2303637 -0.2598916 -0.9377574 2500652 female
-0.5628645 0.5405252 0.7711249 0.4571723 -0.161362 -0.8746175 13817830 female
-0.7357181 0.7630085 0.9253997 -0.6481161 -0.1078504 0.7538659 16245967 female
-0.7962744 0.0005058022 1.020652 0.2343158 -0.05685437 0.9704967 2171171 female
-0.5582281 -0.5266209 0.8127077 0.522036 -0.1053532 -0.8463918 2697264 female
-0.8240251 0.5196947 0.9672296 -0.5991043 0.514325 0.6136316 14935794 female
-0.7946007 -0.2351148 0.8933091 0.7806486 -0.1328974 -0.6106766 2236967 female
-0.7032179 0.3025959 1.027434 0.01924474 0.1586502 0.9871473 7434876 female
-0.5323383 0.1132527 1.076122 0.4692394 0.5521877 0.6891323 16175807 female
-0.8574689 0.4978806 0.8871981 0.7509536 -0.2950434 0.5907776 9277338 female
-0.6606976 0.2533471 1.032122 0.3323036 0.1723172 0.9272978 5130576 female
-0.5592842 0.5127719 0.8980893 0.8025534 -0.3638394 0.4727886 3815741 female
-0.8697993 -0.7087689 0.9663702 0.9265916 -0.3276762 0.1845433 6180688 female
-0.6475122 0.4717524 0.7506822 0.06202182 -0.2460082 -0.9672814 15199231 female
-0.7298312 0.5404384 0.9718891 0.1127251 0.682457 0.7221811 15396344 female
-0.6056268 0.5181666 0.9770364 0.3880747 0.6191303 0.6826974 13357531 female
-0.6738045 -0.01520089 0.8492298 -0.608992 -0.2785294 -0.7426642 2302243 female
-0.6812392 0.4899731 0.7471915 -0.07968806 -0.06597248 -0.9946343 15463935 female
-0.5740719 -0.3094539 0.8271556 0.06176454 0.363835 -0.9294134 2237738 female
-0.6520846 0.7037946 0.8652576 0.8646238 -0.09946188 0.4924765 14993595 female
-0.5747492 -0.4268439 0.9104213 -0.08109055 -0.2300835 0.9697865 2171431 female
-0.6474547 0.2777818 1.020878 0.4474869 0.197483 0.8722133 14342371 female
-0.531477 0.598261 0.8841723 0.2979444 0.6687397 0.6811874 9869474 female
-0.6982318 -0.01116907 0.9621096 -0.941963 -0.1548401 0.2978765 2434085 female
-0.621273 0.05137159 0.7891403 0.1631344 -0.44273 -0.88169 2368300 female
-0.5129626 0.009236312 0.9181015 0.9965738 -0.07019147 0.04374663 1776161 female
-0.5359091 0.2587284 0.8900071 -0.9921319 -0.1185336 0.04029783 14540526 female
-0.6119136 0.860168 0.8402835 0.9786401 0.1654324 0.1220479 2368292 female
-0.5246037 0.4764315 0.7942702 0.1790881 -0.08080098 -0.9805093 14539494 female
-0.838557 0.3006071 0.949847 -0.8352424 0.2327438 0.4981973 14146793 female
-0.876595 -0.3209404 0.951463 -0.2736323 -0.2741483 0.9219371 2301987 female
-0.9474584 -0.6983584 0.9781849 -0.1370936 0.9598423 0.2447614 9996933 female
-0.5292305 0.05694991 0.9669705 0.8637816 0.07324769 0.4985139 1776675 female
-0.4939211 0.001399925 1.047387 0.8441729 -0.0218089 0.5356271 15255487 female
-0.5069997 0.5876795 0.8404362 0.7277386 0.6308065 -0.2692206 13554654 female
-0.8435882 -0.586255 0.8493162 0.9890051 -0.1381261 -0.05282141 1907745 female
-0.5779831 -0.5082786 0.8902876 -0.137573 -0.1898244 0.9721318 2301987 female
-0.8404706 0.3911958 0.9169294 -0.9422784 0.007121834 0.3347546 12369863 female
-0.6658954 0.6321388 0.8945407 0.2846826 0.6249411 0.7269143 15396082 female
-0.88088 -0.6672197 0.9386277 0.2450761 0.8093243 0.53379 15848392 female
-0.8862497 0.6158246 0.8417401 -0.6328095 0.7356851 -0.2414946 12303039 female
-0.674467 0.2725112 0.8015755 -0.01659456 0.1927269 -0.9811121 15201279 female
-0.5012469 0.571474 0.879346 0.6524886 0.4611349 0.6013428 13028813 female
-0.9198399 0.4095242 0.8278399 -0.4333775 -0.1292381 -0.8918977 5589847 female
-0.8145823 -0.442741 0.8688715 0.9818854 -0.1814119 -0.05468789 2040358 female
-0.8454629 0.03784662 0.8173616 -0.4556887 -0.3769119 -0.8064026 2631465 female
-0.644812 0.539664 0.9678558 0.08470825 0.6885549 0.7202199 12765138 female
-0.5483338 -0.5884975 0.8557723 0.9771354 -0.1322491 0.1664832 1578523 female
-0.5882038 -0.09046721 0.8415028 0.1926305 -0.05487675 -0.9797357 2106409 female
-0.9411636 -0.6946124 0.9553412 -0.2506239 0.9545511 0.1613069 15781830 female
-0.7839052 0.3344408 0.8013884 -0.3390212 -0.1857711 -0.9222547 15398143 female
-0.8964571 -0.6297103 0.8806446 -0.9132833 0.2281279 0.3374483 2302502 female
-0.5763744 -0.1265083 0.8455429 0.3164397 -0.06033144 -0.9466921 2171688 female
-0.5583865 -0.3228981 0.9316469 0.4594882 -0.2421367 0.8545411 1908773 female
