# .PCD v0.7 - Point Cloud Data file format
VERSION 0.7
FIELDS x y z normal_x normal_y normal_z rgb label
SIZE 4 4 4 4 4 4 4 4
TYPE F F F F F F U U
COUNT 1 1 1 1 1 1 1 1
WIDTH 170
HEIGHT 1
VIEWPOINT 0 0 0 1 0 0 0
POINTS 170
DATA ascii
-0.8713264 0.138473 0.8316282 -0.8292109 0.1001929 -0.5498824 8618891 female
-0.5509757 0.1554274 0.8263942 0.8018536 0.05370636 -0.5951021 11121347 female
-0.8898184 -0.4666134 0.9121619 -0.3546362 -0.2423399 0.9030529 2171174 female
-0.5494972 0.1080256 1.060572 -0.9337522 -0.2095709 -0.2901496 13285294 female
-0.5469828 -0.5523241 0.8697545 0.8198882 -0.184103 0.5421156 2171937 female
-0.6394273 -0.1925778 0.9658411 -0.7028868 -0.2524855 0.6649822 2170913 female
-0.8023174 0.3720987 0.8011834 -0.5308082 -0.2654718 -0.80484 15199223 female
-0.9393272 -0.7142559 0.9753659 -0.2149224 -0.9758828 0.03822296 526344 female
-0.8282871 -0.1663716 1.002204 0.2295952 -0.2202692 0.9480335 2039072 female
-0.9423765 0.2286025 0.9377021 0.26669 -0.7975457 -0.5411075 10921901 female
-0.9352561 0.4855302 0.8619056 -0.9901034 0.1366325 0.03204482 7829376 female
-0.8656568 0.2584723 0.9196946 -0.8900413 0.3977524 0.2227545 13753065 female
-0.8932657 -0.4704207 0.8266051 -0.5271745 -0.04743807 -0.8484319 2170401 female
-0.91495 0.3785887 0.9126297 0.08336153 0.1189687 0.9893924 8224648 female
-0.482735 0.5189847 0.8318567 0.9161785 0.1831031 -0.3564973 15262960 female
-0.5348536 -0.01249271 0.9791026 0.8329014 -0.02836759 0.5526938 1973536 female
-0.9319491 0.156708 1.162079 0.003113519 -0.9920788 0.1255785 7363671 female
-0.8591657 0.03544018 1.011489 -0.5176546 0.1257733 0.8462947 2500651 female
-0.7922071 -0.2580462 0.9327098 0.908074 -0.3093713 0.282296 2169889 female
-0.5778546 -0.6136659 0.8833798 0.06786711 0.2254575 0.9718863 2499110 female
-0.8797581 0.4013906 0.8970186 0.7228057 -0.08927708 0.6852602 13224148 female
-0.8474142 0.43074 0.9200634 -0.8935698 -0.3388091 0.294519 10987703 female
-0.9878571 0.2158018 0.9870204 -0.9022827 -0.2924905 -0.3167573 13028569 female
-0.5801741 0.3471349 0.9408436 0.8281224 0.152366 0.5394422 3420469 female
-0.8456318 0.3796276 0.8694311 -0.9895157 -0.05354944 -0.1341315 15001836 female
-0.5159426 0.3949858 0.8943958 -0.01508021 0.06495869 0.997774 15725047 female
-0.6312798 0.2698004 1.012079 0.53895 0.1928819 0.819957 6184287 female
-0.5967237 0.2269762 0.8021011 0.408992 0.3236507 -0.8532149 6514804 female
-0.6193488 0.8735263 0.7958836 0.8676422 0.3945129 -0.302583 2631463 female
-0.7056161 0.4060156 1.001515 0.02466086 0.3559043 0.9341969 6184292 female
-0.5006152 0.2503923 0.8593882 0.104431 -0.5765407 -0.8103672 11053232 female
-0.5271071 -0.4382604 0.845827 0.9769275 -0.08419476 -0.1962749 1579553 female
-0.8463541 -0.03941974 0.8434029 -0.2586875 -0.205912 -0.943759 2105896 female
-0.7964978 -0.2029572 0.8833799 0.6667874 -0.08193473 -0.7407302 2171944 female
-0.546756 -0.6734524 0.8562649 0.9792506 0.146838 -0.1396673 13087919 female
-0.708963 0.8224167 0.7376098 -0.2106132 -0.1660142 -0.9633698 14338761 female
-0.6343373 0.7578192 0.8847023 0.9429523 -0.2811455 0.1783202 16048595 female
-0.7992577 0.650739 0.789379 -0.4004824 0.6598615 -0.6357646 13293286 female
-0.8461722 0.1502106 0.9846756 -0.5195223 0.2467296 0.8180593 14015981 female
-0.674966 0.5666625 0.7529805 -0.1787926 0.1308615 -0.9751454 12830678 female
-0.5869347 -0.1531229 0.9944159 0.1864028 -0.2507838 0.949927 1842723 female
-0.7156029 0.3536235 1.018326 -0.04625414 0.2503565 0.9670482 15067640 female
-0.7280188 0.07339037 0.7807671 0.1225286 -0.430824 -0.8940791 2435119 female
-0.6760512 0.1976589 1.039174 0.2382898 -0.1418606 0.9607776 4734801 female
-0.9206222 0.5738556 0.8493251 -0.8226112 0.5327895 -0.1986107 4934995 female
-0.8418884 0.4102544 0.9151621 -0.9235027 -0.20026 0.3271677 13620448 female
-0.6243389 0.2694023 0.8061563 0.2894546 0.1602984 -0.9436739 13752817 female
-0.6870756 -0.08051014 0.9157164 -0.9684354 -0.2472195 -0.03186566 2237218 female
-0.5208794 -0.05621178 0.9264633 0.98852 -0.1271422 0.08162811 1908509 female
-0.5540303 0.6090416 0.877836 0.09452103 0.7907061 0.6048551 12303555 female
-0.7857931 0.1375649 1.00905 -0.3222161 -0.09756722 0.9416249 15133438 female
-0.6366331 0.7546135 0.8252355 0.8925129 -0.3829421 -0.2382777 3551790 female
-0.5509534 0.456948 0.8835351 0.9814213 -0.1354425 0.1358952 13816538 female
-0.8760018 -0.3422567 0.8307357 -0.1336361 0.2747684 -0.9521784 2434089 female
-0.9148055 0.5459222 0.8192927 -0.657787 0.2346971 -0.7157049 9078681 female
-0.7386492 0.7135126 0.8138984 -0.8046812 0.158334 -0.5722049 10981510 female
-0.859437 -0.1148597 1.008262 -0.3431349 -0.1461239 0.9278504 2171944 female
-0.5884404 0.5994335 0.8952118 0.2053225 0.6118894 0.7638286 10658478 female
-0.6734502 0.5390661 0.9688919 -0.02943875 0.6864176 0.7266115 15660798 female
-0.8221722 0.01562684 0.8188789 -0.1633762 -0.4919725 -0.855144 3157808 female
-0.7145868 0.8087451 0.9298018 -0.3525692 0.4025195 0.8447917 14995651 female
-0.531996 -0.1974626 0.9068884 0.9960535 -0.01938926 -0.0866107 2170921 female
-0.7920977 0.4114944 0.7848795 -0.4051694 -0.3619191 -0.8395548 2698546 female
-0.8489152 -0.0331233 1.019556 -0.2686463 -0.04757668 0.9620632 2500142 female
-0.5681322 -0.2671597 0.9641028 0.4558688 -0.309248 0.8345953 2170402 female
-0.8742143 -0.008094952 0.8487229 -0.597328 -0.236605 -0.7663011 2500907 female
-0.6371989 0.4038625 0.9843605 0.4795657 0.1944615 0.8556877 15724543 female
-0.5830428 0.3282843 0.95091 0.7836732 0.1984588 0.5886175 6183780 female
-0.9073642 -0.3715812 0.9239053 -0.7320102 -0.1099033 0.6723707 2565671 female
-0.5656165 -0.198138 0.9765926 0.5103563 -0.1973605 0.8370097 2170403 female
-0.69603 0.1261359 1.028038 0.1528179 -0.325185 0.933221 15199223 female
-0.8291603 -0.2205953 0.8735772 0.2204566 -0.04052685 -0.9745545 2565419 female
-0.90198 -0.6863124 0.8275939 -0.8764629 -0.1764348 -0.4479772 10389125 female
-0.7933073 -0.214735 0.9583896 0.8260406 -0.2687417 0.4954139 1841436 female
-0.8616105 0.08609419 0.8135197 -0.7068458 -0.02532061 -0.7069144 2434093 female
-0.9939834 0.1731237 1.075083 -0.9018186 0.2719107 0.3358388 7699066 female
-0.8228009 0.003558916 0.825476 -0.1137874 -0.4185908 -0.9010184 2566447 female
-0.9071071 -0.6680822 0.849071 -0.9198021 0.2308482 -0.3172904 14862529 female
-0.5156538 0.1868933 0.9839231 -0.757014 0.4104914 0.5083567 7633286 female
-0.6590606 -0.0728308 0.9905947 -0.6317366 -0.2533126 0.7326265 2105635 female
-0.9625362 0.2743711 0.9884852 -0.08629444 0.6564139 0.7494492 10396585 female
-0.5501038 0.4766995 0.8585807 0.9340795 -0.2956289 0.2002471 13026505 female
-0.9504865 0.3995554 0.8861884 -0.8861738 0.3296441 0.3256237 12042183 female
-0.899281 -0.3704897 0.933475 -0.5435811 -0.1482642 0.8261581 2631464 female
-0.8793626 -0.3424162 0.830643 -0.190045 0.2721756 -0.9432939 2302505 female
-0.8236513 0.4024138 0.8151414 -0.764142 -0.2809949 -0.580628 5460312 female
-0.6753744 -0.1034846 0.8876435 -0.9101004 -0.2181243 -0.3523337 2170913 female
-0.5164311 0.03268847 0.9417489 0.9572455 0.002366762 0.2892673 1974307 female
-0.6411701 0.818104 0.7558212 0.6675361 -0.1858436 -0.7210116 3420972 female
-0.536702 0.03795141 1.112929 -0.8401605 -0.1697263 -0.5150954 7232859 female
-0.7585463 -0.04712034 0.8624348 0.6373082 -0.2978941 -0.7107021 2498854 female
-0.7492729 0.1012062 0.7688609 0.05943502 -0.1701844 -0.9836182 5263457 female
-0.869902 -0.1532023 0.9988206 -0.4413936 -0.1513659 0.8844547 2172969 female
-0.8127902 0.2862583 0.819572 -0.5389209 0.1411365 -0.8304485 5524558 female
-0.6687362 -0.1443085 0.8921145 -0.9465933 -0.1499547 -0.2854378 2105120 female
-0.5544764 0.2734909 0.9021431 0.9569786 0.2870048 0.04266417 14673128 female
-0.6136344 -0.2475028 0.8554196 -0.2404017 -0.001157315 -0.9706728 2565677 female
-0.7152857 0.5058653 0.9920267 0.1044395 0.4116088 0.9053566 15461623 female
-0.7119863 0.03980373 0.8612177 0.2857695 -0.9268779 -0.2433785 1842204 female
-0.8576373 0.62905 0.8654373 -0.1924975 0.9193512 0.3431299 11117481 female
-0.5357814 -0.09237359 0.9651058 0.8866999 -0.1325805 0.4429286 1841953 female
-0.5499507 -0.6514997 0.8338624 0.9568039 -0.01553211 -0.2903187 1842207 female
-0.8552636 -0.4095847 0.9253691 0.246548 -0.2547309 0.9350541 2170913 female
-0.5204737 0.602398 0.8666072 0.5103564 0.794867 0.3282118 9343126 female
-0.8288109 -0.2265945 0.8742993 0.23886 -0.04344479 -0.9700817 2500140 female
-0.924648 0.2452316 0.9287157 0.6928505 -0.6545586 -0.3025082 13816027 female
-0.485888 0.4838537 0.8724421 0.8470567 0.02743811 0.5307938 8817806 female
-0.901825 -0.6263156 0.8562833 -0.9956678 0.09266052 0.007727523 1907741 female
-0.6660607 -0.130495 0.8802662 -0.876227 -0.1660115 -0.4524007 2170657 female
-0.5714349 -0.04411009 1.009664 0.4357398 -0.09978903 0.8945239 2039589 female
-0.6247246 0.4377834 0.7646122 0.2311497 -0.3395366 -0.9117482 8817042 female
-0.6704078 0.7342623 0.9283759 0.6790059 -0.4059356 0.6116922 16047566 female
-0.5878345 0.1520882 0.7878743 0.5361899 0.06953827 -0.8412282 12106953 female
-0.930463 -0.6960208 0.887171 -0.883797 0.05746632 -0.464328 10917005 female
-0.6385548 0.6640408 0.8492579 0.7910802 0.4900668 0.3660964 12363155 female
-0.5134236 0.5621668 0.8050674 0.6499373 0.2745925 -0.7086468 9474458 female
-0.7952374 -0.04345567 0.8434146 0.2292982 -0.260527 -0.9378422 2500652 female
-0.5624735 0.5405235 0.7704924 0.4578635 -0.1607791 -0.8743632 13817830 female
-0.7353045 0.7628481 0.9250298 -0.648052 -0.1091627 0.7537321 16245967 female
-0.7962266 0.0005948921 1.019682 0.2353949 -0.05623776 0.9702714 2171171 female
-0.55887 -0.5268152 0.8120733 0.5208417 -0.1060017 -0.8470464 2697264 female
-0.8237267 0.519524 0.9664086 -0.5992777 0.5134799 0.6141697 14935794 female
-0.7947634 -0.2351207 0.8925016 0.7797925 -0.1335455 -0.6116283 2236967 female
-0.7030568 0.302416 1.026368 0.01963037 0.1578613 0.9872661 7434876 female
-0.5329013 0.1139443 1.076275 0.4684374 0.5543693 0.6879252 16175807 female
-0.8570515 0.4976255 0.8861772 0.7507731 -0.2960636 0.5904965 9277338 female
-0.6605747 0.2531731 1.031017 0.3327598 0.171535 0.9272792 5130576 female
-0.5589912 0.5126577 0.8973899 0.8021064 -0.3647079 0.4728779 3815741 female
-0.8700643 -0.7087863 0.965834 0.9267604 -0.328171 0.1828083 6180688 female
-0.6471375 0.4718576 0.7498596 0.06231537 -0.2445841 -0.9676237 15199231 female
-0.7295448 0.5402378 0.9711416 0.1124983 0.6813425 0.7232679 15396344 female
-0.6053415 0.5179257 0.9763119 0.3879491 0.6179704 0.6838188 13357531 female
-0.6739609 -0.01536817 0.8482329 -0.6095365 -0.2788956 -0.7420798 2302243 female
-0.6808515 0.4901013 0.7463859 -0.07925722 -0.06446496 -0.9947676 15463935 female
-0.5744922 -0.3096352 0.8265033 0.06096637 0.3634506 -0.9296165 2237738 female
-0.6517056 0.7037252 0.8647773 0.8645502 -0.1007057 0.492353 14993595 female
-0.5751737 -0.4270029 0.9097872 -0.08003409 -0.2297733 0.9699478 2171431 female
-0.6473173 0.2775696 1.019782 0.4479236 0.196413 0.8722308 14342371 female
-0.5311486 0.5981057 0.8836476 0.2977774 0.6678029 0.6821788 9869474 female
-0.698328 -0.01119807 0.9611466 -0.9419225 -0.153865 0.298509 2434085 female
-0.6214198 0.051195 0.7880237 0.1623524 -0.4431194 -0.8816387 2368300 female
-0.5130744 0.009030793 0.9170186 0.9965485 -0.07080714 0.04332787 1776161 female
-0.5358861 0.2587538 0.8896311 -0.9923671 -0.1171347 0.03855911 14540526 female
-0.6114757 0.8601357 0.8400977 0.9787171 0.1648238 0.1222533 2368292 female
-0.524241 0.4762931 0.7937188 0.180548 -0.08105525 -0.9802206 14539494 female
-0.8384116 0.3006486 0.9488077 -0.8348781 0.2333241 0.4985363 14146793 female
-0.8767161 -0.3208821 0.9508088 -0.2723119 -0.2735889 0.9224941 2301987 female
-0.9476985 -0.6983468 0.9777828 -0.1359411 0.9597751 0.2456657 9996933 female
-0.5292868 0.05680059 0.9658437 0.8640805 0.07313897 0.4980115 1776675 female
-0.4929883 0.005346113 1.041824 0.976782 -0.1630816 -0.138929 16242896 female
-0.5066309 0.5875403 0.839928 0.7286098 0.6304808 -0.2676222 13554654 female
-0.8440207 -0.5862566 0.8487297 0.9888405 -0.1386497 -0.05450344 1907745 female
-0.5785066 -0.5084382 0.8896723 -0.1364553 -0.1894708 0.9723583 2301987 female
-0.8402178 0.3912069 0.9159467 -0.9423127 0.007559985 0.3346485 12369863 female
-0.6655575 0.6320453 0.8939582 0.2844522 0.6237535 0.7280237 15396082 female
-0.8811775 -0.6672186 0.9381223 0.2463873 0.8090782 0.5335595 15848392 female
-0.8859622 0.6156547 0.8410527 -0.6338513 0.7352027 -0.2402281 12303039 female
-0.6743938 0.2724572 0.8004823 -0.01666088 0.1931991 -0.9810181 15201279 female
-0.5009422 0.5713112 0.8788388 0.6519554 0.4603023 0.6025578 13028813 female
-0.9192652 0.4093877 0.8264479 -0.4324371 -0.1265652 -0.892737 5589847 female
-0.814903 -0.4427521 0.8681687 0.9816999 -0.1819475 -0.05621638 2040358 female
-0.8456275 0.03785285 0.8163934 -0.4565871 -0.3769737 -0.8058654 2631465 female
-0.6445253 0.5394544 0.9671488 0.08449602 0.6874691 0.7212812 12765138 female
-0.5489741 -0.5886878 0.8551344 0.9772513 -0.1329827 0.1652135 1578523 female
-0.5884079 -0.09071344 0.8405871 0.1921552 -0.05617982 -0.9797552 2106409 female
-0.9414389 -0.6945935 0.9549321 -0.2498299 0.9546202 0.1621274 15781830 female
-0.7837437 0.3345434 0.8003601 -0.3393999 -0.1845421 -0.9223621 15398143 female
-0.8968537 -0.6296825 0.8801637 -0.9125729 0.2285712 0.3390661 2302502 female
-0.5765983 -0.1267556 0.8446779 0.3159565 -0.06168156 -0.9467665 2171688 female
-0.5586933 -0.3230647 0.9309717 0.4603086 -0.2421837 0.8540861 1908773 female
