# .PCD v0.7 - Point Cloud Data file format
VERSION 0.7
FIELDS x y z normal_x normal_y normal_z rgb label
SIZE 4 4 4 4 4 4 4 4
TYPE F F F F F F U U
COUNT 1 1 1 1 1 1 1 1
WIDTH 170
HEIGHT 1
VIEWPOINT 0 0 0 1 0 0 0
POINTS 170
DATA ascii
-0.88124 0.1385907 0.8255281 -0.834218 0.09443072 -0.5432893 8618891 female
-0.5783274 0.1685351 0.7958866 0.6685228 0.07670806 -0.7397251 9803174 female
-0.8663663 -0.4280358 0.9175816 0.250753 -0.2690301 0.929917 2170913 female
-0.5717002 0.1203452 1.056012 -0.8107954 -0.4416159 -0.3841694 7299423 female
-0.584281 -0.2975341 0.8282571 0.08510381 0.3930531 -0.915569 2698289 female
-0.6037617 -0.1788442 0.984866 0.06238536 -0.2420242 0.9682626 2171688 female
-0.8118735 0.3716401 0.7909918 -0.5336654 -0.2723006 -0.8006583 15199223 female
-0.925956 -0.7155665 0.9262953 0.01661814 -0.9963808 -0.08336116 855565 female
-0.837064 -0.1639153 1.001168 0.2440189 -0.2086689 0.9470544 2039072 female
-0.9489309 0.2348182 0.9479771 0.2496658 -0.8321911 -0.4951011 10921901 female
-0.9352402 0.4821742 0.8258734 -0.8192804 -0.006233829 -0.5733593 13553631 female
-0.87446 0.259611 0.9115682 -0.8877967 0.401843 0.2243642 13753065 female
-0.9032132 -0.4665013 0.8236501 -0.5374264 -0.03423837 -0.8426153 2170401 female
-0.9254216 0.3822729 0.9132327 0.06411539 0.1767971 0.9821568 9079699 female
-0.4961191 0.5517751 0.8348211 0.8995338 0.3822656 -0.2114519 14608367 female
-0.5440552 -0.01136954 0.9723 0.836817 -0.02444874 0.5469365 1973536 female
-0.922408 0.1834247 1.164227 0.9220635 -0.3032653 -0.2404771 10652550 female
-0.8670441 0.03830994 1.007361 -0.5043962 0.1409792 0.8518857 2500651 female
-0.8023326 -0.256095 0.932653 0.9124769 -0.3079462 0.2693603 2169889 female
-0.5912023 -0.5592536 0.8756637 -0.1338606 -0.07246604 0.9883471 2171937 female
-0.8894753 0.3919299 0.8944175 0.7842901 -0.07867666 0.6153853 7040379 female
-0.856657 0.4306519 0.9096754 -0.8914038 -0.3408063 0.2987479 10987703 female
-0.9940844 0.2360884 0.9957753 -0.9771086 -0.1577339 -0.1427544 4868692 female
-0.6577121 0.356907 0.9940513 0.4909147 0.1945359 0.8492106 15199231 female
-0.8549061 0.3794897 0.859353 -0.9899374 -0.05722755 -0.1294181 15001836 female
-0.5399706 0.3724635 0.8874401 -0.4626691 0.02126074 0.8862761 7829371 female
-0.6498441 0.2486555 1.014289 0.4769195 0.1618478 0.8639172 13620456 female
-0.6065862 0.2260269 0.7923399 0.4025647 0.3111519 -0.8608869 6514804 female
-0.6302657 0.8743413 0.7866752 0.8662753 0.3997523 -0.2996084 2631463 female
-0.6552882 0.4856728 0.9954432 -0.07514274 0.2293915 0.9704293 14606327 female
-0.4972518 0.2563256 0.867972 0.4271665 -0.5917349 -0.6836509 12237763 female
-0.5379624 -0.4173841 0.8431027 0.978529 -0.05474621 -0.1987055 1579808 female
-0.8731946 -0.03789035 0.8459722 -0.4555029 -0.2046908 -0.8663826 2631470 female
-0.8049508 -0.2035202 0.8852136 0.7042317 -0.09112977 -0.7040973 2171688 female
-0.5610934 -0.6722345 0.8485682 0.9781484 0.14489 -0.149106 13087919 female
-0.7199203 0.8238009 0.7279434 -0.2123633 -0.1542934 -0.9649329 14338761 female
-0.6451569 0.7700674 0.885051 0.9328996 -0.2134827 0.2900405 16574163 female
-0.8050448 0.6394368 0.7664113 -0.3170635 0.5157523 -0.7959085 12369607 female
-0.8544715 0.1524612 0.9785437 -0.509163 0.2599898 0.8204623 14015981 female
-0.6754786 0.5937726 0.7445954 -0.0985416 0.1882806 -0.9771591 13094624 female
-0.5726557 -0.1653293 0.9768869 0.5604377 -0.204138 0.802644 1974050 female
-0.7234377 0.3388542 1.011695 -0.04228212 0.1967054 0.9795505 15725567 female
-0.7385303 0.07241735 0.7742388 0.1130719 -0.4441099 -0.8888088 2435119 female
-0.6808715 0.2210549 1.030675 0.2540739 0.009481096 0.9671384 12700887 female
-0.9296877 0.5756646 0.840831 -0.8143958 0.5394631 -0.2138667 5856354 female
-0.85107 0.4102304 0.9048608 -0.9215834 -0.2020067 0.3314777 13620448 female
-0.6425803 0.2719694 0.7945015 0.211861 0.1118021 -0.9708837 15200255 female
-0.7084687 -0.03330419 0.9035794 -0.9808155 -0.1721702 -0.09142415 3290426 female
-0.5271331 -0.03612176 0.9018605 0.9859614 -0.14033 -0.09048562 2105122 female
-0.5645425 0.6148108 0.8611792 0.1072017 0.8482839 0.5185771 13422293 female
-0.7938979 0.1399896 1.002355 -0.3119355 -0.08330205 0.9464444 15133438 female
-0.6607257 0.722856 0.8098607 0.857655 -0.1683606 -0.4858832 4866113 female
-0.5635002 0.4560705 0.8972839 0.9668564 -0.1524503 0.2048115 6973546 female
-0.8694538 -0.3190462 0.8385595 0.150489 0.350988 -0.924208 2697774 female
-0.9315901 0.5507629 0.8235385 -0.7961355 0.326265 -0.5096267 7171710 female
-0.7491216 0.7137534 0.8028362 -0.8053734 0.1617981 -0.5702588 10981510 female
-0.8678799 -0.112058 1.006696 -0.3290764 -0.1309287 0.9351826 2171944 female
-0.5739128 0.6032426 0.8759138 0.05836561 0.695434 0.7162158 16251135 female
-0.6830869 0.539681 0.9576433 -0.03104783 0.6881523 0.7249017 15660798 female
-0.8328242 0.01543558 0.814392 -0.1761854 -0.5042487 -0.8453946 3157808 female
-0.7163593 0.8037573 0.9310369 -0.8870133 0.3595947 0.2896535 12951963 female
-0.64569 -0.1857468 0.9684858 -0.6378276 -0.2475964 0.7292956 2170401 female
-0.8017991 0.4110756 0.7743601 -0.407367 -0.3668993 -0.8363236 2698546 female
-0.8746312 -0.0215696 1.009637 -0.5128336 0.01443838 0.8583666 2368809 female
-0.5590182 -0.2731309 0.9384852 0.8035969 -0.1834708 0.5661894 2039075 female
-0.8846508 -0.007678863 0.8454974 -0.6092406 -0.2464116 -0.7537289 2500907 female
-0.6650231 0.4078988 0.9814103 0.3301154 0.2601605 0.9073811 15791103 female
-0.574357 0.3610734 0.8499826 0.9644421 -0.172102 -0.2005798 15199990 female
-0.9168157 -0.3697233 0.9232028 -0.7228861 -0.1278286 0.6790402 2565671 female
-0.6281688 -0.1860411 0.9795622 -0.362429 -0.245813 0.8990113 2170660 female
-0.6871523 0.1794926 1.027743 0.2591521 -0.1892231 0.9471192 4606287 female
-0.8401591 -0.2189851 0.8739945 0.206281 -0.04247048 -0.9775707 2565419 female
-0.91179 -0.6933742 0.8376115 -0.5883385 -0.724441 -0.3592257 1051664 female
-0.802157 -0.2529872 0.9343459 0.9077624 -0.3006811 0.2925034 2038559 female
-0.8762856 0.08688628 0.8128791 -0.7467203 -0.02319066 -0.6647338 2565935 female
-0.998001 0.1603523 1.087355 -0.99226 -0.09696468 -0.07757469 5397610 female
-0.8334546 0.003452867 0.8212178 -0.1275071 -0.4320056 -0.8928119 2566447 female
-0.9074004 -0.661129 0.8239047 -0.867056 0.2699772 -0.4187198 15717326 female
-0.5170433 0.1537817 1.040444 0.5038751 0.4757947 0.7209225 15727607 female
-0.6201615 -0.08371921 1.003258 -0.1114087 -0.1880306 0.975824 2171944 female
-0.9881935 0.2487862 1.022508 -0.7742712 0.5091904 0.3758048 6250344 female
-0.5615742 0.4823532 0.8666134 0.9541857 -0.1804769 0.2386581 14079966 female
-0.9596697 0.4015814 0.886982 -0.8743997 0.3463812 0.3397722 12042183 female
-0.9086234 -0.3687586 0.9326962 -0.532275 -0.1678232 0.8297703 2631464 female
-0.8902143 -0.3386409 0.8302674 -0.2038186 0.2883077 -0.9355943 2302505 female
-0.8332177 0.4020412 0.8048002 -0.7656612 -0.2857025 -0.5763133 5460312 female
-0.6773109 -0.1607538 0.8965384 -0.9785757 -0.1295074 -0.1600546 1841436 female
-0.5257619 0.06652814 0.9261012 0.9646181 0.07063907 0.2540118 1908257 female
-0.6520803 0.8193887 0.7459658 0.6663134 -0.1757348 -0.724668 3420972 female
-0.5534482 0.07652906 1.086928 -0.8758669 -0.3626389 -0.3183554 7958118 female
-0.7689553 -0.0469262 0.8580713 0.6258095 -0.3114749 -0.7150846 2498854 female
-0.7597707 0.1001114 0.7621542 0.05029181 -0.1844287 -0.9815584 5263457 female
-0.8786075 -0.1506484 0.9979895 -0.4283642 -0.1380713 0.8929952 2172969 female
-0.8222855 0.2859557 0.8105949 -0.5445383 0.1315705 -0.8283521 5524558 female
-0.6733082 -0.1947209 0.8905648 -0.9772266 -0.06371021 -0.2024083 1776155 female
-0.5691589 0.2850321 0.8668873 0.9557347 0.1709528 -0.2394708 4343106 female
-0.6440967 -0.3310603 0.8480465 -0.8974473 0.1710427 -0.4066113 2039329 female
-0.6988719 0.5090957 0.9790081 -0.06870637 0.4578899 0.88635 14015206 female
-0.7224563 0.03842089 0.8626914 0.4877859 -0.836068 -0.2511079 1315860 female
-0.8610111 0.6324626 0.8510722 -0.1757661 0.9267437 0.3320428 12894660 female
-0.545752 -0.06329712 0.9703273 0.8466336 -0.1044957 0.5218163 1973537 female
-0.5628489 -0.6585165 0.8384535 0.9865405 0.0398067 -0.1585979 2105376 female
-0.8644279 -0.4073843 0.9232308 0.2599813 -0.2712637 0.9267285 2170913 female
-0.5176607 0.5948349 0.8443045 0.681842 0.7314835 0.004831559 10132378 female
-0.8397958 -0.2248633 0.8747582 0.2249478 -0.04383171 -0.9733844 2500140 female
-0.9316866 0.2508391 0.9371294 0.684189 -0.6715423 -0.284458 13816027 female
-0.489733 0.4710687 0.8376794 0.9983154 0.02312165 -0.05321408 7171191 female
-0.9095334 -0.6251602 0.8370176 -0.9467232 0.1120695 -0.30192 2105120 female
-0.6734092 -0.1769816 0.8842547 -0.9403561 -0.07225682 -0.3324293 1907741 female
-0.6475194 0.01115786 1.01148 -0.2455603 -0.02641029 0.9690215 2171945 female
-0.6547825 0.4379761 0.7498808 0.1184057 -0.3067556 -0.9443945 12237251 female
-0.702399 0.7553595 0.9341716 0.2173048 -0.2193526 0.9511377 15651533 female
-0.5980432 0.1508405 0.7790367 0.5291647 0.05626263 -0.8466518 12106953 female
-0.9063308 -0.7040755 0.8793349 0.06779481 -0.988249 -0.1369956 723979 female
-0.6986921 0.6480657 0.8831137 0.1406875 0.155334 0.9777926 13357275 female
-0.5188113 0.5821056 0.816605 0.7211827 0.4876922 -0.4919876 15856379 female
-0.8058944 -0.04343839 0.8395315 0.2144767 -0.2763835 -0.9368095 2500652 female
-0.5835243 0.581942 0.7554485 0.4706479 0.2172145 -0.8551657 16185343 female
-0.7295282 0.7582102 0.9234979 -0.556679 0.06884121 0.8278704 14336949 female
-0.8040593 0.003444676 1.015118 0.2504177 -0.04138515 0.9672529 2171171 female
-0.5676164 -0.5768231 0.8206972 0.8690175 -0.1230626 -0.4792328 1841948 female
-0.8360645 0.5262166 0.9449914 -0.6301233 0.4739425 0.6150798 13949156 female
-0.8054956 -0.233418 0.8924537 0.771732 -0.1344045 -0.6215829 2236967 female
-0.6911051 0.3021703 1.016306 0.1512005 0.1856936 0.9709049 6316394 female
-0.5818052 0.1300339 1.100505 0.138014 0.9153372 0.3782988 16374739 female
-0.8670378 0.5249567 0.8866376 0.4886149 -0.3972193 0.7768348 8684168 female
-0.6551102 0.2405992 1.018692 0.4403182 0.1368108 0.8873571 13357798 female
-0.5725752 0.5197636 0.8976868 0.7904696 -0.2287522 0.5681816 14080999 female
-0.90367 -0.7185457 0.9681708 -0.06917685 -0.9971394 0.03045594 526089 female
-0.6411831 0.4483391 0.7479365 0.1693603 -0.3144084 -0.9340581 15725567 female
-0.7391198 0.540661 0.9599848 0.111452 0.6837612 0.7211443 15396344 female
-0.6089344 0.4890059 0.9837911 0.5040815 0.3002466 0.8097863 7895428 female
-0.6841242 -0.01541546 0.8423821 -0.61638 -0.2866797 -0.7334102 2302243 female
-0.7088015 0.5037329 0.7401895 -0.09713437 0.2257212 -0.9693373 15396607 female
-0.5696625 -0.5769436 0.8657059 0.6942891 -0.1460021 0.7047312 2434085 female
-0.662164 0.703693 0.8535969 0.865032 -0.1034731 0.4909308 14993595 female
-0.5685511 -0.4959105 0.8850999 0.4201536 -0.2244971 0.8792452 2171428 female
-0.6542316 0.2595409 1.01403 0.451196 0.1860548 0.8728149 12895958 female
-0.5983079 0.5992435 0.8852881 0.1892579 0.6079883 0.7710588 10987956 female
-0.7154773 0.01450835 0.9202842 -0.9981029 -0.05698177 0.02331571 2169889 female
-0.6318402 0.05009107 0.7809375 0.1537892 -0.4558183 -0.8766861 2368300 female
-0.5373592 -0.004987284 0.9593911 0.8906717 -0.03132116 0.4535668 1973537 female
-0.5212709 0.2173276 0.8963438 -0.09427803 -0.686667 -0.7208329 3947321 female
-0.6222723 0.8604117 0.830695 0.9786927 0.1649361 0.1222983 2368292 female
-0.5282968 0.4474055 0.7928737 0.2651456 -0.1531413 -0.9519693 6710639 female
-0.8471013 0.3016844 0.939703 -0.8320406 0.2382896 0.5009257 14146793 female
-0.8862119 -0.3192698 0.9508593 -0.2588536 -0.2902232 0.9212846 2301987 female
-0.9490053 -0.6916624 0.932648 -0.4482999 0.8937424 0.0158661 16243156 female
-0.5384747 0.03505437 0.9610372 0.8675249 0.04045002 0.4957463 1973537 female
-0.5331537 0.04535526 1.052817 -0.872642 -0.2575247 -0.4149421 10389637 female
-0.507004 0.5779122 0.8403193 0.8048597 0.582432 -0.1139026 13883363 female
-0.854993 -0.6076735 0.8493048 0.9954972 0.01630832 -0.09337705 2105893 female
-0.5773833 -0.5729365 0.8718219 0.4251473 -0.1156534 0.897705 2171172 female
-0.8493264 0.3912797 0.9057657 -0.9409244 0.006260974 0.3385588 12369863 female
-0.6758931 0.6324185 0.8823499 0.2797377 0.6264904 0.7275003 15396082 female
-0.9007069 -0.6435874 0.8985125 -0.6331638 0.6325607 0.4460612 2302243 female
-0.8896953 0.6154037 0.8201596 -0.6622062 0.6587126 -0.3571844 11711421 female
-0.6955163 0.2513694 0.7847677 0.01646937 0.2980976 -0.9543933 13948650 female
-0.5360873 0.5807858 0.8862166 0.2441697 0.4015283 0.8826982 8947088 female
-0.9068073 0.3208535 0.8631772 0.6914209 -0.4925077 -0.5285577 9147031 female
-0.8245995 -0.4373561 0.8715799 0.9784586 -0.1901651 0.08034878 1842720 female
-0.856208 0.03771094 0.8118877 -0.4677387 -0.3873727 -0.7944576 2631465 female
-0.6617567 0.5342893 0.9622093 0.03070427 0.6758171 0.7364296 14606319 female
-0.5713447 -0.6171288 0.8640448 0.8062006 0.04331712 0.5900545 2829616 female
-0.6069165 -0.1070461 0.8349016 0.07778794 -0.07444678 -0.9941865 2106409 female
-0.9543043 -0.6941776 0.9469348 -0.3377904 0.9359744 0.0992457 15518401 female
-0.7932633 0.3340209 0.7904928 -0.34398 -0.1935747 -0.9188072 15398143 female
-0.8992897 -0.6606459 0.9227301 -0.2127482 0.8559661 0.4712328 16443357 female
-0.5832513 -0.09371398 0.8393434 0.3688115 -0.06007619 -0.9275607 2171945 female
-0.5674235 -0.3269705 0.9255833 0.4912605 -0.216802 0.8435994 1777187 female
