# .PCD v0.7 - Point Cloud Data file format
VERSION 0.7
FIELDS x y z normal_x normal_y normal_z rgb label
SIZE 4 4 4 4 4 4 4 4
TYPE F F F F F F U U
COUNT 1 1 1 1 1 1 1 1
WIDTH 170
HEIGHT 1
VIEWPOINT 0 0 0 1 0 0 0
POINTS 170
DATA ascii
-0.878427 0.137928 0.8239653 -0.8290166 0.09576666 -0.550963 8618891 female
-0.5579944 0.1545304 0.8187892 0.8025143 0.04728464 -0.5947562 11121347 female
-0.8963256 -0.4662276 0.9074551 -0.3498586 -0.2472139 0.9035951 2171174 female
-0.5641204 0.1151519 1.060729 -0.876527 -0.4086174 -0.2544255 11311512 female
-0.5732579 -0.3155379 0.8236312 0.2125999 0.3477512 -0.913165 2237738 female
-0.6013815 -0.1792705 0.9855224 0.05513468 -0.2410114 0.9689549 2171688 female
-0.8136368 0.361437 0.7985561 -0.5920454 -0.2654603 -0.7609291 12172489 female
-0.9474222 -0.7126468 0.9851363 -0.4754079 -0.8725017 -0.1128191 526600 female
-0.8351424 -0.1655747 0.9974124 0.2327727 -0.2133524 0.9488401 2039072 female
-0.9460483 0.2287417 0.9315256 0.2677266 -0.8026415 -0.533 10921901 female
-0.9417124 0.484788 0.8539504 -0.9907011 0.1304734 0.03857508 7829376 female
-0.8726834 0.258673 0.9107785 -0.8900365 0.4001185 0.2184954 13753065 female
-0.9001445 -0.4696848 0.8218886 -0.5308301 -0.04551269 -0.8462553 2170401 female
-0.9203902 0.3780881 0.9046896 0.08954319 0.1225149 0.988419 8224648 female
-0.4907467 0.5340953 0.8279971 0.9027339 0.2666726 -0.3375756 7632259 female
-0.542172 -0.01168916 0.9735516 0.8321084 -0.02180862 0.554184 1973536 female
-0.9323424 0.1599576 1.156772 0.01533229 -0.9904401 0.1370884 7363671 female
-0.8659952 0.0363836 1.004999 -0.5152996 0.1328512 0.8466504 2500651 female
-0.7992817 -0.2575972 0.9285042 0.9096159 -0.3072494 0.2796367 2169889 female
-0.5856184 -0.5889599 0.8782724 -0.0341793 0.06353727 0.997394 2434601 female
-0.8854474 0.4010739 0.8888133 0.7281248 -0.0830273 0.6803976 13224148 female
-0.8544376 0.4246226 0.9017846 -0.8999878 -0.3458006 0.2654128 14082023 female
-0.9908074 0.2162266 0.9815754 -0.9031954 -0.305341 -0.3016702 13028569 female
-0.6538468 0.3482027 0.9954929 0.5141655 0.17689 0.8392519 15200255 female
-0.8549805 0.4086896 0.8721979 -0.9764591 -0.2120745 0.03939665 3553086 female
-0.5236527 0.4310315 0.8881171 0.09966581 0.07417262 0.9922525 6578796 female
-0.648927 0.2473856 1.015378 0.4694392 0.1580921 0.8686965 13620456 female
-0.6036648 0.2259553 0.7938017 0.4101122 0.3155871 -0.8556943 6514804 female
-0.6266564 0.8742704 0.7917215 0.8679471 0.4004734 -0.2937499 2631463 female
-0.712851 0.4057197 0.9920346 0.02206169 0.3559101 0.9342598 6184292 female
-0.469534 0.2590715 0.8915766 0.9545501 -0.1944203 -0.225909 9013397 female
-0.534848 -0.4381206 0.843335 0.9761713 -0.08449116 -0.1998775 1579553 female
-0.853665 -0.03986857 0.8374829 -0.2612632 -0.213837 -0.9412839 2105896 female
-0.8037687 -0.2028957 0.8789023 0.6645499 -0.08553243 -0.7423326 2171944 female
-0.554538 -0.6732175 0.8534271 0.9783434 0.1486399 -0.1440495 13087919 female
-0.7161333 0.8241826 0.7323471 -0.2087873 -0.1483484 -0.966644 14338761 female
-0.6418454 0.7585292 0.88095 0.9427801 -0.2626558 0.2053717 16311510 female
-0.8013936 0.6401902 0.769155 -0.3076397 0.524854 -0.7936536 12369607 female
-0.8580568 0.1635048 0.970314 -0.604922 0.1801389 0.7756412 3552582 female
-0.6730366 0.5817273 0.745105 -0.1333389 0.1779486 -0.9749642 14739705 female
-0.594347 -0.1521139 0.9907136 0.1850629 -0.2391974 0.9531717 1842723 female
-0.7228304 0.353816 1.008976 -0.04839043 0.2536217 0.9660923 15067640 female
-0.7351089 0.07222904 0.7737599 0.1226786 -0.4395457 -0.8898031 2435119 female
-0.6813669 0.2056083 1.031055 0.2436094 -0.09360304 0.965346 15133431 female
-0.927651 0.5732987 0.8411416 -0.8259912 0.5297166 -0.1927143 4934995 female
-0.8436639 0.4200216 0.9216074 -0.823518 -0.3864388 0.4153108 9672086 female
-0.639797 0.2717589 0.7957692 0.2200694 0.1166472 -0.9684849 15200255 female
-0.7059085 -0.03418168 0.9034059 -0.9793856 -0.1754666 -0.1000771 3290426 female
-0.5281481 -0.05608598 0.9215558 0.9883304 -0.1266485 0.08463525 1908509 female
-0.5514343 0.6118992 0.8635229 0.2058637 0.8578885 0.4707946 12699337 female
-0.7928708 0.138543 1.001515 -0.3217258 -0.08911794 0.9426296 15133438 female
-0.6574138 0.7226885 0.8138798 0.8592321 -0.1666665 -0.483676 4866113 female
-0.5651533 0.4475109 0.8051162 0.8531317 -0.3622131 -0.3754571 13553878 female
-0.8658454 -0.321999 0.8345864 0.1594071 0.3372582 -0.927818 2697774 female
-0.9218965 0.5453286 0.8110324 -0.66336 0.2307588 -0.7118313 9078681 female
-0.7458051 0.713806 0.8064647 -0.8027294 0.1671491 -0.5724394 10981510 female
-0.8662663 -0.113961 1.003077 -0.3402654 -0.1386762 0.9300476 2171944 female
-0.5809121 0.5971442 0.8840637 0.1311172 0.6109115 0.780766 13751265 female
-0.6809289 0.5383453 0.9601224 -0.03384002 0.6821603 0.7304193 15660798 female
-0.8294632 0.01495635 0.8124526 -0.164938 -0.4993 -0.8505851 3157808 female
-0.7115098 0.8103995 0.9316977 -0.7887199 0.3723061 0.4891922 15190973 female
-0.539322 -0.1975468 0.9039581 0.9960804 -0.02075324 -0.08598293 2170921 female
-0.798727 0.4112698 0.7751122 -0.4024359 -0.3609605 -0.8412805 2698546 female
-0.8733948 -0.02355224 1.006694 -0.5235137 0.006181546 0.8519949 2368809 female
-0.5568311 -0.2636133 0.9435055 0.8035047 -0.1589441 0.5736872 2171174 female
-0.8814983 -0.008487122 0.8426444 -0.5992841 -0.2429042 -0.762795 2500907 female
-0.6573684 0.4095946 0.9793543 0.3512032 0.1609391 0.9223638 15200255 female
-0.5719488 0.3602582 0.852071 0.9654115 -0.1733549 -0.1947531 15199990 female
-0.9141286 -0.3712974 0.919699 -0.7287294 -0.1148069 0.6751096 2565671 female
-0.5730014 -0.1974517 0.9735783 0.5096943 -0.1885693 0.8394363 2170403 female
-0.6910688 0.1543137 1.024492 0.254946 -0.2185964 0.9419225 12303563 female
-0.836485 -0.220461 0.86941 0.2170256 -0.04362706 -0.9751905 2565419 female
-0.8918974 -0.7025335 0.8572099 0.0164961 -0.9969379 -0.07643764 526088 female
-0.8003225 -0.2142597 0.9539787 0.8279937 -0.2655575 0.4938681 1841436 female
-0.8732146 0.08628862 0.8110242 -0.7398726 -0.02104633 -0.6724177 2565935 female
-0.9954919 0.1746867 1.070284 -0.9008616 0.266552 0.3426344 7699066 female
-0.8301046 0.002949187 0.8191538 -0.115646 -0.4262579 -0.897179 2566447 female
-0.905268 -0.6541422 0.8318396 -0.8959503 0.1580441 -0.4150844 9008758 female
-0.537914 0.2302929 0.937493 -0.9371601 0.1551844 0.3124879 7830410 female
-0.6830264 -0.06107263 0.97092 -0.7887494 -0.253918 0.5598214 1973534 female
-0.9660323 0.275032 0.9818833 -0.0835254 0.6661109 0.7411611 10396585 female
-0.5558084 0.472928 0.8325725 0.9176276 -0.3926181 0.06173062 10132382 female
-0.9562501 0.3987388 0.8784692 -0.886041 0.3247618 0.3308491 12042183 female
-0.9060076 -0.3702179 0.9292384 -0.5395004 -0.1531819 0.827934 2631464 female
-0.8866352 -0.3417025 0.8264642 -0.1950325 0.2750769 -0.9414324 2302505 female
-0.8318588 0.3737999 0.8111376 -0.7713553 -0.2145027 -0.5991658 10066337 female
-0.6755056 -0.157667 0.9019732 -0.983862 -0.1485346 -0.0997649 1775899 female
-0.5236808 0.03297301 0.935701 0.9569243 0.005242116 0.2902901 1974307 female
-0.6483707 0.8195813 0.7506075 0.6689507 -0.1721688 -0.7230926 3420972 female
-0.5377309 0.07766798 1.06704 -0.8377625 -0.2898387 -0.4627608 7563619 female
-0.7658129 -0.047426 0.8563486 0.6354933 -0.3039813 -0.709749 2498854 female
-0.7563069 0.09996893 0.7615893 0.06001842 -0.1794799 -0.9819291 5263457 female
-0.8767372 -0.1524287 0.9939587 -0.4387118 -0.1448375 0.8868788 2172969 female
-0.819663 0.2856456 0.8104472 -0.5376527 0.1355117 -0.8322056 5524558 female
-0.6723633 -0.1752701 0.8954847 -0.9812544 -0.1071154 -0.1602066 1710363 female
-0.5614767 0.2733027 0.8934855 0.9571126 0.2866813 0.04182616 14673128 female
-0.62931 -0.2744836 0.8571854 -0.4547215 0.06496961 -0.8882609 2170913 female
-0.7227274 0.5050495 0.9828322 0.1003838 0.4076947 0.9075837 15461623 female
-0.719177 0.03936201 0.8544842 0.2838375 -0.9298547 -0.2341078 1842204 female
-0.8586121 0.6317579 0.8528895 -0.1865414 0.9193692 0.346356 12894660 female
-0.5431278 -0.09173443 0.9606522 0.885982 -0.1274395 0.4458644 1841953 female
-0.5562922 -0.659575 0.8432072 0.9873368 0.04380987 -0.1524686 2105376 female
-0.8618991 -0.4091462 0.9207654 0.2514593 -0.2577575 0.9329144 2170913 female
-0.5250257 0.6029218 0.8406171 0.6314512 0.7739985 -0.04685702 9013393 female
-0.8361329 -0.2264169 0.8701586 0.2354163 -0.04598518 -0.9708061 2500140 female
-0.9285896 0.2454027 0.9220799 0.69534 -0.6523172 -0.3016364 13816027 female
-0.489176 0.469625 0.8574122 0.9370391 0.04495822 0.3463185 5790560 female
-0.9079386 -0.6243934 0.8425336 -0.9802734 0.1031498 -0.1685947 2170913 female
-0.6732954 -0.1308686 0.8761518 -0.8757357 -0.1710979 -0.451456 2170657 female
-0.6293139 0.02193622 1.014652 -0.07212944 0.02534751 0.9970731 2237481 female
-0.6515813 0.4380598 0.7517484 0.123531 -0.300866 -0.9456319 12237251 female
-0.6820965 0.7408718 0.9277863 0.6349252 -0.1191449 0.7633312 15718342 female
-0.594837 0.1509069 0.7802878 0.5370837 0.0611946 -0.8413064 12106953 female
-0.9226463 -0.7100634 0.8895909 -0.03475864 -0.9769821 -0.2104704 1052688 female
-0.6958687 0.6474085 0.8864843 0.1365491 0.1468119 0.9796941 13357275 female
-0.5316772 0.5306259 0.783231 0.3728933 -0.1717941 -0.9118319 12041154 female
-0.8025481 -0.04391407 0.8373848 0.2268749 -0.2684668 -0.9361908 2500652 female
-0.5708737 0.5565265 0.7605034 0.508478 -0.01357726 -0.8609679 11186367 female
-0.7333531 0.757953 0.9237912 -0.4375626 -0.07068008 0.8964058 15654605 female
-0.8030184 0.001623345 1.013295 0.2382884 -0.04807613 0.9700038 2171171 female
-0.5660931 -0.5395588 0.8114574 0.6001539 -0.1197695 -0.7908669 2302502 female
-0.8310751 0.5185996 0.9569269 -0.6022222 0.5093067 0.6147642 14935794 female
-0.8020107 -0.2348669 0.8882629 0.7779968 -0.1347077 -0.6136568 2236967 female
-0.6900677 0.3008092 1.01728 0.1439869 0.1807964 0.9729236 6316394 female
-0.562737 0.1195026 1.095494 0.6161233 0.5567651 0.5571397 14400689 female
-0.8634406 0.4974364 0.8775737 0.7563334 -0.2907644 0.586017 9277338 female
-0.6677628 0.2540064 1.022334 0.3315518 0.1783312 0.9264293 5130576 female
-0.5819905 0.5274279 0.9216043 0.6985053 0.2001996 0.6870301 14015205 female
-0.8802832 -0.6760901 0.9410329 0.5676535 0.6672999 0.4821621 15060420 female
-0.637996 0.4484656 0.7499453 0.1739137 -0.3083339 -0.9352455 15725567 female
-0.7370116 0.5393978 0.9621511 0.1082788 0.6773926 0.727609 15396344 female
-0.6128019 0.5173395 0.9676478 0.3838394 0.6152492 0.6885751 13357531 female
-0.6810949 -0.01611649 0.8423777 -0.6088373 -0.2875189 -0.7393578 2302243 female
-0.6948981 0.5010858 0.7392055 -0.1500392 0.1328929 -0.979708 13618138 female
-0.5625128 -0.5601501 0.8721235 0.6542118 -0.1723 0.7364236 2171682 female
-0.6590478 0.703234 0.8575069 0.8628742 -0.1084453 0.4936473 14993595 female
-0.5826802 -0.4269165 0.9074689 -0.07676069 -0.2308787 0.9699499 2171431 female
-0.6545061 0.2781764 1.010943 0.4465885 0.2017784 0.8716905 14342371 female
-0.5245009 0.5993155 0.8623753 0.5249527 0.7615644 0.3800582 5724511 female
-0.713981 0.01792906 0.9161544 -0.9990611 -0.04298035 -0.005433671 1973793 female
-0.6284848 0.04991517 0.781379 0.1628487 -0.4521553 -0.8769469 2368300 female
-0.5203102 0.009025269 0.9112555 0.9964597 -0.07078829 0.04535558 1776161 female
-0.5365263 0.2337622 0.8894889 -0.7801282 -0.4479832 -0.4367046 13553880 female
-0.6188543 0.8600725 0.8356932 0.9784009 0.163077 0.1270334 2368292 female
-0.5320463 0.4708592 0.7882674 0.1506669 -0.1299182 -0.9800106 7696766 female
-0.849369 0.2896045 0.937849 -0.8471431 0.2726677 0.4560712 7960958 female
-0.8835354 -0.3205851 0.9467229 -0.2676081 -0.277079 0.9228289 2301987 female
-0.9603415 -0.6971959 0.9519032 -0.4414919 0.8936347 0.08063521 14599101 female
-0.5366667 0.0347098 0.9623167 0.8630179 0.04290729 0.5033479 1973537 female
-0.5115415 0.04018487 1.040226 0.5479878 -0.2597201 -0.7951446 16242646 female
-0.5476568 0.5211536 0.7792194 0.3247059 -0.3771566 -0.8673633 13158352 female
-0.8504267 -0.5854599 0.8432477 0.9889448 -0.1353372 -0.06059712 1907745 female
-0.5811251 -0.5198323 0.8854579 -0.01645071 -0.1816195 0.9832312 2499878 female
-0.8405724 0.4103194 0.921425 -0.8573279 -0.2482995 0.4509281 14343396 female
-0.6753144 0.6262925 0.8916221 0.2062407 0.6075943 0.7670032 14738414 female
-0.8993568 -0.6733873 0.9423353 -0.1126632 0.8857543 0.4502736 14596789 female
-0.8931161 0.6152924 0.8326916 -0.6360908 0.7349885 -0.2349054 12303039 female
-0.6812288 0.2716228 0.7916613 -0.01493601 0.1863126 -0.9823769 15201279 female
-0.5117891 0.5609316 0.8819128 0.5024567 0.3255888 0.8009552 7369078 female
-0.9254833 0.4086492 0.8185384 -0.4377332 -0.131382 -0.8894539 5589847 female
-0.8217763 -0.4400724 0.8699112 0.9770572 -0.1924701 0.09118355 1842720 female
-0.8529028 0.03717571 0.8098102 -0.4577643 -0.383769 -0.8019808 2631465 female
-0.6520022 0.5388048 0.9585027 0.0800804 0.6835187 0.7255269 12765138 female
-0.5555128 -0.5849221 0.845072 0.9885629 -0.1363583 -0.06441834 1578779 female
-0.595559 -0.09164443 0.8359821 0.193609 -0.0687397 -0.9786677 2106409 female
-0.9486018 -0.6969341 0.9607311 -0.2177026 0.9621031 0.1642046 16243670 female
-0.7980291 0.3473044 0.7923675 -0.4463863 -0.2153187 -0.8685489 10330288 female
-0.911698 -0.6791141 0.9425328 -0.3147524 0.8911936 0.3266571 16241870 female
-0.5837916 -0.127613 0.8406445 0.3172372 -0.07355647 -0.9454893 2171688 female
-0.5586562 -0.3186648 0.9258522 0.6149192 -0.1897306 0.7654258 2040353 female
