# .PCD v0.7 - Point Cloud Data file format
VERSION 0.7
FIELDS x y z normal_x normal_y normal_z rgb label
SIZE 4 4 4 4 4 4 4 4
TYPE F F F F F F U U
COUNT 1 1 1 1 1 1 1 1
WIDTH 170
HEIGHT 1
VIEWPOINT 0 0 0 1 0 0 0
POINTS 170
DATA ascii
-0.9437819 0.1509604 -0.2515485 -0.7263772 0.06419222 -0.6842919 14936567 female
-0.6698747 0.1669017 -0.2760039 0.5896318 0.07779306 -0.8039171 9803174 female
-0.9507084 -0.4259103 -0.1143197 0.3256915 -0.2499547 0.9118376 2170913 female
-0.6156019 0.1114725 -0.04942949 -0.9769766 0.1437448 -0.1576522 12825516 female
-0.6320813 -0.5538828 -0.199922 0.8849224 -0.1527338 0.4399826 2171937 female
-0.6709508 -0.1795421 -0.08703268 0.175525 -0.2342742 0.9561937 2171688 female
-0.9074679 0.3517577 -0.2360344 -0.7473335 -0.1635377 -0.6440094 6251625 female
-1.008698 -0.7139565 -0.09556837 0.01990831 -0.9973121 -0.07051403 855565 female
-0.9346346 -0.5395995 -0.1783412 0.9828199 -0.1843266 0.009418077 1776929 female
-1.018699 0.1787849 -0.05004956 0.9293053 -0.3623421 -0.0714142 12238536 female
-1.022832 0.4807031 -0.1905341 -0.9859326 0.09340126 -0.1386111 10133932 female
-0.8951042 0.3310676 -0.2469337 -0.5949261 -0.07709563 -0.8000745 7566207 female
-0.9877679 -0.4695355 -0.2086936 -0.4087586 -0.03782305 -0.9118584 1973537 female
-0.9714099 0.3760646 -0.1477768 0.6950613 -0.080514 0.7144279 15133945 female
-0.5780309 0.5367503 -0.2490938 0.8815765 0.2916175 -0.3711902 7698310 female
-0.6163826 -0.01162304 -0.1060102 0.8928173 -0.009428935 0.4503204 1973536 female
-1.000101 0.1304439 0.09179506 -0.7822321 -0.5613403 0.2702035 8876140 female
-0.9381927 0.04179101 -0.03562395 -0.4181773 0.1674506 0.8927978 2500651 female
-0.8889142 -0.2372795 -0.0891116 0.8400248 -0.2926227 0.45687 2105120 female
-0.6606066 -0.5907419 -0.1836357 0.08800838 0.09789861 0.9912973 2434601 female
-0.9681374 0.4118705 -0.1446946 0.6119011 -0.08439789 0.7864185 11250613 female
-0.9303131 0.4236678 -0.1349086 -0.8643795 -0.3511601 0.3599093 14082023 female
-1.061235 0.2545307 -0.08244132 -0.9155805 0.2554279 0.3105946 11913167 female
-0.6629711 0.343126 -0.1391494 0.8865709 0.1259586 0.4451141 3420469 female
-0.9345543 0.4089878 -0.1648199 -0.9668307 -0.2078675 0.1484229 3553086 female
-0.6031754 0.4287415 -0.1966633 0.2642724 0.007683432 0.9644175 6578796 female
-0.7182254 0.2632225 -0.05474852 0.568997 0.1673274 0.805136 14541554 female
-0.7179686 0.2239835 -0.2820778 0.1574653 0.3143964 -0.9361408 11844804 female
-0.7200472 0.877909 -0.2546544 0.8197246 0.424794 -0.3841895 2631463 female
-0.716718 0.4907355 -0.06588402 0.07811102 0.380298 0.9215596 12369609 female
-0.5502353 0.2573763 -0.2139474 0.9028974 -0.1698655 -0.3948695 9013397 female
-0.6175063 -0.4404567 -0.2301257 0.9458803 -0.07715689 -0.3152099 1579553 female
-0.945337 -0.0392428 -0.2017008 -0.36548 -0.2319442 -0.9014578 2105896 female
-0.8948624 -0.201603 -0.1593907 0.5832563 -0.1143888 -0.8041936 2171944 female
-0.6313308 -0.6754485 -0.2094919 0.9500336 0.1571756 -0.2696888 13087919 female
-0.8157716 0.8288352 -0.3043285 -0.326969 -0.112992 -0.9382559 14338761 female
-0.7220271 0.7691361 -0.1600617 0.9629333 -0.2134609 0.1649055 16574163 female
-0.907445 0.6500652 -0.2472026 -0.5177776 0.6910856 -0.5042886 12437462 female
-0.9495026 0.1790356 -0.09048587 -0.7034711 0.1960674 0.6831443 7039086 female
-0.7775705 0.5956764 -0.3019765 -0.2385657 0.2113925 -0.9478394 14541555 female
-0.6411869 -0.1655835 -0.09838744 0.6505433 -0.1889888 0.735579 1974050 female
-0.7809126 0.3465897 -0.04659872 0.1145417 0.2159399 0.969665 12633296 female
-0.8506199 0.06190842 -0.2783498 0.02154207 -0.4749024 -0.8797747 2566703 female
-0.7466689 0.2170584 -0.03176112 0.353267 -0.01048617 0.9354638 12700887 female
-1.012701 0.552213 -0.1618287 -0.8391174 0.3562767 0.4110339 7304056 female
-0.9173589 0.4185597 -0.1167336 -0.7714592 -0.3960088 0.4980238 9672086 female
-0.7323945 0.2716613 -0.2699197 0.1109663 0.1283491 -0.9855014 15200255 female
-0.7871208 -0.03641701 -0.1558578 -0.9820431 -0.1877632 0.01833696 3290426 female
-0.6079597 -0.05583744 -0.1593657 0.9930556 -0.1124434 -0.03459992 1908509 female
-0.6333899 0.6113328 -0.2052713 0.286613 0.8333545 0.4726239 12699337 female
-0.8604649 0.1074203 -0.04743739 0.1090735 0.06790321 0.9917117 2566703 female
-0.7462471 0.7249202 -0.2350674 0.7931585 -0.138976 -0.5929464 4866113 female
-0.6549324 0.4499858 -0.2652518 0.7998009 -0.3450675 -0.491169 13553878 female
-0.9604405 -0.3185873 -0.1950576 0.07381495 0.3315654 -0.9405401 2697774 female
-0.9691365 0.5242096 -0.2392617 -0.1831744 -0.1650862 -0.96912 7236726 female
-0.8310782 0.7238997 -0.2364727 -0.8525846 0.0756133 -0.51709 5984074 female
-0.9418136 -0.1082987 -0.03257233 -0.2414577 -0.103276 0.9649001 2171944 female
-0.659724 0.5959133 -0.1809057 0.2534884 0.5735229 0.7789834 13751265 female
-0.7795193 0.5312755 -0.0863593 0.1299161 0.6631715 0.7371061 14146792 female
-0.8930898 -0.04244388 -0.2076251 0.1276077 -0.3017797 -0.9447991 2500651 female
-0.7854073 0.8029054 -0.1040372 -0.81603 0.3997315 0.4175043 13282465 female
-0.7143081 -0.1872997 -0.09866412 -0.5465149 -0.2537612 0.7980769 2170401 female
-0.8901124 0.4144715 -0.2678252 -0.5031202 -0.3302227 -0.7986382 2698546 female
-0.9466272 -0.01766727 -0.03113581 -0.4286819 0.04334968 0.9024149 2368809 female
-0.6304846 -0.2631231 -0.1339162 0.869234 -0.1347031 0.4756967 2171174 female
-0.9718278 -0.007038413 -0.1945339 -0.6826366 -0.2472207 -0.6876695 2500907 female
-0.7135049 0.399246 -0.0878237 0.5767105 0.1629598 0.8005304 15724543 female
-0.6608974 0.3326743 -0.1409494 0.8983773 0.1564149 0.4104298 13752800 female
-0.9833953 -0.2869789 -0.1765715 -0.3608304 0.3962398 -0.8442721 2303275 female
-0.6439499 -0.1972573 -0.1023868 0.6098257 -0.1740839 0.7731801 2170403 female
-0.7575507 0.1445062 -0.03996459 0.3759269 -0.2484907 0.8927101 14541297 female
-0.915791 -0.2594799 -0.1565319 0.3908157 -0.05097733 -0.9190562 2631471 female
-1.001649 -0.6929823 -0.1853952 -0.6094831 -0.7330665 -0.3019006 1051664 female
-0.8856218 -0.2513563 -0.1069981 0.9273915 -0.3033249 0.21895 2038559 female
-0.9472327 0.1099901 -0.2493507 -0.7169092 0.02019739 -0.696874 15595005 female
-1.049914 0.1625816 0.01870253 -0.4597698 0.562165 0.6874462 8092544 female
-0.9145556 -0.01944386 -0.2161865 -0.1015667 -0.3404719 -0.934753 2697516 female
-0.9983592 -0.6684989 -0.2064859 -0.9022865 0.2418704 -0.3569002 15124160 female
-0.6100032 0.224952 -0.1592848 -0.8713534 0.1248928 0.4744945 7830410 female
-0.7555917 -0.06288132 -0.09151119 -0.7116035 -0.2637701 0.651188 1973534 female
-1.048641 0.2574243 -0.06670018 -0.4391254 0.5426525 0.7160287 8025719 female
-0.6423097 0.475514 -0.2371031 0.9212256 -0.3850893 -0.05522296 11777205 female
-1.030284 0.417054 -0.1622057 -0.9050383 0.2426438 0.3493275 5001303 female
-0.9916888 -0.3662995 -0.09704866 -0.4627302 -0.1501724 0.873687 2631464 female
-0.9607038 -0.314692 -0.193633 0.06837961 0.343879 -0.9365209 2697516 female
-0.9165698 0.38899 -0.2357035 -0.8217288 -0.1280293 -0.5553109 6710377 female
-0.7549615 -0.1595973 -0.1610915 -0.9863086 -0.1637032 0.01991807 1775899 female
-0.6034055 0.03273047 -0.145994 0.9845875 0.01540515 0.174213 1974307 female
-0.7462271 0.8245619 -0.2949035 0.5746758 -0.1341135 -0.8073173 3420972 female
-0.5914782 0.06221453 -0.03009326 -0.9090135 -0.3113317 -0.2770687 8417899 female
-0.8539938 -0.02234211 -0.2035894 0.4810887 -0.3710465 -0.7942784 2697257 female
-0.8546141 0.1006185 -0.291473 -0.05439996 -0.1764683 -0.9828019 5263457 female
-0.9749222 -0.1737556 -0.0518625 -0.6579282 -0.06585994 0.7501953 2170657 female
-0.9399168 0.2763436 -0.2024358 -0.8247374 0.4068472 -0.3927895 7698044 female
-0.7504124 -0.1974945 -0.1732285 -0.9922454 -0.08441757 -0.09122937 1776155 female
-0.6435959 0.2702741 -0.1817558 0.960599 0.2707644 -0.06273944 14673128 female
-0.7128404 -0.2772025 -0.2107028 -0.5598094 0.03504678 -0.8278798 2170913 female
-0.7762465 0.4791594 -0.06325942 0.1049317 0.1233984 0.9867939 14013410 female
-0.8075103 0.03501786 -0.1868937 0.769937 -0.5801281 -0.2657977 1645081 female
-0.9442438 0.6355007 -0.1999143 -0.4970383 0.8591551 0.1216777 12370114 female
-0.6174511 -0.09146708 -0.1186703 0.9350502 -0.1126847 0.3361297 1841953 female
-0.6377325 -0.6542419 -0.2318441 0.9115059 -0.01035772 -0.4111564 1842207 female
-0.9992022 -0.5709434 -0.1752021 -0.9927073 -0.1013601 -0.06525725 1579291 female
-0.610927 0.6033718 -0.2324347 0.6259353 0.772204 -0.1091148 9013393 female
-0.9191409 -0.2558976 -0.1575692 0.3456375 -0.050739 -0.9369953 2698289 female
-1.008161 0.212705 -0.09685517 0.8327703 -0.5156949 -0.2013759 14606823 female
-0.5732664 0.4846248 -0.2307213 0.9879174 0.02168917 0.1534558 10725291 female
-0.999894 -0.624692 -0.1871183 -0.9681936 0.1040448 -0.227543 2105120 female
-0.751538 -0.1797696 -0.1794232 -0.9699256 -0.09295912 -0.2249507 1907741 female
-0.6983235 0.02101818 -0.0545934 0.04860746 0.0274996 0.9984393 2237481 female
-0.7468662 0.4415132 -0.3077451 0.006702546 -0.2682972 -0.9633129 12237251 female
-0.7757224 0.7514884 -0.1042445 0.2046716 -0.2622465 0.9430463 15717326 female
-0.6913918 0.1496314 -0.2908693 0.4395674 0.06008476 -0.8961977 12106953 female
-0.9928961 -0.7030218 -0.1440932 0.06466303 -0.9896594 -0.1280355 723979 female
-0.7470506 0.6448473 -0.1778314 0.5985031 0.3109434 0.7383144 13751003 female
-0.6323516 0.5381534 -0.2933544 0.2700878 -0.1280207 -0.9542868 5658203 female
-0.8946043 -0.04443152 -0.2072871 0.1191754 -0.2969716 -0.9474202 2500652 female
-0.6737081 0.5603765 -0.3086116 0.367265 0.0142938 -0.9300065 11383490 female
-0.8063543 0.763509 -0.1130868 -0.2705556 -0.2112488 0.9392409 15062724 female
-0.875294 0.005977803 -0.03317515 0.3401082 -0.0254546 0.9400417 2171171 female
-0.651615 -0.5306067 -0.2564771 0.4119426 -0.1285132 -0.9021018 2697264 female
-0.8789546 0.5179657 -0.0691608 -0.2841348 0.5976812 0.7496964 15133430 female
-0.8914016 -0.2461312 -0.1430779 0.7935106 -0.2247445 -0.5655359 2105124 female
-0.7406334 0.3121175 -0.05135643 0.4214441 0.1465834 0.8949292 13225949 female
-0.6150895 0.1128135 -0.02223917 -0.3975012 0.8612615 0.3165776 16774119 female
-0.9641152 0.5832684 -0.1356965 -0.1323815 0.3153204 0.9397064 12303555 female
-0.7382522 0.2911931 -0.04913453 0.4189931 0.1607165 0.8936526 11053494 female
-0.6516119 0.5248798 -0.158339 0.8099886 -0.0701263 0.5822378 14606311 female
-0.9830772 -0.7161148 -0.05558835 -0.05541988 -0.9972353 0.04950183 526089 female
-0.7337537 0.4522209 -0.3108248 0.05714177 -0.2748146 -0.9597978 15725567 female
-0.7620445 0.5437092 -0.1030088 0.007190366 0.6488495 0.7608828 9145496 female
-0.6730129 0.4751633 -0.07730515 0.6179933 0.1234377 0.7764325 12434381 female
-0.7703806 -0.01816024 -0.2193848 -0.6897764 -0.295432 -0.6610056 2302243 female
-0.7919747 0.5055622 -0.3126785 -0.2712759 0.168303 -0.9476727 13618138 female
-0.6692364 -0.3130333 -0.2476206 -0.06239551 0.3325601 -0.9410157 2237738 female
-0.741529 0.7183834 -0.1915756 0.9284773 -0.2462426 0.2780191 12429467 female
-0.6573746 -0.4276157 -0.161028 0.04701136 -0.1958908 0.9794981 2171431 female
-0.7345206 0.2705173 -0.04659371 0.4424641 0.175836 0.8793789 4539471 female
-0.6682069 0.5989972 -0.178771 0.3139503 0.5726753 0.7572834 11646908 female
-0.7931517 0.01144846 -0.1383145 -0.988641 -0.06884498 0.1336019 2169889 female
-0.7152702 0.03718536 -0.2793228 0.09622397 -0.5578219 -0.8243639 2171945 female
-0.6026947 0.00880468 -0.1706164 0.9954198 -0.06059017 -0.07394811 1776161 female
-0.6166745 0.2316245 -0.2065013 -0.8429661 -0.4253504 -0.3293708 13553880 female
-0.7066274 0.8621401 -0.2126335 0.9849675 0.1724342 0.01027295 2368292 female
-0.6275226 0.4799605 -0.290942 -0.002305779 -0.04923111 -0.9987847 14605287 female
-0.9198484 0.300907 -0.1030562 -0.7699448 0.2371131 0.5924208 14146793 female
-0.9571514 -0.3083024 -0.07558502 0.03423498 -0.4257021 0.9042155 1776669 female
-1.031439 -0.6901378 -0.08769112 -0.4546267 0.8898243 0.03908155 16243156 female
-0.6130735 0.03446487 -0.1179083 0.9164001 0.05306241 0.3967307 1973537 female
-0.561767 0.03266035 -0.07120787 0.9246853 -0.09070975 -0.3697685 16772326 female
-0.5890588 0.571709 -0.2440336 0.7564429 0.5321717 -0.3802465 14081007 female
-0.9435202 -0.5878024 -0.1820913 0.9925678 -0.09148938 -0.08024193 1973022 female
-0.6566769 -0.5212612 -0.1796208 0.1074727 -0.1451665 0.9835529 2499878 female
-0.9144557 0.4090383 -0.1176585 -0.8003182 -0.2575341 0.5414489 14343396 female
-0.7808756 0.6193911 -0.1505842 0.1105593 0.5558307 0.8239108 11974596 female
-0.9862394 -0.6421045 -0.1262394 -0.5999479 0.6364589 0.4847502 2302243 female
-0.9728954 0.6133167 -0.2046563 -0.7060735 0.6629776 -0.2488391 11711421 female
-0.7740995 0.2722394 -0.269275 -0.1235003 0.2032326 -0.9713106 15201279 female
-0.607511 0.5792544 -0.1891432 0.4677863 0.3875753 0.7943307 9802653 female
-0.9965982 0.394917 -0.22202 -0.1646264 -0.2000347 -0.9658594 12897242 female
-0.9128035 -0.4361914 -0.1633604 0.981957 -0.1890436 0.004786993 1842720 female
-0.9131665 0.007904524 -0.2277373 -0.144593 -0.4924806 -0.8582283 2895412 female
-0.7379363 0.5338032 -0.09458999 0.09520186 0.6501422 0.7538248 15659774 female
-0.6349211 -0.5874231 -0.2204992 0.9756275 -0.1239049 -0.1811038 1578779 female
-0.6846996 -0.09263019 -0.236224 0.07507275 -0.06866432 -0.9948112 2106409 female
-1.035545 -0.6925457 -0.07297736 -0.3382181 0.934192 0.1135509 15518401 female
-0.888516 0.3503264 -0.253199 -0.5477125 -0.184378 -0.8160979 10330288 female
-0.9828985 -0.6588141 -0.1019795 -0.1816175 0.8615605 0.4740556 16443357 female
-0.6718214 -0.1284533 -0.2330595 0.2018439 -0.07278622 -0.9767094 2171688 female
-0.6334149 -0.318479 -0.1497014 0.7067076 -0.1551701 0.6902801 2040353 female
