# .PCD v0.7 - Point Cloud Data file format
VERSION 0.7
FIELDS x y z normal_x normal_y normal_z rgb label
SIZE 4 4 4 4 4 4 4 4
TYPE F F F F F F U U
COUNT 1 1 1 1 1 1 1 1
WIDTH 170
HEIGHT 1
VIEWPOINT 0 0 0 1 0 0 0
POINTS 170
DATA ascii
-0.8912743 0.1229625 0.8090122 -0.8107951 0.09575719 -0.5774443 12173512 female
-0.5944279 0.1614312 0.7732159 0.6295474 0.06421497 -0.7743039 9803174 female
-0.8670467 -0.4324301 0.9158971 0.3405858 -0.2471385 0.9071515 2170913 female
-0.6006332 0.1217449 1.048273 -0.6724135 -0.6672571 -0.3203561 4866112 female
-0.599495 -0.5770299 0.8259009 0.7892041 -0.2016982 0.5800645 2171172 female
-0.5900372 -0.2023586 0.9447109 0.5983661 -0.2273791 0.7682816 2170145 female
-0.8666115 0.3022481 0.8555853 -0.9616622 0.1963592 -0.1914387 12962771 female
-0.9189646 -0.71945 0.9363672 0.01259748 -0.9981776 -0.05901502 855565 female
-0.8458855 -0.5228468 0.8636339 0.955461 -0.2099599 0.2073915 1841948 female
-0.9144812 0.2220434 0.9708391 0.5054017 -0.776061 -0.3772247 9935263 female
-0.9422476 0.4800719 0.8474318 -0.9906997 0.04794095 -0.1273413 10133932 female
-0.8661914 0.293749 0.8449342 -0.9182019 0.2485759 -0.3084076 3419956 female
-0.9043345 -0.4764107 0.8217614 -0.418723 -0.04248621 -0.9071196 1973537 female
-0.9345939 0.4143229 0.896883 -0.5851218 0.2506579 0.7712348 11056058 female
-0.5045646 0.5076878 0.796113 0.7707468 0.09125636 -0.6305725 10066344 female
-0.5599129 0.01302245 0.952406 0.8172423 0.005383939 0.576269 1973536 female
-0.8807964 0.1921077 1.149481 -0.4385416 -0.8143691 0.3801107 9140081 female
-0.8041581 0.0600307 1.001429 0.2535317 0.1744711 0.9514628 2434601 female
-0.8137951 -0.2780157 0.8985375 0.9149151 -0.2204715 -0.3381166 1973278 female
-0.6316677 -0.5886147 0.8353402 -0.382148 0.04181439 0.9231547 2631471 female
-0.8843066 0.4159702 0.895774 0.626061 -0.0167423 0.7795944 11250613 female
-0.8654032 0.4495915 0.907052 -0.9467861 -0.1994712 0.252601 8223622 female
-0.9601743 0.2536952 0.9890506 -0.9815058 0.02742155 0.1894584 14474476 female
-0.5938845 0.3387765 0.9089285 0.8580989 0.1240434 0.4982766 3420469 female
-0.8669907 0.4215961 0.8641299 -0.9504166 -0.3021248 0.07368018 11908798 female
-0.5401452 0.3589542 0.8727726 -0.1581844 0.05771374 0.9857214 14147815 female
-0.6528314 0.2414698 0.9951671 0.5239326 0.1431206 0.8396494 13620456 female
-0.6417271 0.2186878 0.7642291 0.2075037 0.302806 -0.9301885 11844804 female
-0.6292276 0.8730598 0.8018484 0.8613726 0.4094667 -0.300623 2631463 female
-0.7097303 0.4084011 0.9719359 0.1013964 0.2378981 0.9659831 15200255 female
-0.5394812 0.2587955 0.8336154 -0.05037931 -0.6512592 -0.7571813 13028045 female
-0.5690137 -0.4237065 0.807561 0.9604867 -0.06504798 -0.270618 1579808 female
-0.8715832 -0.04336705 0.8344191 -0.3448995 -0.2268645 -0.9108111 2105896 female
-0.8202188 -0.2275729 0.8742669 0.5152926 -0.08212747 -0.8530701 2303014 female
-0.5961304 -0.6774277 0.8062847 0.9628702 0.1433765 -0.2287447 13087919 female
-0.7335122 0.8648939 0.7542239 -0.4966386 0.3467808 -0.7956716 9473672 female
-0.6406503 0.7591214 0.8411069 0.5026948 -0.8231476 -0.2640567 13414308 female
-0.8231955 0.6553097 0.8244707 -0.3979935 0.867117 0.2995151 15724535 female
-0.8894058 0.1558854 0.9473916 -0.7346565 0.2624582 0.6256161 6580853 female
-0.6875585 0.6338791 0.7531328 -0.02188428 0.3493004 -0.9367552 12428700 female
-0.5887122 -0.1748343 0.9499167 0.5987579 -0.2340249 0.7659774 1974050 female
-0.7250172 0.3480148 0.9935327 0.009511107 0.240956 0.9704894 15067640 female
-0.7887686 0.08187412 0.7524216 -0.05015339 -0.279857 -0.9587308 2960949 female
-0.6833524 0.2148014 1.012936 0.3039682 -0.002184024 0.9526797 12700887 female
-0.9327126 0.5710917 0.849383 -0.8507332 0.5174819 -0.09200815 4934995 female
-0.8614566 0.3571016 0.8724748 -0.9970843 0.02623285 0.07165795 15001844 female
-0.6560705 0.2662502 0.7754355 0.1653893 0.1143198 -0.9795802 15200255 female
-0.7240153 -0.03744097 0.8860222 -0.989077 -0.142225 -0.0387133 3290426 female
-0.543441 -0.04569795 0.8742467 0.9746497 -0.1681346 -0.1476097 2105122 female
-0.5571499 0.605957 0.853107 0.2214936 0.8324207 0.5079531 12699337 female
-0.8459101 0.177003 0.9746868 -0.4986982 0.01840366 0.8665803 14607351 female
-0.6619069 0.7204309 0.8129362 0.8331882 -0.1436969 -0.5339929 4866113 female
-0.5648454 0.4498603 0.8538672 0.9837255 -0.1583598 0.08488988 13816538 female
-0.8454702 -0.2999737 0.8619974 0.5918149 0.2941118 -0.7505021 2697257 female
-0.8976206 0.5304827 0.7950818 -0.2431991 -0.1495213 -0.9583828 9804198 female
-0.7507182 0.7135443 0.8090394 -0.8241157 0.2228319 -0.5207487 10981510 female
-0.8531024 -0.1218051 1.002923 -0.02600251 -0.1517811 0.9880721 2171944 female
-0.5862165 0.5905361 0.8731182 0.1533751 0.5722579 0.8056035 13751265 female
-0.6955516 0.5358272 0.9414458 -0.02903061 0.6491674 0.7600914 3553599 female
-0.8503411 0.01209248 0.8061193 -0.2362042 -0.5065463 -0.8292276 3157808 female
-0.6992002 0.8107629 0.943625 -0.3084985 0.6021658 0.7363593 14138287 female
-0.6676572 -0.197456 0.93931 -0.6728107 -0.2346388 0.7016197 2170913 female
-0.7968253 0.4135828 0.7569064 -0.3342543 -0.3127494 -0.8890792 9933207 female
-0.8749489 -0.02538554 1.004858 -0.4397887 0.009599894 0.89805 2368809 female
-0.580429 -0.2823236 0.9089185 0.8349605 -0.216804 0.5058033 2039075 female
-0.8992611 -0.01197143 0.8415996 -0.6639901 -0.2554444 -0.7027556 2500907 female
-0.6014187 0.4741613 0.7429377 0.5228593 -0.2739761 -0.8071898 14607351 female
-0.596736 0.3201589 0.9190854 0.8179591 0.1727201 0.5487355 6183780 female
-0.9028713 -0.2937849 0.8544375 -0.3753788 0.3937254 -0.8390895 2303275 female
-0.6445877 -0.1940137 0.9555352 -0.3177198 -0.2512572 0.9142888 2170660 female
-0.6939502 0.1418348 1.004901 0.3268636 -0.2484678 0.9118245 14541297 female
-0.8353875 -0.2645502 0.8744059 0.3894772 -0.03227657 -0.9204704 2631471 female
-0.9061904 -0.7039886 0.8507607 -0.1917772 -0.9678905 -0.1625101 921102 female
-0.8072711 -0.2404592 0.9398938 0.8668845 -0.2660443 0.4215824 1973534 female
-0.8741575 0.08797883 0.7871153 -0.6433545 -0.02695093 -0.7650939 2566703 female
-0.9426354 0.1671229 1.092342 -0.9829459 -0.1638677 0.08345452 11120055 female
-0.8503373 -6.889645E-05 0.8131373 -0.1917068 -0.4351694 -0.8797023 2566447 female
-0.9121578 -0.6678951 0.8310217 -0.9095195 0.2498153 -0.3322147 15717326 female
-0.5662199 0.2110237 0.9696918 -0.7343542 0.5529196 0.3937052 14607604 female
-0.6321248 -0.09205382 0.9799073 -0.06306119 -0.1997399 0.9778175 2171944 female
-0.9344802 0.2836524 0.993282 -0.01150808 0.7429053 0.6692976 10396585 female
-0.5645685 0.4713441 0.8301417 0.9359419 -0.3207048 0.1454687 13026505 female
-0.9469585 0.4174954 0.879036 -0.9092878 0.2264394 0.3491718 5001303 female
-0.8820795 -0.4066817 0.9284131 0.1344846 -0.2477746 0.9594382 2169889 female
-0.879946 -0.321011 0.8370793 0.05276145 0.3499705 -0.9352736 2697516 female
-0.8328621 0.3542604 0.7973003 -0.7138311 -0.220294 -0.6647674 10132134 female
-0.6976348 -0.1657651 0.8757868 -0.9896242 -0.09772003 -0.1053316 1841436 female
-0.5375883 0.05683053 0.8998323 0.9787745 0.0408563 0.2008262 1908257 female
-0.6538414 0.822251 0.7574956 0.6320443 -0.1233748 -0.7650481 3420972 female
-0.6258157 0.06760363 1.136126 -0.7884693 -0.3050409 -0.5341032 5459009 female
-0.7824309 -0.04981326 0.8451431 0.5712555 -0.3056287 -0.7617468 2498854 female
-0.7493247 0.07962623 0.7577453 -0.003298316 -0.3471311 -0.9378108 2171687 female
-0.8972002 -0.1816816 0.980306 -0.6611134 -0.1015534 0.7433814 2170657 female
-0.8412932 0.2666834 0.7997692 -0.5386986 0.3452691 -0.7685005 8092299 female
-0.6951296 -0.1998316 0.869297 -0.9889075 -0.03247562 -0.144939 1776155 female
-0.5788329 0.2767802 0.8442425 0.9468811 0.1488594 -0.2850563 4343106 female
-0.6783533 -0.3670362 0.8286501 -0.9975297 0.06681756 0.02167648 1776161 female
-0.7251316 0.4760823 0.9783112 0.1706709 0.1221013 0.9777334 15462395 female
-0.7431995 0.01391773 0.8729641 0.9256238 -0.2941149 -0.2381533 1645342 female
-0.8587416 0.6408623 0.8278299 -0.4767255 0.8775097 0.05205408 13749452 female
-0.5590765 -0.0734772 0.9431858 0.8707591 -0.1382134 0.4718853 1973537 female
-0.5986949 -0.6636065 0.7966407 0.970347 0.03680868 -0.238897 2105376 female
-0.9133609 -0.578079 0.8550473 -0.9917119 -0.1177311 -0.0514497 1579291 female
-0.5311418 0.5975892 0.8296612 0.641306 0.7671491 -0.0144538 9013393 female
-0.8388048 -0.2610188 0.8734223 0.3445962 -0.03273198 -0.9381802 2698289 female
-0.9057486 0.2209795 1.005758 0.9621387 -0.2674955 -0.05230043 12172744 female
-0.5255979 0.5232646 0.874991 0.3361944 0.04388073 0.9407698 8157824 female
-0.9133566 -0.631689 0.8432573 -0.9737988 0.09199469 -0.2079731 2105120 female
-0.6950025 -0.1819223 0.863158 -0.9598171 -0.03886817 -0.2779214 1907741 female
-0.6559133 0.003509534 0.9909204 -0.192636 -0.03367641 0.9806923 2171945 female
-0.6253949 0.423737 0.7478766 0.3673932 -0.3650825 -0.8554163 9606042 female
-0.6914092 0.7433099 0.9394347 0.4388042 -0.2715916 0.8565564 15717330 female
-0.6496263 0.1955821 0.7553642 0.165215 0.2772153 -0.9464965 15200255 female
-0.9046227 -0.7092052 0.8873658 0.06200297 -0.9911945 -0.117001 723979 female
-0.6842908 0.6420679 0.8764438 0.4695255 0.1491216 0.8702348 13685215 female
-0.5105244 0.5626427 0.8129226 0.7673098 0.4819996 -0.42298 14607351 female
-0.8207422 -0.04686611 0.8295891 0.1429983 -0.276595 -0.9502878 2500652 female
-0.5789779 0.5555028 0.7476181 0.4935576 0.01997511 -0.8694836 11186367 female
-0.7212248 0.7457011 0.9349145 -0.5497265 -0.01277226 0.8352471 14601149 female
-0.7683208 -0.01485471 0.9800961 0.7070255 -0.1641023 0.6878848 2170913 female
-0.5997314 -0.6116374 0.7954047 0.9758575 -0.0547608 -0.2114317 1776155 female
-0.8163078 0.5136206 0.9632058 -0.3724198 0.5801495 0.7243826 13751261 female
-0.8308528 -0.2390471 0.8718933 0.3340292 -0.09921726 -0.9373262 2500137 female
-0.6929851 0.2951065 0.9997084 0.2022935 0.1695269 0.9645402 6316394 female
-0.6351248 0.1448509 1.105745 -0.05450314 0.998352 -0.01796261 15983067 female
-0.8648632 0.5055327 0.8846162 0.6982465 -0.2910809 0.6540059 15725559 female
-0.6711295 0.2483838 1.003193 0.3895914 0.1655303 0.9059902 5130576 female
-0.585808 0.5186557 0.9056101 0.7284525 0.1548561 0.6673653 14015205 female
-0.8660414 -0.709877 0.96086 0.9471218 -0.3151711 0.06022844 6706519 female
-0.6573474 0.4463583 0.7321526 0.08758729 -0.2617409 -0.9611557 15462391 female
-0.7226803 0.5381537 0.941554 0.1876529 0.6365201 0.7480833 3419956 female
-0.6285288 0.5341326 0.9346368 0.2876152 0.6219655 0.7283107 12171461 female
-0.7023405 -0.01937473 0.823815 -0.6645247 -0.2608006 -0.7002785 2302243 female
-0.7181074 0.491553 0.7270415 -0.1030519 0.04733686 -0.9935489 15526648 female
-0.6043969 -0.5941831 0.8264557 0.7468724 -0.1334167 0.6514459 1907998 female
-0.661994 0.6977643 0.8551727 0.8819816 -0.1599252 0.4433197 14993595 female
-0.6149988 -0.4663202 0.8632845 -0.001494204 -0.2681797 0.9633677 2105379 female
-0.6582268 0.2719328 0.9912227 0.500604 0.1848226 0.8457164 14342371 female
-0.5305116 0.5930457 0.8511745 0.5357114 0.7361726 0.4135979 5724511 female
-0.7216119 -0.02543587 0.9238968 -0.9592318 -0.1470851 0.2413303 1907741 female
-0.651395 0.04442034 0.7607827 0.09558149 -0.4550404 -0.8853261 2368300 female
-0.549438 -0.01513432 0.932711 0.9131 -0.0643295 0.402629 1973537 female
-0.5721731 0.250991 0.8856432 -0.9984931 -0.006840407 -0.05444935 12700120 female
-0.6197294 0.8552077 0.8441158 0.9861312 0.1365942 0.09427259 2368292 female
-0.5458815 0.4261593 0.7778485 0.08099423 -0.1607843 -0.9836606 14276065 female
-0.8408509 0.3271982 0.93434 -0.7485195 0.2178632 0.6263021 14541293 female
-0.8740333 -0.3017424 0.9632077 0.03758791 -0.5073083 0.8609445 2630696 female
-0.9531568 -0.6999295 0.9709814 -0.409169 0.8464067 0.3408464 1249037 female
-0.5763218 0.1117838 0.9558668 0.6440063 0.1970043 0.7392194 15330809 female
-0.5824777 0.03708564 1.060583 -0.9751263 0.2146753 -0.05516519 16507866 female
-0.5080039 0.5657768 0.8432974 0.8258456 0.510623 0.2392555 12370377 female
-0.8608925 -0.6115505 0.8392473 0.961968 -0.03366217 -0.27108 1908771 female
-0.6103405 -0.3858603 0.8856456 0.06691997 -0.2547888 0.9646784 2170403 female
-0.8361872 0.4259077 0.9442806 -0.6095244 -0.6120838 0.5038188 13948637 female
-0.7034111 0.6210009 0.8877271 0.01924897 0.4882213 0.8725076 16120317 female
-0.8978368 -0.6483624 0.9040855 -0.5918908 0.6376771 0.492984 2302243 female
-0.9044099 0.6072671 0.8353202 -0.6927766 0.6735626 -0.2576315 14015722 female
-0.6975752 0.2671617 0.7737398 -0.06734278 0.1904094 -0.9793922 15201279 female
-0.5532151 0.559098 0.8808395 0.08298562 0.1919436 0.9778911 15724535 female
-0.8974426 0.3574247 0.8338829 0.4667174 -0.4305885 -0.7725079 2763818 female
-0.8252345 -0.410687 0.8645328 0.9870617 -0.08246237 -0.1375104 1776673 female
-0.8739533 0.0346188 0.8049963 -0.5228454 -0.3878866 -0.759063 2631465 female
-0.6532099 0.529071 0.9461898 0.1274347 0.6441407 0.7542169 12765138 female
-0.5912911 -0.5430632 0.7933988 0.9080431 -0.1880779 -0.3742785 1579035 female
-0.5896008 -0.06746846 0.8179367 0.4569178 -0.1438835 -0.8777947 2303275 female
-0.9486499 -0.697993 0.9568825 -0.4364018 0.8984762 0.04789588 15651273 female
-0.7760691 0.2486403 0.7724795 -0.09264579 0.286838 -0.9534887 14278895 female
-0.893437 -0.664668 0.9285946 -0.1708678 0.8668263 0.468419 16443357 female
-0.6062493 -0.1266485 0.8143348 0.3010457 -0.06032014 -0.9517 2171945 female
-0.5907889 -0.3355626 0.8949332 0.5448905 -0.2526297 0.7995452 1777187 female
