# .PCD v0.7 - Point Cloud Data file format
VERSION 0.7
FIELDS x y z normal_x normal_y normal_z rgb label
SIZE 4 4 4 4 4 4 4 4
TYPE F F F F F F U U
COUNT 1 1 1 1 1 1 1 1
WIDTH 170
HEIGHT 1
VIEWPOINT 0 0 0 1 0 0 0
POINTS 170
DATA ascii
-0.9690752 0.1365354 -0.2110661 -0.893678 0.125524 -0.4307939 14079973 female
-0.6679421 0.1671496 -0.2750784 0.590984 0.07801533 -0.8029019 9803174 female
-0.9502885 -0.4254847 -0.1146026 0.325057 -0.2505896 0.9118897 2170913 female
-0.6134316 0.1113376 -0.04882682 -0.976918 0.1434091 -0.1583189 12825516 female
-0.631218 -0.5538471 -0.1996448 0.8842366 -0.1535595 0.4410726 2171937 female
-0.6697634 -0.1795565 -0.08674661 0.1741242 -0.2360437 0.9560147 2171688 female
-0.9053669 0.3521733 -0.2353272 -0.7463021 -0.1627153 -0.6454122 6251625 female
-1.008795 -0.7134474 -0.09579468 0.01857329 -0.9973309 -0.07061279 855565 female
-0.9344667 -0.5392139 -0.1786047 0.9824247 -0.1864206 0.009443341 1776929 female
-1.017731 0.1789009 -0.04989253 0.9289858 -0.3639326 -0.06736673 12238536 female
-1.02079 0.4810096 -0.1902944 -0.9854028 0.09414174 -0.1418402 10133932 female
-0.8930078 0.331499 -0.24621 -0.5935767 -0.0761053 -0.8011708 7566207 female
-0.9874386 -0.4690385 -0.2089715 -0.4087811 -0.03701818 -0.9118814 1973537 female
-0.9695938 0.3763604 -0.1472715 0.6925896 -0.08064988 0.7168092 15133945 female
-0.5758179 0.5369378 -0.2479693 0.8820002 0.2917293 -0.370094 7698310 female
-0.6149364 -0.01169274 -0.1053337 0.8922859 -0.01148012 0.4513247 1973536 female
-0.9999247 0.1302901 0.0919618 -0.7846749 -0.5601879 0.2654709 8876140 female
-0.9368614 0.04207874 -0.03533373 -0.4193628 0.1667615 0.8923706 2500651 female
-0.8880824 -0.2369886 -0.08931541 0.8389221 -0.2948941 0.4574354 2105120 female
-0.659803 -0.590664 -0.1833823 0.08703312 0.09828592 0.9913451 2434601 female
-0.966303 0.4121679 -0.1442196 0.6092899 -0.08431096 0.7884526 11250613 female
-0.9283497 0.4240617 -0.1342706 -0.8652574 -0.3505445 0.3583968 14082023 female
-1.059967 0.2547758 -0.08237275 -0.9166499 0.2566028 0.3064439 11913167 female
-0.6610534 0.3433102 -0.1379968 0.885851 0.1251823 0.4467632 3420469 female
-0.9325381 0.4093744 -0.1641778 -0.9672326 -0.2072765 0.1466204 3553086 female
-0.6010088 0.4289048 -0.1956432 0.2631344 0.007091553 0.9647331 6578796 female
-0.7165318 0.2633282 -0.05377051 0.5678276 0.1660578 0.8062236 14541554 female
-0.7159519 0.2242924 -0.2811592 0.1593625 0.3152601 -0.9355291 11844804 female
-0.7178811 0.878088 -0.2544938 0.82051 0.4240158 -0.3833719 2631463 female
-0.7088636 0.498654 -0.06949446 0.1426914 0.4915347 0.8590883 15593213 female
-0.5491182 0.2535746 -0.2129124 0.8751206 -0.2130386 -0.4344864 13158615 female
-0.616478 -0.4404485 -0.2298784 0.9461679 -0.07835264 -0.3140498 1579553 female
-0.9438855 -0.03864614 -0.2015548 -0.3643858 -0.2296129 -0.9024971 2105896 female
-0.8938576 -0.2012034 -0.1595212 0.5840542 -0.1145309 -0.803594 2171944 female
-0.6305926 -0.6754122 -0.2091689 0.9504544 0.1559729 -0.2689033 13087919 female
-0.8134517 0.828813 -0.3042614 -0.3244898 -0.1160896 -0.9387383 14338761 female
-0.7200506 0.7696074 -0.159568 0.962612 -0.212461 0.1680431 16574163 female
-0.9052193 0.6502727 -0.246816 -0.5167214 0.6903106 -0.5064289 12437462 female
-0.9478269 0.1794252 -0.08998881 -0.7042661 0.1961866 0.6822903 7039086 female
-0.7752258 0.5958291 -0.301221 -0.2365325 0.210301 -0.9485915 14541555 female
-0.662524 -0.1524292 -0.08229675 0.3010677 -0.2340812 0.9244265 1842723 female
-0.7791606 0.3468362 -0.04567014 0.1129985 0.215527 0.9699379 12633296 female
-0.8488209 0.06240207 -0.2778449 0.02228729 -0.4737203 -0.8803933 2566703 female
-0.7450613 0.217137 -0.03088364 0.3517403 -0.01187803 0.9360222 12700887 female
-1.010692 0.5525184 -0.1616093 -0.8402547 0.3570924 0.4079913 7304056 female
-0.9226632 0.4094096 -0.1320256 -0.8822185 -0.2060543 0.423358 13620448 female
-0.7303313 0.2719628 -0.2689619 0.1127442 0.1291091 -0.9852003 15200255 female
-0.7856537 -0.036159 -0.1554131 -0.982329 -0.1864027 0.01684611 3290426 female
-0.6065168 -0.05582427 -0.1587708 0.9929345 -0.1137814 -0.03368668 1908509 female
-0.6312293 0.6115393 -0.2042483 0.2861889 0.8335739 0.4724939 12699337 female
-0.8589655 0.1075995 -0.04690231 0.107573 0.06618144 0.991992 2566703 female
-0.7440534 0.7251514 -0.2344934 0.7946948 -0.1403383 -0.5905635 4866113 female
-0.6490301 0.4481436 -0.2560288 0.844482 -0.3341723 -0.4185438 13619671 female
-0.9597656 -0.3181378 -0.1953612 0.07473835 0.3314221 -0.9405177 2697774 female
-0.9668981 0.524412 -0.2388696 -0.18044 -0.1659851 -0.9694794 7236726 female
-0.8288823 0.7240896 -0.236105 -0.8513371 0.07376253 -0.5194076 5984074 female
-0.9408095 -0.1080059 -0.03256781 -0.2433216 -0.1044747 0.9643027 2171944 female
-0.6333001 0.6024749 -0.1901699 0.2152161 0.6763007 0.7044852 15330803 female
-0.7776413 0.5316819 -0.08552635 0.1284638 0.6640129 0.736603 14146792 female
-0.8916289 -0.04194554 -0.2073898 0.1286208 -0.3003974 -0.9451022 2500651 female
-0.7835906 0.8035176 -0.1038103 -0.8172972 0.4006124 0.4141677 13282465 female
-0.7131202 -0.187231 -0.09844552 -0.547756 -0.2542424 0.7970723 2170401 female
-0.8878846 0.4147818 -0.2670942 -0.5016802 -0.3303859 -0.7994761 2698546 female
-0.9454342 -0.0173711 -0.0309711 -0.4301518 0.04264836 0.9017486 2368809 female
-0.6293638 -0.2630934 -0.1337287 0.8684989 -0.136121 0.476635 2171174 female
-0.9703234 -0.00640746 -0.1943786 -0.6819484 -0.2446974 -0.6892529 2500907 female
-0.7116464 0.3995376 -0.08674803 0.5752565 0.1629128 0.8015855 15724543 female
-0.6589861 0.3328454 -0.139802 0.8977648 0.1555389 0.4120995 13752800 female
-0.9826454 -0.2864688 -0.1768865 -0.3596574 0.3971662 -0.8443373 2303275 female
-0.6427714 -0.1972773 -0.1021081 0.6087142 -0.1760652 0.7736072 2170403 female
-0.756015 0.1445713 -0.0392026 0.374235 -0.2501278 0.8929637 14541297 female
-0.9149598 -0.2590913 -0.1568052 0.3912766 -0.05126614 -0.918844 2631471 female
-1.001777 -0.6924776 -0.1856257 -0.6107489 -0.732168 -0.3015225 1051664 female
-0.884805 -0.2510592 -0.107223 0.9265321 -0.3055497 0.2194938 2038559 female
-0.9454139 0.1105728 -0.2489435 -0.7157441 0.02209423 -0.698013 15595005 female
-1.049315 0.1626461 0.01867805 -0.4620609 0.5619541 0.6860812 8092544 female
-0.9130311 -0.01889141 -0.2159456 -0.1006391 -0.3386825 -0.9355031 2697516 female
-0.9984655 -0.6679956 -0.2067204 -0.9021217 0.2432809 -0.356358 15124160 female
-0.6077926 0.2250008 -0.1584939 -0.8719362 0.1235889 0.4737648 7830410 female
-0.7542338 -0.06278377 -0.09108632 -0.7126974 -0.2639442 0.6499197 1973534 female
-1.047446 0.257622 -0.06656393 -0.441688 0.5423321 0.714694 8025719 female
-0.640121 0.4757219 -0.2359155 0.9212649 -0.3853245 -0.05287604 11777205 female
-1.028386 0.4173944 -0.1619351 -0.9059513 0.2437285 0.3461917 5001303 female
-0.9911384 -0.365783 -0.09734502 -0.463168 -0.1491028 0.8736383 2631464 female
-0.9600197 -0.314241 -0.1939375 0.06933754 0.3437554 -0.9364959 2697516 female
-0.9144289 0.3893633 -0.2350134 -0.8207392 -0.1276341 -0.5568634 6710377 female
-0.7536649 -0.1593735 -0.1608627 -0.9865571 -0.1623612 0.0185481 1775899 female
-0.6018545 0.03271954 -0.1452323 0.9843948 0.01375802 0.1754353 1974307 female
-0.74393 0.824603 -0.2946449 0.576822 -0.1363219 -0.8054146 3420972 female
-0.5892973 0.06206186 -0.02955179 -0.9085345 -0.3114795 -0.2784699 8417899 female
-0.8524918 -0.02193037 -0.2032448 0.4816855 -0.3706424 -0.7941054 2697257 female
-0.8527395 0.1011251 -0.2909239 -0.05304019 -0.1751539 -0.9831113 5263457 female
-0.9740163 -0.1733474 -0.05204259 -0.6591718 -0.0656213 0.7491238 2170657 female
-0.9379587 0.2768294 -0.2018174 -0.8235975 0.4081873 -0.3937898 7698044 female
-0.749157 -0.1972629 -0.1730763 -0.9922552 -0.0829188 -0.0924888 1776155 female
-0.6416821 0.2703959 -0.1806504 0.9610058 0.2697401 -0.06089391 14673128 female
-0.7116488 -0.2770392 -0.2106247 -0.5587933 0.03599095 -0.8285257 2170913 female
-0.7744135 0.4795563 -0.06235629 0.1029355 0.1242091 0.9869024 14013410 female
-0.805921 0.03532653 -0.1863697 0.7690377 -0.5813722 -0.2656829 1645081 female
-0.9421387 0.6357521 -0.1995941 -0.4976726 0.8591097 0.119384 12370114 female
-0.6161033 -0.09151423 -0.118153 0.9345188 -0.1145967 0.3369604 1841953 female
-0.6369485 -0.654214 -0.2315379 0.9119083 -0.01159766 -0.41023 1842207 female
-0.9991037 -0.5704207 -0.1754601 -0.9929219 -0.09927222 -0.06520134 1579291 female
-0.6087233 0.6035502 -0.2313661 0.6264634 0.7718385 -0.108669 9013393 female
-0.9182997 -0.2554989 -0.157842 0.3461378 -0.0508942 -0.9368022 2698289 female
-1.006898 0.212876 -0.09659019 0.8328234 -0.5168971 -0.1980469 14606823 female
-0.571072 0.4848157 -0.2296279 0.9877395 0.02178656 0.1545832 10725291 female
-0.9999152 -0.6241782 -0.1873606 -0.9680737 0.1057977 -0.2272449 2105120 female
-0.7502502 -0.179524 -0.1792344 -0.9697972 -0.09126712 -0.2261938 1907741 female
-0.6968912 0.02096561 -0.05394991 0.04749405 0.02561809 0.998543 2237481 female
-0.7445439 0.4417062 -0.3067429 0.008545084 -0.2689763 -0.9631089 12237251 female
-0.7663495 0.7455225 -0.1083016 0.482859 -0.08415285 0.8716453 16246750 female
-0.6894572 0.1499239 -0.2899995 0.4410553 0.06060376 -0.8954315 12106953 female
-0.9930111 -0.7025316 -0.1443313 0.06319468 -0.9897392 -0.1281515 723979 female
-0.7449637 0.6451759 -0.1770665 0.596861 0.3122728 0.7390823 13751003 female
-0.6075057 0.5724233 -0.2689676 0.5898222 0.3776064 -0.7138089 5922155 female
-0.8931486 -0.04393067 -0.2070585 0.1202031 -0.2955672 -0.9477295 2500652 female
-0.6713848 0.5605223 -0.3076157 0.3689162 0.01336206 -0.9293666 11383490 female
-0.8016243 0.7528504 -0.1133291 -0.4316698 -0.004078132 0.9020225 14864572 female
-0.8740463 0.006125723 -0.03283536 0.3384079 -0.0278759 0.9405866 2171171 female
-0.6506597 -0.5305713 -0.2562363 0.4128486 -0.1293388 -0.9015694 2697264 female
-0.8771122 0.5184034 -0.06852243 -0.2856291 0.598549 0.7484351 15133430 female
-0.8905367 -0.245786 -0.1433045 0.7935044 -0.2259282 -0.5650728 2105124 female
-0.7389016 0.3122978 -0.05037402 0.4200189 0.1457172 0.8957402 13225949 female
-0.612945 0.1126332 -0.02163351 -0.3983406 0.8604778 0.3176519 16774119 female
-0.962152 0.5835875 -0.1353637 -0.1349802 0.31638 0.9389803 12303555 female
-0.7365423 0.2913456 -0.04816443 0.4176281 0.159718 0.8944702 11053494 female
-0.6495796 0.5251694 -0.1572386 0.8088188 -0.06967431 0.5839158 14606311 female
-0.9831407 -0.7156424 -0.0558381 -0.05659584 -0.9971731 0.04942433 526089 female
-0.7314195 0.4523937 -0.3098049 0.05901348 -0.2756371 -0.9594486 15725567 female
-0.7629005 0.5451751 -0.1028949 0.01261932 0.6362621 0.7713698 12237769 female
-0.6946446 0.5488682 -0.1197235 0.3447677 0.620298 0.7045322 15724543 female
-0.7688102 -0.01781951 -0.2188827 -0.6893789 -0.2933033 -0.6623669 2302243 female
-0.789615 0.5057048 -0.3118412 -0.2692081 0.1672257 -0.9484528 13618138 female
-0.6680415 -0.3129534 -0.2474847 -0.06089784 0.3325204 -0.9411278 2237738 female
-0.7394448 0.7187452 -0.190978 0.9278954 -0.244939 0.2810961 12429467 female
-0.6564132 -0.4275367 -0.1608313 0.04562459 -0.195597 0.9796224 2171431 female
-0.7328337 0.2706418 -0.04563539 0.4411752 0.1746929 0.8802538 4539471 female
-0.6661066 0.5992509 -0.1777993 0.3127806 0.5732334 0.7573452 11646908 female
-0.791642 0.0116812 -0.1377955 -0.9889009 -0.06769074 0.1322612 2169889 female
-0.7135184 0.03752002 -0.2786458 0.09666687 -0.5567647 -0.8250265 2171945 female
-0.6011468 0.008832232 -0.1698928 0.995423 -0.06185867 -0.07284654 1776161 female
-0.6144173 0.2317465 -0.2057063 -0.8423523 -0.4253288 -0.3309654 13553880 female
-0.704562 0.8624561 -0.2123891 0.9848498 0.1729748 0.0122745 2368292 female
-0.6252524 0.4801753 -0.2899106 -0.001105145 -0.04864236 -0.9988157 14605287 female
-0.9180343 0.301286 -0.102391 -0.7707047 0.2375623 0.5912516 14146793 female
-0.956481 -0.3078667 -0.07588896 0.03300405 -0.4259102 0.9041633 1776669 female
-1.031503 -0.6895989 -0.08789776 -0.4534639 0.8903961 0.03956265 16243156 female
-0.6115516 0.03441698 -0.1171474 0.915995 0.05111692 0.3979197 1973537 female
-0.5595239 0.03259371 -0.07068451 0.925139 -0.08944928 -0.3689401 16772326 female
-0.586848 0.5718839 -0.2429169 0.7570729 0.5318727 -0.3794101 14081007 female
-0.943462 -0.5873957 -0.1823503 0.9923727 -0.09347354 -0.08036886 1973022 female
-0.6557998 -0.5211891 -0.1793837 0.1061554 -0.1448932 0.9837362 2499878 female
-0.9125333 0.409437 -0.1169783 -0.8015122 -0.2568384 0.5400113 14343396 female
-0.7788532 0.6197314 -0.1498723 0.1088102 0.5569261 0.8234037 11974596 female
-0.9862655 -0.6416196 -0.1264853 -0.5986844 0.6373909 0.4850875 2302243 female
-0.9707699 0.6135517 -0.2043778 -0.7057181 0.6623882 -0.2514037 11711421 female
-0.7720366 0.2725843 -0.2683857 -0.1216562 0.2042047 -0.9713393 15201279 female
-0.6053863 0.5794458 -0.1880541 0.4667908 0.3877105 0.7948503 9802653 female
-0.9945289 0.395178 -0.2216259 -0.1617038 -0.2006504 -0.9662253 12897242 female
-0.9124016 -0.4358536 -0.1636402 0.9815394 -0.1911974 0.004895004 1842720 female
-0.9115673 0.008463455 -0.2274457 -0.1440753 -0.4908119 -0.8592706 2895412 female
-0.7360418 0.5341973 -0.09367621 0.09366708 0.6510202 0.7532591 15659774 female
-0.6340725 -0.5873924 -0.2202135 0.9756945 -0.1250826 -0.1799291 1578779 female
-0.6832199 -0.09237177 -0.2357712 0.076095 -0.06701251 -0.9948461 2106409 female
-1.035597 -0.6920059 -0.0731758 -0.3370036 0.9345756 0.1140048 15518401 female
-0.8863863 0.3507348 -0.2524574 -0.546397 -0.1836286 -0.817148 10330288 female
-1.004062 -0.6827426 -0.07295317 -0.2865995 0.9100178 0.2995466 16506325 female
-0.6703991 -0.1282229 -0.2326722 0.2028226 -0.07139711 -0.9766092 2171688 female
-0.6323438 -0.3184271 -0.1495246 0.7056974 -0.1559547 0.6911363 2040353 female
