# .PCD v0.7 - Point Cloud Data file format
VERSION 0.7
FIELDS x y z normal_x normal_y normal_z rgb label
SIZE 4 4 4 4 4 4 4 4
TYPE F F F F F F U U
COUNT 1 1 1 1 1 1 1 1
WIDTH 170
HEIGHT 1
VIEWPOINT 0 0 0 1 0 0 0
POINTS 170
DATA ascii
-0.9349742 0.134439 0.3993559 -0.7903492 0.07367814 -0.6082101 11975365 female
-0.6138359 0.09180702 0.4052789 0.8517895 -0.01661154 -0.5236208 3818306 female
-0.8974406 -0.4756323 0.3702296 -0.1055952 -0.7504803 0.6524025 2171174 female
-0.6017831 0.2240461 0.7675027 -0.1495844 0.558982 0.8155758 7759453 female
-0.6023501 -0.4557433 0.6486155 0.9744506 -0.1524819 -0.1649101 1580065 female
-0.6122442 -0.1890039 0.6462173 0.8800721 0.07889101 0.4682407 1973534 female
-0.9186886 0.2622989 0.4544334 -0.9707838 0.2148945 -0.1067668 12962771 female
-0.9139931 -0.7021119 0.2746261 -0.0341011 -0.9135004 -0.4054063 789516 female
-0.852936 -0.2250801 0.5727749 0.3757418 -0.2859714 0.8814979 2039072 female
-0.9306669 0.2452472 0.5306056 0.6779729 -0.5953742 -0.4311408 3487029 female
-0.8941812 0.4578672 0.4897067 0.8840771 -0.2882676 0.3678443 7895686 female
-0.9163414 0.2530966 0.4351206 -0.9197614 0.2236643 -0.3225111 5460053 female
-0.9210121 -0.434029 0.2984826 -0.7095962 0.3009717 -0.6370944 2170401 female
-0.9824826 0.4112867 0.4910731 -0.9546663 0.1991118 0.2212846 9212317 female
-0.5346537 0.4543099 0.3986328 0.9542293 0.09574716 -0.2833354 10790320 female
-0.6704759 0.08504386 0.5732508 0.20687 0.5386285 0.8167521 2500910 female
-0.8516392 0.1691005 0.7886875 0.9680598 0.08690356 -0.2351767 8088426 female
-0.9092591 -0.02566825 0.6002452 -0.4351217 0.002581069 0.9003679 2500651 female
-0.8155844 -0.298739 0.4909174 0.9771284 -0.2077921 0.0451934 2169889 female
-0.6576787 -0.5207618 0.719022 -0.1983642 0.1995673 0.959596 2040358 female
-0.9652126 0.3723087 0.5272142 -0.3171388 0.3030178 0.8986675 6972011 female
-0.9062952 0.3735961 0.4692419 -0.9715982 -0.1509308 0.1822549 3948100 female
-0.9609022 0.2589716 0.6256068 -0.6640096 0.4358047 0.6075899 5395802 female
-0.6477129 0.2906452 0.4967292 0.8575758 0.06257572 0.510537 9671578 female
-0.9126121 0.401737 0.4678477 -0.9756467 -0.1652115 0.144287 15197934 female
-0.5964559 0.3695158 0.4697707 -0.5609978 0.1399547 0.8159008 15067637 female
-0.7010582 0.2096306 0.5782166 0.5562255 0.1955037 0.8077075 8948116 female
-0.6983854 0.1691637 0.3519163 0.1708556 0.2435836 -0.9547122 11844804 female
-0.6553996 0.8233722 0.3698858 0.8047687 0.365745 -0.4675232 2631463 female
-0.7469941 0.3666404 0.5584916 0.1954224 0.0926911 0.9763291 6052709 female
-0.5239522 0.2312603 0.5437998 0.9430192 -0.3323776 -0.01548824 6117218 female
-0.6163037 -0.465486 0.6247405 0.7325956 -0.2924106 -0.6146541 2039329 female
-0.9282521 -0.1107772 0.4410978 -0.6209279 -0.1476982 -0.7698271 2171429 female
-0.8196737 -0.1977049 0.4609427 0.8061007 -0.01197169 -0.5916573 2236965 female
-0.6118288 -0.6852233 0.7577603 0.8869367 0.1193863 -0.4461951 12493981 female
-0.7667712 0.8166001 0.3420093 -0.6186474 0.3317141 -0.7122086 9473672 female
-0.6405306 0.759583 0.4014536 -0.02772797 0.9738283 0.2255873 7562595 female
-0.8016716 0.6271235 0.380043 -0.3286115 0.6877244 -0.6473405 16702671 female
-0.8993067 0.1043968 0.5821595 -0.3931352 0.1460743 0.9078034 14871290 female
-0.7565975 0.5344114 0.3316172 -0.2431585 0.1881402 -0.9515656 14673143 female
-0.7319536 -0.1574609 0.6280263 -0.8856044 -0.02219467 0.4639098 1907229 female
-0.7444602 0.3051034 0.5770143 0.2154186 0.2314315 0.9487014 16120319 female
-0.8827917 0.006914782 0.3742682 -0.271791 -0.4417422 -0.8549815 2435117 female
-0.7261235 0.1974694 0.595977 0.3678719 0.1905489 0.9101436 12502226 female
-0.9502093 0.5096492 0.4179589 -0.5558251 -0.004981827 -0.8312843 12698319 female
-0.8886619 0.4043037 0.5391109 -0.8238837 -0.3268922 0.4629872 13159638 female
-0.6862547 0.2349061 0.3645606 0.3638011 -0.06349865 -0.9293098 13488354 female
-0.7613959 -0.09759314 0.5406384 -0.9598386 -0.2775739 -0.04077469 2171431 female
-0.6151062 -0.1379255 0.5204397 0.7481313 -0.355172 -0.5604931 2368292 female
-0.562328 0.5319395 0.3888224 0.707557 0.6102137 -0.3563737 10067885 female
-0.8553267 0.1174403 0.5939351 -0.3419226 -0.1381995 0.9295105 15200247 female
-0.6735767 0.7032467 0.3959241 0.7838969 -0.4293346 -0.4485281 3551790 female
-0.6120549 0.3934157 0.3974489 0.9358234 -0.326816 -0.1320069 14605278 female
-0.9140181 -0.3302839 0.3733928 -0.3817537 0.6912194 -0.6135795 2434089 female
-0.9695184 0.4628483 0.4429674 -0.8386059 0.03288813 -0.5437449 9540765 female
-0.7796087 0.6688041 0.4075077 -0.8981603 0.2701346 -0.346894 11573647 female
-0.842216 -0.4494431 0.3487063 0.9001851 -0.3733667 0.2241964 1382683 female
-0.5870095 0.5394105 0.4424927 0.2629961 0.6111838 0.7465169 9211284 female
-0.8325337 0.4266452 0.5885397 -0.1753401 0.01399443 0.9844085 7958910 female
-0.9251349 -0.01052072 0.4123039 -0.5412937 -0.3878743 -0.7460259 2434087 female
-0.6907194 0.7634786 0.5165955 0.8957362 0.3362801 0.2908134 14796215 female
-0.7251404 -0.1902268 0.6395761 -0.8716492 -0.01747548 0.4898187 1776670 female
-0.8153116 0.2660291 0.3692127 0.02618327 -0.1620079 -0.986442 11316156 female
-0.9082951 -0.08686392 0.5969234 -0.4250016 -0.1322848 0.8954744 2368809 female
-0.6605315 -0.2269369 0.6939017 0.01651424 0.1219136 0.9924033 2565930 female
-0.9584813 -0.09363523 0.4886452 -0.9614527 -0.2049993 -0.1832596 1908257 female
-0.6696705 0.3386872 0.5236694 0.7166651 0.002202456 0.697414 15593213 female
-0.6338663 0.2852809 0.4193592 0.9620624 -0.113454 -0.2481212 14935534 female
-0.9054241 -0.4243111 0.4298132 -0.2152222 -0.7078068 0.6728216 2302507 female
-0.6035458 -0.2129136 0.6257765 0.9903383 0.01490119 0.1378697 2040353 female
-0.7359037 0.1363537 0.5974624 0.3531478 -0.1065485 0.9294806 15133177 female
-0.8482407 -0.2590432 0.452834 0.2726648 0.218627 -0.9369398 2500651 female
-0.8925007 -0.5979968 0.1542476 -0.3350056 0.1323958 -0.9328679 855820 female
-0.8171929 -0.2654966 0.5239446 0.9226553 -0.2192198 0.3172536 1841436 female
-0.9325885 0.07510263 0.3964828 -0.7606873 0.010759 -0.6490293 14410227 female
-0.8674638 0.1314403 0.812929 -0.7613929 -0.6463837 0.0496885 14400434 female
-0.9555604 0.008885089 0.4385763 -0.8446918 -0.151045 -0.513499 2697257 female
-0.8919116 -0.576894 0.1660764 -0.3957658 0.6778718 -0.6195638 15452355 female
-0.5904106 0.2272767 0.6151577 -0.960792 0.2588359 0.09941194 9341591 female
-0.7595901 -0.06372283 0.5839688 -0.9158853 -0.08571711 0.392182 2039585 female
-0.8983201 0.2172103 0.7014246 0.5502823 0.8188438 0.1633528 15727615 female
-0.6392878 0.4118247 0.3339832 0.5624082 -0.3884313 -0.729944 13028310 female
-0.976292 0.3903065 0.4539045 -0.8151538 -0.03599603 -0.578125 14082039 female
-0.9416615 -0.3580358 0.4401439 -0.9621106 -0.1102517 0.2493748 2171937 female
-0.921715 -0.3333233 0.3744118 -0.5180125 0.63678 -0.5711167 2433833 female
-0.9024485 0.3130817 0.4244592 -0.9365447 -0.02995496 -0.349266 11054004 female
-0.7349727 -0.2148099 0.6053402 -0.9962574 -0.08519465 0.01459968 1579290 female
-0.5985916 0.05603319 0.4321598 0.919472 0.032778 -0.3917867 14080224 female
-0.6890357 0.8013884 0.3318132 0.4312439 0.121571 -0.8940074 3946036 female
-0.6017148 0.2105145 0.7753971 -0.9451884 0.1995738 0.2584361 7167065 female
-0.8406296 -0.05469413 0.4204377 0.3210484 -0.285626 -0.902965 2698032 female
-0.8424781 0.1372748 0.352151 -0.1451803 0.2099285 -0.9668778 13094617 female
-0.9299748 -0.250202 0.5350118 -0.9063147 -0.2071393 0.3683572 2170401 female
-0.913119 0.2241022 0.4110087 -0.719296 0.3664824 -0.5901727 3090992 female
-0.7295783 -0.2051092 0.5703594 -0.8775046 -0.2650945 -0.399638 2170913 female
-0.6430671 0.2450803 0.3984426 0.8305069 -0.01620992 -0.5567724 13620190 female
-0.7173589 -0.2428 0.5746135 -0.677204 -0.3101175 -0.6672495 2171945 female
-0.7655652 0.3851655 0.5640603 0.148151 -0.2641356 0.9530392 8749709 female
-0.7843618 -0.04674499 0.4920985 0.987186 -0.07916583 -0.1385518 3158582 female
-0.8576408 0.5827906 0.4822508 0.1698432 0.6595302 0.7322385 14737381 female
-0.6030438 -0.1567919 0.6160744 0.9678838 0.007216488 0.2512941 1841948 female
-0.6224343 -0.6654029 0.7292486 0.947799 -0.0619427 -0.3127941 2105376 female
-0.8659883 -0.4289305 0.4084441 0.486743 -0.6494592 0.5841951 2170913 female
-0.6260008 0.5478395 0.4442548 0.2885232 0.6324905 0.7188256 10857135 female
-0.8492882 -0.2540506 0.4519311 0.2559633 0.1987736 -0.9460295 2499881 female
-0.9242458 0.2515277 0.5360407 0.8797253 -0.3591253 -0.3116285 11317945 female
-0.5912244 0.4781527 0.4529571 -0.06139673 -0.0253358 0.9977918 7565947 female
-0.9093421 -0.5919138 0.2304441 -0.9686603 0.02134915 0.2474701 1579552 female
-0.7312314 -0.2357373 0.5953739 -0.9459789 -0.1614511 -0.2811716 1973534 female
-0.7249891 0.02732363 0.6033808 -0.3992847 0.3813325 0.8337609 2368293 female
-0.699484 0.4169288 0.3115892 0.01595752 -0.2428236 -0.9699392 15658230 female
-0.7187867 0.7699969 0.5099005 0.05435485 0.4623756 0.8850166 11641240 female
-0.7103779 0.1655491 0.3498523 0.1021869 0.2396017 -0.9654785 14608375 female
-0.89128 -0.6400402 0.1946842 -0.0209724 -0.8473784 -0.5305752 723209 female
-0.7645586 0.5693105 0.490222 0.1271854 0.5097885 0.8508463 12434117 female
-0.5719349 0.4530968 0.3535317 0.2875616 -0.2256405 -0.9308033 10986932 female
-0.8870329 -0.03830219 0.4108459 -0.1088469 -0.4354893 -0.893589 2632496 female
-0.621064 0.5005166 0.3263268 0.4270267 -0.0237642 -0.9039267 8354441 female
-0.7056091 0.6658471 0.5055814 0.2360118 -0.8968365 0.3741428 14141622 female
-0.8424423 -0.05180788 0.5983311 0.3445287 -0.08869651 0.9345763 2171171 female
-0.6721011 -0.6024234 0.6728151 -0.5017971 -0.299592 -0.8114458 2631724 female
-0.7477031 0.4787664 0.544365 0.2735527 0.6220691 0.7336205 14607343 female
-0.893687 -0.2276694 0.4472304 -0.2555005 0.05942239 -0.9649811 2828848 female
-0.7140951 0.2811735 0.5710687 0.4747981 0.140596 0.868792 14343914 female
-0.5764807 0.1151366 0.8144869 0.972933 -0.1024691 0.2071266 16774127 female
-0.9158698 0.4825407 0.5151789 0.3077004 -0.032185 0.9509388 9605524 female
-0.7435777 0.2257816 0.5922518 0.2273885 0.2358011 0.944824 12107462 female
-0.6083161 0.4354622 0.4598946 0.9768149 -0.1192057 0.1778274 14802917 female
-0.8705303 -0.7211426 0.3312041 -0.1981163 -0.9166887 -0.3470328 722955 female
-0.6746826 0.3927659 0.3222586 0.2726319 -0.3416062 -0.8994315 14605030 female
-0.7683713 0.470421 0.5573898 0.2983022 0.5266672 0.7960134 15987707 female
-0.6474411 0.3870931 0.5497083 0.4683818 -0.4401098 0.7661083 14082031 female
-0.7319853 -0.1067168 0.4828469 -0.54261 -0.5233851 -0.656995 2237481 female
-0.7428385 0.4597439 0.3117459 -0.3023212 0.1187662 -0.9457783 15265020 female
-0.6093086 -0.498868 0.692318 0.9279204 -0.02447806 0.3719739 2170913 female
-0.6838559 0.6503765 0.4352892 0.9379864 -0.1915292 0.2889604 14993595 female
-0.6335874 -0.4084337 0.6995353 0.2732556 0.1593838 0.9486454 2171945 female
-0.7335632 0.2153435 0.5927995 0.3200418 0.2273191 0.9197278 12041417 female
-0.6120898 0.4436311 0.4038744 0.5720351 -0.7085676 0.413168 15198191 female
-0.7625261 -0.07336084 0.5740231 -0.9517974 -0.1360178 0.2749198 1579032 female
-0.7280022 0.01305779 0.3520416 -0.02583137 -0.402941 -0.9148614 3158072 female
-0.6041808 -0.18529 0.5761222 0.9548837 -0.1904678 -0.2278575 2170145 female
-0.5953966 0.2318938 0.4917884 -0.883119 -0.4523773 -0.1243207 13619677 female
-0.6388789 0.8069008 0.4104312 0.990319 0.1073529 -0.08799803 2368292 female
-0.6139622 0.3434114 0.4308317 -0.9773147 -0.2100164 0.02736977 10395565 female
-0.9232891 0.2335564 0.5031197 -0.8492066 0.4128003 0.3293085 15199481 female
-0.9117481 -0.3550885 0.4997002 -0.6238558 -0.5498629 0.5553869 2106144 female
-0.924359 -0.6655906 0.2559892 -0.945022 0.3108205 0.1016072 13415597 female
-0.5875501 0.03399317 0.5088234 0.9708049 0.1550024 0.1830627 1908257 female
-0.5669127 0.1790231 0.7808313 0.9214349 -0.03238107 0.3871809 14069925 female
-0.5802287 0.4819042 0.3454936 0.4527728 -0.05290612 -0.8900549 13882587 female
-0.8576206 -0.5299209 0.2413507 0.9501294 0.1136548 -0.2904075 1907745 female
-0.6289278 -0.5062461 0.7138163 0.4975327 0.1397192 0.856119 2368550 female
-0.8876415 0.3739377 0.5127182 -0.8132253 -0.2830611 0.5084693 6118495 female
-0.810886 0.5042064 0.5409398 0.04639464 0.6346387 0.7714151 11710135 female
-0.8900194 -0.6563598 0.283406 -0.4567448 0.5522317 0.6974413 14136488 female
-0.9027017 0.598666 0.4440969 -0.4674635 0.8803842 0.08000996 11252148 female
-0.7446586 0.2863228 0.3497587 -0.2292855 -0.2601453 -0.9379513 14408171 female
-0.5492817 0.5124629 0.3893373 0.7654982 0.486615 -0.4209731 14146799 female
-0.9764757 0.3147815 0.4641519 -0.5372508 -0.3265209 -0.777654 14080485 female
-0.8399199 -0.4417956 0.3284126 0.9852455 -0.07063013 -0.155893 1776670 female
-0.9630406 0.0403997 0.4429004 -0.9207233 0.008644172 -0.3901204 2500908 female
-0.8212647 0.4019227 0.5830191 -0.006485463 -0.4516548 0.8921692 14278896 female
-0.6269317 -0.5403915 0.6542895 0.6944862 -0.3866144 -0.6068099 2171425 female
-0.6418505 -0.1094728 0.478184 0.3736327 -0.5224517 -0.7664481 2697257 female
-0.906743 -0.6362268 0.2561366 -0.7644907 0.4068268 0.500046 13612718 female
-0.8477542 0.1846791 0.3635164 -0.1737337 0.2519892 -0.9520074 15003900 female
-0.9081709 -0.5771258 0.2378554 -0.9608234 -0.1232197 0.2482645 1841948 female
-0.6056499 -0.09373552 0.4977655 0.7851993 -0.4024189 -0.4706602 2368809 female
-0.6839874 -0.2947769 0.6810837 -0.5298048 -0.06824625 0.8453693 2171688 female
