# .PCD v0.7 - Point Cloud Data file format
VERSION 0.7
FIELDS x y z normal_x normal_y normal_z rgb label
SIZE 4 4 4 4 4 4 4 4
TYPE F F F F F F U U
COUNT 1 1 1 1 1 1 1 1
WIDTH 170
HEIGHT 1
VIEWPOINT 0 0 0 1 0 0 0
POINTS 170
DATA ascii
-0.9604194 0.1379347 -0.2011439 -0.8864499 0.1246472 -0.4457236 14079973 female
-0.6579801 0.168619 -0.2598826 0.604961 0.07739889 -0.7924844 9803174 female
-0.9378213 -0.4253587 -0.1064638 0.3173679 -0.2451661 0.9160629 2170913 female
-0.6112497 0.1179128 -0.04040293 -0.903482 0.3330045 -0.2698672 12890545 female
-0.6548715 -0.3171394 -0.2403089 0.1147114 0.3301007 -0.9369497 2237738 female
-0.6665949 -0.1799117 -0.07596111 0.1544214 -0.2528027 0.9551151 2171688 female
-0.8913156 0.3654939 -0.2345256 -0.6634803 -0.2441803 -0.7072269 12172489 female
-0.9927851 -0.7134431 -0.0886937 0.03188037 -0.9964951 -0.07733777 789772 female
-0.9203838 -0.5391622 -0.1698915 0.9837125 -0.1785451 0.02077024 1776929 female
-1.005761 0.1848894 -0.03772629 0.9354179 -0.3504969 -0.04631645 12238536 female
-1.011524 0.4820887 -0.1856953 -0.9830961 0.08043505 -0.1644756 10133932 female
-0.9419023 0.2622198 -0.118937 -0.8592091 0.4120258 0.3033059 13753065 female
-0.9736015 -0.4695075 -0.2010718 -0.3987172 -0.04319581 -0.916056 1973537 female
-0.9601031 0.3787217 -0.1400724 0.6783866 -0.06046188 0.7322131 15133945 female
-0.5662133 0.5373991 -0.2320531 0.8957683 0.2800623 -0.3452016 7698310 female
-0.6092317 -0.01236286 -0.0907931 0.884165 -0.02893776 0.4662777 1973536 female
-0.9884387 0.141812 0.1059501 -0.7771409 -0.5640556 0.279094 8876140 female
-0.9300448 0.04199481 -0.02515198 -0.4326877 0.1557283 0.8879921 2500651 female
-0.8774497 -0.2361945 -0.08090422 0.8363132 -0.2882517 0.4663593 2105120 female
-0.6594515 -0.5896137 -0.1778877 0.07057343 0.0865387 0.9937457 2434601 female
-0.9698772 0.4193914 -0.1306786 0.2685584 0.03165102 0.9627433 13288397 female
-0.920653 0.4313985 -0.1181421 -0.8649443 -0.3422036 0.3671075 10987703 female
-1.05165 0.2250852 -0.06577802 -0.9949712 -0.08206487 -0.05742435 5397866 female
-0.6539122 0.3455951 -0.1230193 0.8755147 0.1324596 0.4646811 3420469 female
-0.9240301 0.3823441 -0.1697478 -0.9981104 -0.04143994 -0.04537047 15001836 female
-0.5941294 0.430183 -0.1792124 0.2312056 0.01706765 0.9727552 6578796 female
-0.7108029 0.2657102 -0.03935234 0.5517265 0.1716658 0.816167 14541554 female
-0.6855119 0.2264604 -0.2604963 0.3336361 0.3173132 -0.8876932 6514804 female
-0.7079461 0.8786742 -0.2477423 0.8312224 0.4193456 -0.3649913 2631463 female
-0.7037434 0.5017025 -0.05744052 0.1203176 0.5027543 0.856015 15593213 female
-0.542223 0.2578686 -0.193125 0.9135759 -0.1796593 -0.3648308 9013397 female
-0.6137453 -0.4393705 -0.2217008 0.9508722 -0.08463488 -0.2977901 1579553 female
-0.934158 -0.03753014 -0.1918878 -0.3500736 -0.2267987 -0.9088514 2105896 female
-0.8827721 -0.2000474 -0.1508659 0.5947642 -0.104234 -0.7971141 2171944 female
-0.6305571 -0.6743021 -0.2040865 0.9561116 0.1497474 -0.251846 13087919 female
-0.8019314 0.8284604 -0.2995817 -0.2959202 -0.1317977 -0.9460764 14338761 female
-0.7125338 0.7797096 -0.1429955 0.936868 -0.1982159 0.2880777 16770774 female
-0.8899038 0.6581756 -0.234777 -0.5069019 0.7760049 -0.3753225 11582152 female
-0.9236764 0.1671394 -0.06203408 -0.5280389 0.1929256 0.8270155 3552582 female
-0.756497 0.586514 -0.2958541 -0.230628 0.2023309 -0.9517735 14739705 female
-0.659077 -0.1529647 -0.07095058 0.2820545 -0.2520412 0.9256999 1842723 female
-0.7818484 0.3528838 -0.03351037 0.04490266 0.2373058 0.9703967 15067640 female
-0.8207512 0.07430958 -0.2689312 0.03161601 -0.4376615 -0.8985838 2435119 female
-0.7395809 0.219042 -0.01700976 0.3344455 -0.009160122 0.9423706 12700887 female
-1.00281 0.554361 -0.1580266 -0.8516712 0.3565257 0.3841166 7304056 female
-0.9157861 0.4114287 -0.1239612 -0.8917508 -0.2013299 0.4052738 13620448 female
-0.7203959 0.2730316 -0.254885 0.1315581 0.1243482 -0.9834785 15200255 female
-0.7793095 -0.03397076 -0.1440913 -0.9845274 -0.1752059 -0.002939485 3290426 female
-0.6005116 -0.05585148 -0.1448398 0.9918848 -0.1257378 -0.0188301 1908509 female
-0.6322473 0.6148731 -0.1894862 0.1891084 0.8223116 0.536695 13422293 female
-0.8561797 0.1412725 -0.03681835 -0.2329821 -0.08077367 0.9691207 15133438 female
-0.7345621 0.7260402 -0.2261373 0.8115545 -0.1477853 -0.5652776 4866113 female
-0.6391541 0.4487867 -0.2416762 0.8549729 -0.3391557 -0.3924217 13619671 female
-0.9473014 -0.3182752 -0.1877139 0.08218531 0.329845 -0.9404509 2697774 female
-0.9636345 0.531435 -0.2332935 -0.2243026 -0.129592 -0.9658645 9804198 female
-0.8232226 0.7162266 -0.2252676 -0.8551038 0.1687905 -0.4902115 10981510 female
-0.9323238 -0.1082085 -0.02367354 -0.2543161 -0.1149877 0.960261 2171944 female
-0.6251779 0.6039522 -0.1769735 0.1938333 0.6846062 0.7026685 15330803 female
-0.7586856 0.5356867 -0.07886311 0.0563217 0.6779079 0.7329862 14278121 female
-0.8818324 -0.0402641 -0.1970248 0.1441525 -0.2926183 -0.9453014 2500651 female
-0.7817886 0.7926276 -0.1009063 -0.7821175 -0.2881338 0.5525134 13805473 female
-0.7098705 -0.1868231 -0.08855005 -0.5647076 -0.2594826 0.7834373 2170401 female
-0.8778083 0.4151095 -0.2582652 -0.4818604 -0.3416419 -0.8069024 2698546 female
-0.9379682 -0.01764304 -0.02139364 -0.4420624 0.03074719 0.8964571 2368809 female
-0.6264842 -0.2631289 -0.1235582 0.8586069 -0.1531828 0.4892128 2171174 female
-0.961069 -0.005566569 -0.1848823 -0.6702988 -0.2465968 -0.6999211 2500907 female
-0.7058322 0.4024394 -0.07360356 0.5564107 0.1740057 0.8124833 15724543 female
-0.651769 0.3350885 -0.1246641 0.8882843 0.1620356 0.4297622 13752800 female
-0.9881735 -0.3671836 -0.09871139 -0.6723864 -0.115026 0.7312083 2565671 female
-0.639576 -0.1977308 -0.0911497 0.5932268 -0.1953968 0.7809622 2170403 female
-0.7502282 0.1459713 -0.02551655 0.3579841 -0.2522958 0.8989962 14541297 female
-0.9163027 -0.2172033 -0.1568265 0.130039 -0.06006829 -0.9896877 2565419 female
-0.9847665 -0.6958547 -0.1697798 -0.3710451 -0.8925747 -0.2561952 789260 female
-0.8738498 -0.2502072 -0.09882844 0.9268092 -0.2974367 0.2292512 2038559 female
-0.9545723 0.08992618 -0.2188526 -0.7996315 -0.01163239 -0.6003783 2565935 female
-1.021685 0.1131904 0.03143194 0.9546723 -0.2937424 0.04812617 6642776 female
-0.9034027 -0.01733775 -0.2057141 -0.08475981 -0.3335656 -0.9389088 2697516 female
-0.983279 -0.6507411 -0.184929 -0.9275153 0.1448942 -0.3445593 9008758 female
-0.6040076 0.2261941 -0.1403166 -0.8850541 0.1345587 0.4456155 7830410 female
-0.7494656 -0.06196976 -0.07983857 -0.726923 -0.2648571 0.6335878 1973534 female
-1.039949 0.2522995 -0.05181959 -0.5964624 0.5164734 0.6144003 13424860 female
-0.6303693 0.483671 -0.1858857 0.9718958 -0.1874639 0.1423935 14079966 female
-1.012658 0.3895926 -0.1368006 -0.5702203 0.2640739 0.7778907 14016221 female
-0.9793392 -0.3659509 -0.08984458 -0.4713616 -0.1504572 0.8690115 2631464 female
-0.9476013 -0.3143719 -0.1863077 0.07664867 0.3421909 -0.936499 2697516 female
-0.9080424 0.3776589 -0.2200439 -0.8261436 -0.1947608 -0.5287297 10066337 female
-0.7489854 -0.1574577 -0.1511581 -0.9886971 -0.1499263 -0.00044905 1775899 female
-0.5948869 0.03274076 -0.1297181 0.9812698 0.001176079 0.1926347 1974307 female
-0.7327079 0.8245144 -0.2878159 0.6008012 -0.148025 -0.785574 3420972 female
-0.5910418 0.06441411 -0.01120631 -0.8944888 -0.3099293 -0.3222325 8089191 female
-0.8450245 -0.04598945 -0.1811854 0.5633416 -0.3250203 -0.7596104 2498854 female
-0.8425306 0.1026722 -0.2790258 -0.03524188 -0.1748794 -0.9839589 5263457 female
-0.9645277 -0.1736424 -0.04421414 -0.6674992 -0.07764255 0.7405514 2170657 female
-0.9293307 0.2781816 -0.1917271 -0.816022 0.4059101 -0.4115157 7698044 female
-0.746531 -0.1749923 -0.1583503 -0.99233 -0.1080138 -0.06011883 1710363 female
-0.6334602 0.2720075 -0.1648275 0.961816 0.2702007 -0.04360645 14673128 female
-0.7075403 -0.2751553 -0.2020558 -0.5440603 0.05287014 -0.8373787 2170913 female
-0.7693871 0.4826741 -0.05174707 0.078655 0.1373766 0.987391 14013410 female
-0.7974364 0.03875546 -0.1817324 0.4788272 -0.8276889 -0.2926696 1315860 female
-0.9319439 0.6310692 -0.1703049 -0.1798867 0.8994477 0.3982897 12894660 female
-0.61128 -0.09210565 -0.1050363 0.9271737 -0.1317862 0.3506869 1841953 female
-0.6363956 -0.6528562 -0.2263689 0.9186043 -0.01627213 -0.3948436 1842207 female
-0.9356381 -0.4045679 -0.101468 0.3263617 -0.2475362 0.9122576 2170913 female
-0.5882461 0.595106 -0.2137073 0.689337 0.7220138 -0.05924942 10132378 female
-0.9158811 -0.2230721 -0.1559856 0.1493799 -0.06169522 -0.9868532 2500140 female
-0.994348 0.2204997 -0.09268393 0.7999875 -0.5526018 -0.2337759 9474457 female
-0.5625389 0.4853796 -0.2129003 0.9822894 0.01465309 0.1867958 10725291 female
-0.9854477 -0.6209236 -0.1742556 -0.9915702 0.09122655 -0.09201223 2170913 female
-0.7494642 -0.1302632 -0.176496 -0.9171742 -0.1666626 -0.3619602 2170657 female
-0.6916991 0.02048193 -0.04040301 0.02990136 0.00971456 0.9995056 2237481 female
-0.7334889 0.4416878 -0.2947804 0.03249861 -0.281406 -0.9590383 12237251 female
-0.7683253 0.7391677 -0.09780362 0.1918127 -0.1402173 0.9713635 16247262 female
-0.6792526 0.1513792 -0.2751988 0.4567392 0.05990101 -0.8875816 12106953 female
-1.005075 -0.703056 -0.1309564 -0.5439041 -0.7450414 -0.386111 1051920 female
-0.751002 0.6447838 -0.1572583 0.4835333 0.2674597 0.8334632 14277095 female
-0.6188834 0.5385929 -0.2780975 0.3005147 -0.1409468 -0.9433053 5658203 female
-0.8833278 -0.0422686 -0.1967299 0.135712 -0.2878093 -0.9480232 2500652 female
-0.6650726 0.5870469 -0.2930548 0.3613376 0.2496105 -0.898404 16185343 female
-0.8022319 0.7703215 -0.1077739 -0.3820181 -0.13318 0.9145082 16509912 female
-0.8668824 0.006616913 -0.02207279 0.3268092 -0.03179102 0.9445555 2171171 female
-0.6473875 -0.5417101 -0.2476245 0.5156255 -0.1358336 -0.8459784 2302502 female
-0.8777169 0.5292867 -0.07124327 -0.3463277 0.6003311 0.7208742 5724514 female
-0.8792203 -0.2448704 -0.134974 0.8019036 -0.21676 -0.5567456 2105124 female
-0.769635 0.3019719 -0.02729685 0.1115379 0.1474046 0.9827671 7434876 female
-0.6034581 0.1090206 0.003304438 0.5963144 0.5062722 0.6229748 14727601 female
-0.9552288 0.5861701 -0.1310944 -0.1583024 0.3309135 0.9302884 12303555 female
-0.7310674 0.2941134 -0.03429761 0.3991583 0.1680753 0.9013453 11053494 female
-0.647828 0.5355167 -0.1379703 0.6944626 0.120694 0.709334 9343641 female
-0.9496371 -0.6715633 -0.07789814 0.5951385 0.6780468 0.4313498 15060420 female
-0.7202365 0.4523248 -0.297652 0.08329026 -0.2880564 -0.9539844 15725567 female
-0.7842869 0.5459007 -0.0882769 0.2075649 0.660879 0.7212182 3419956 female
-0.6882815 0.55123 -0.1078412 0.3258807 0.6293696 0.7054754 15724543 female
-0.760948 -0.01501882 -0.2068347 -0.6806792 -0.2781391 -0.6777275 2302243 female
-0.7781727 0.5055754 -0.3017992 -0.2437096 0.1550242 -0.9573783 13618138 female
-0.6373694 -0.5608199 -0.1871353 0.7284662 -0.1512532 0.6681762 2171682 female
-0.7319342 0.7057326 -0.182878 0.9071813 -0.1077116 0.4067188 14993595 female
-0.6547857 -0.4268487 -0.1532126 0.02588919 -0.2079621 0.9777942 2171431 female
-0.7272975 0.2731657 -0.03155856 0.4234963 0.1812565 0.8875792 4539471 female
-0.6635513 0.5989867 -0.1612981 0.287736 0.574732 0.7660882 10987956 female
-0.7861319 0.01812098 -0.129645 -0.9946672 -0.04271993 0.09387382 1973793 female
-0.7143805 0.05099986 -0.271721 0.07263743 -0.4467921 -0.8916841 2368300 female
-0.5940125 0.009125207 -0.154686 0.9958315 -0.0717415 -0.05632812 1776161 female
-0.6090881 0.2327388 -0.1877435 -0.8356825 -0.4191867 -0.3548481 13553880 female
-0.6958825 0.8637269 -0.2050075 0.9838039 0.174926 0.03912682 2368292 female
-0.6217388 0.4869925 -0.2749227 -0.09552788 -0.1045543 -0.9899206 12828875 female
-0.9131021 0.2872024 -0.08730859 -0.7592069 0.2923676 0.5814862 9145493 female
-0.9560859 -0.3159387 -0.07451291 -0.1906122 -0.2696936 0.9438922 2301987 female
-1.015668 -0.6896128 -0.07745159 -0.4114742 0.9086646 0.0708351 16770014 female
-0.6050515 0.03410182 -0.1017898 0.9094092 0.03590484 0.4143497 1973537 female
-0.5601004 0.03865745 -0.05064362 0.9367875 -0.1419519 -0.3198104 16574943 female
-0.5771914 0.5725492 -0.2278151 0.7710116 0.5237365 -0.3622723 14081007 female
-0.9289354 -0.5874305 -0.1735729 0.9938908 -0.08595983 -0.06922499 1973022 female
-0.6547992 -0.5202712 -0.1729095 0.08688832 -0.1576782 0.9836606 2499878 female
-0.914305 0.3928016 -0.1236904 -0.908392 0.009483204 0.4180121 12369863 female
-0.758682 0.6242514 -0.1431753 0.134492 0.5485397 0.825237 15263984 female
-0.9652534 -0.6439206 -0.1111997 -0.2684403 0.740094 0.6166041 5196879 female
-0.9675567 0.6145386 -0.1886443 -0.6681826 0.727467 -0.1559608 12303039 female
-0.7620779 0.2735936 -0.2551221 -0.1028229 0.1986296 -0.9746659 15201279 female
-0.5973955 0.5809152 -0.1737137 0.4418494 0.3962952 0.80481 9802653 female
-0.983619 0.3960496 -0.2151305 -0.1384923 -0.2179548 -0.9660826 12897242 female
-0.899325 -0.435564 -0.1550694 0.9829585 -0.183137 0.01592128 1842720 female
-0.9021057 0.01011989 -0.2170278 -0.1280932 -0.4871193 -0.8638906 2895412 female
-0.737738 0.5299752 -0.07633524 0.03744884 0.6292522 0.7762985 10395047 female
-0.6330357 -0.5862088 -0.2141735 0.9774506 -0.133021 -0.1639992 1578779 female
-0.6842575 -0.1061594 -0.2235276 -0.01561451 -0.05858111 -0.9981605 2106409 female
-1.01213 -0.6943842 -0.04203735 -0.1230499 0.9638727 0.2362376 10391435 female
-0.8696541 0.3379377 -0.2447735 -0.4247923 -0.1675124 -0.8896578 15398143 female
-0.9900145 -0.6828082 -0.06450816 -0.2945337 0.909394 0.2936876 16506325 female
-0.6603252 -0.09275043 -0.2210386 0.280254 -0.04339512 -0.9589445 2171945 female
-0.6298161 -0.3181481 -0.1401358 0.6914927 -0.1726274 0.701454 2040353 female
