# .PCD v0.7 - Point Cloud Data file format
VERSION 0.7
FIELDS x y z normal_x normal_y normal_z rgb label
SIZE 4 4 4 4 4 4 4 4
TYPE F F F F F F U U
COUNT 1 1 1 1 1 1 1 1
WIDTH 170
HEIGHT 1
VIEWPOINT 0 0 0 1 0 0 0
POINTS 170
DATA ascii
-0.9600513 0.1374343 -0.2014334 -0.8826612 0.1229772 -0.4536363 14079973 female
-0.6570827 0.1685019 -0.2574437 0.6120306 0.07758014 -0.7870196 9803174 female
-0.9366788 -0.4261052 -0.1060096 0.313394 -0.2391542 0.9190155 2170913 female
-0.614631 0.1106045 -0.0306813 -0.9692487 0.1539108 -0.1920116 12825516 female
-0.6538377 -0.317145 -0.2379462 0.122501 0.3307997 -0.9357163 2237738 female
-0.667054 -0.1800112 -0.07364865 0.14634 -0.252968 0.9563429 2171688 female
-0.8956243 0.3526071 -0.2257929 -0.7250311 -0.172852 -0.6666723 6251625 female
-0.9910764 -0.7143072 -0.08686793 0.03502297 -0.9967315 -0.07279974 789772 female
-0.9187004 -0.5402399 -0.168648 0.9839819 -0.1762759 0.02657831 1776929 female
-1.007835 0.1833933 -0.04257419 0.9357451 -0.3506396 -0.03785503 12238536 female
-1.011549 0.4818901 -0.1882418 -0.9806166 0.08224688 -0.1778383 10133932 female
-0.8829523 0.3319193 -0.2358273 -0.5683655 -0.08626103 -0.8182418 7566207 female
-0.971906 -0.4708848 -0.2005167 -0.3941571 -0.04940715 -0.9177141 1973537 female
-0.960844 0.3781745 -0.1426201 0.667977 -0.06612692 0.7412382 15133945 female
-0.5658034 0.536914 -0.2290871 0.8986205 0.2800182 -0.3377441 7698310 female
-0.6096765 -0.01240722 -0.0879355 0.8801113 -0.02840569 0.4739168 1973536 female
-0.9883879 0.1366228 0.1039831 -0.4879178 -0.8454757 0.2170417 7034706 female
-0.93089 0.04133674 -0.02519331 -0.4404381 0.1532943 0.8845989 2500651 female
-0.8768531 -0.2366265 -0.08104311 0.8339695 -0.2850057 0.472511 2105120 female
-0.6587746 -0.5896696 -0.1757498 0.06221052 0.08568299 0.9943783 2434601 female
-0.9707232 0.4187851 -0.1330796 0.2549908 0.02472237 0.9666274 13288397 female
-0.9213712 0.4311563 -0.1185729 -0.8686843 -0.3422737 0.358101 10987703 female
-1.053347 0.2238723 -0.0708287 -0.9942224 -0.08090066 -0.07054663 5397866 female
-0.6545207 0.3454806 -0.1206803 0.8708425 0.1334072 0.4731129 3420469 female
-0.925217 0.4107148 -0.1568024 -0.9715055 -0.2064989 0.1163416 3553086 female
-0.5941893 0.4295616 -0.1768359 0.2241063 0.01333817 0.9744734 6578796 female
-0.7120911 0.2656971 -0.03749973 0.5439114 0.1731133 0.821092 14541554 female
-0.6846927 0.2262887 -0.2583696 0.3413197 0.3169371 -0.8849021 6514804 female
-0.7074271 0.8785176 -0.2458395 0.8350226 0.4203435 -0.3550333 2631463 female
-0.7113 0.4940095 -0.05109488 0.04261563 0.393219 0.9184567 12369609 female
-0.5432847 0.2530961 -0.1914778 0.8879166 -0.2189211 -0.4045708 13158615 female
-0.6128038 -0.4393629 -0.219075 0.9534233 -0.08389288 -0.2897345 1579553 female
-0.9334043 -0.03801531 -0.1920224 -0.3418067 -0.2269097 -0.911965 2105896 female
-0.8817908 -0.2005083 -0.1509879 0.6008399 -0.1026464 -0.7927517 2171944 female
-0.6296322 -0.6743407 -0.2017888 0.9581352 0.1500441 -0.2438519 13087919 female
-0.8007203 0.8281789 -0.2987908 -0.2844343 -0.1323475 -0.9495164 14338761 female
-0.7136194 0.7607951 -0.1580924 0.9600863 -0.2514796 0.1224434 16311510 female
-0.889307 0.6579841 -0.2349156 -0.5024869 0.7760877 -0.3810444 11582152 female
-0.9245966 0.1667197 -0.06201972 -0.5356333 0.1917519 0.8223918 3552582 female
-0.7627496 0.5956282 -0.2907416 -0.1998603 0.1983923 -0.9595292 14541555 female
-0.6595988 -0.1530588 -0.06856884 0.2742273 -0.2520917 0.9280351 1842723 female
-0.7754557 0.3499344 -0.03219883 0.0821077 0.227909 0.9702143 12633296 female
-0.8196533 0.07401135 -0.2679284 0.04045473 -0.4379745 -0.8980767 2435119 female
-0.7424768 0.2049892 -0.01561366 0.3226234 -0.10563 0.9406149 15133431 female
-1.003185 0.5539697 -0.15997 -0.8571694 0.3545657 0.3735556 7304056 female
-0.9164338 0.4111809 -0.1243148 -0.8958369 -0.2013957 0.3961262 13620448 female
-0.719681 0.2727956 -0.2531182 0.1405499 0.1235976 -0.9823285 15200255 female
-0.7792704 -0.03412163 -0.142717 -0.9843317 -0.1759495 -0.01153015 3290426 female
-0.6004609 -0.05588222 -0.1419185 0.9920955 -0.1250607 -0.01030958 1908509 female
-0.622488 0.6123673 -0.1883977 0.2692829 0.8379706 0.4746494 12699337 female
-0.8572626 0.1409969 -0.03620994 -0.241304 -0.08126042 0.9670414 15133438 female
-0.7341272 0.7258503 -0.2245507 0.8182142 -0.1468988 -0.5558292 4866113 female
-0.6385829 0.4485459 -0.2391115 0.8590645 -0.3392982 -0.3832557 13619671 female
-0.9459653 -0.3194777 -0.1879654 0.08628019 0.3249605 -0.9417836 2697774 female
-0.9531316 0.5212808 -0.2346818 -0.0989353 -0.2047381 -0.973804 12895180 female
-0.8227841 0.7159536 -0.2247052 -0.8495375 0.1680322 -0.5000513 10981510 female
-0.9326506 -0.1088833 -0.02394431 -0.2616613 -0.1169268 0.9580509 2171944 female
-0.6251381 0.6034633 -0.1743304 0.1889788 0.683255 0.7053011 15330803 female
-0.7598464 0.5354485 -0.07757883 0.04853006 0.6778877 0.7335619 14278121 female
-0.8810306 -0.04057515 -0.196722 0.1529315 -0.2911364 -0.9443789 2500651 female
-0.7811542 0.8072087 -0.1011158 -0.7763595 0.3427894 0.5289247 14926778 female
-0.61299 -0.197075 -0.1612806 0.9835709 -0.01636137 -0.1797792 2170921 female
-0.8770683 0.4148352 -0.2582283 -0.4733757 -0.3420183 -0.8117505 2698546 female
-0.938628 -0.01834715 -0.02158218 -0.449427 0.02815774 0.8928732 2368809 female
-0.6264796 -0.2631915 -0.1209219 0.8545073 -0.1529156 0.4964212 2171174 female
-0.9604905 -0.006146533 -0.1852065 -0.6637182 -0.2480584 -0.7056523 2500907 female
-0.7069966 0.402263 -0.07179695 0.5480694 0.1744491 0.8180388 15724543 female
-0.6523491 0.3349868 -0.1222993 0.8839647 0.1630326 0.4382086 13752800 female
-0.9871897 -0.3679967 -0.0988569 -0.6757341 -0.1123317 0.7285362 2565671 female
-0.6398927 -0.1978095 -0.08860676 0.5866325 -0.1952552 0.7859629 2170403 female
-0.7514296 0.1459048 -0.02391933 0.3501566 -0.2512301 0.9023712 14541297 female
-0.9023154 -0.2592539 -0.1491086 0.407515 -0.04865233 -0.9119015 2631471 female
-0.982713 -0.6970844 -0.1679929 -0.3673867 -0.8947973 -0.253702 789260 female
-0.8731033 -0.2506808 -0.09894244 0.9261282 -0.2944085 0.2358183 2038559 female
-0.9444693 0.09043419 -0.22962 -0.7131056 -0.003339688 -0.7010487 2696745 female
-1.024267 0.1102301 0.0192871 0.9309204 -0.3634074 -0.03636273 6379608 female
-0.9026142 -0.01771214 -0.2055575 -0.0758856 -0.3329403 -0.9398894 2697516 female
-0.9812772 -0.6520408 -0.1833456 -0.9262392 0.1407588 -0.3496684 9008758 female
-0.602791 0.2166424 -0.134923 -0.9004101 0.1102996 0.4208272 14608118 female
-0.7499709 -0.06211799 -0.07821807 -0.7321849 -0.2655083 0.6272246 1973534 female
-1.041808 0.2509521 -0.0564789 -0.6038021 0.5112869 0.6115625 13424860 female
-0.6303478 0.4763679 -0.2189297 0.9218904 -0.3872081 -0.01370546 11777205 female
-1.013433 0.389061 -0.140008 -0.5808871 0.2589 0.7717131 14016221 female
-0.9784021 -0.3666944 -0.08995469 -0.4753289 -0.1465379 0.867519 2631464 female
-0.9462789 -0.3155643 -0.1865849 0.08071158 0.3373452 -0.9379146 2697516 female
-0.907703 0.3773471 -0.2202443 -0.8207421 -0.1954904 -0.5368109 10066337 female
-0.7488124 -0.1575853 -0.1495472 -0.9885581 -0.150573 -0.008987512 1775899 female
-0.5950174 0.0327263 -0.1267046 0.9795521 0.001919623 0.2011812 1974307 female
-0.7316374 0.8243186 -0.2861983 0.6103275 -0.1473552 -0.7783229 3420972 female
-0.5940062 0.05964785 0.003216795 -0.9750142 -0.1870769 -0.1197902 8483443 female
-0.844331 -0.04619973 -0.1805889 0.5706383 -0.3223919 -0.7552717 2498854 female
-0.841374 0.1023014 -0.2782328 -0.0259978 -0.1755744 -0.9841228 5263457 female
-0.9644347 -0.174349 -0.0448628 -0.6728106 -0.08006034 0.7354701 2170657 female
-0.929208 0.2777783 -0.1918943 -0.8126447 0.404563 -0.419449 7698044 female
-0.7462848 -0.1751154 -0.1567205 -0.9917073 -0.1086314 -0.068672 1710363 female
-0.6335869 0.2719545 -0.1622565 0.9618852 0.2712098 -0.03495741 14673128 female
-0.7068553 -0.275227 -0.2001136 -0.536949 0.05299726 -0.8419484 2170913 female
-0.7708264 0.4824497 -0.05059708 0.06817554 0.137415 0.9881645 14013410 female
-0.7970521 0.03863778 -0.1805826 0.4810173 -0.8276878 -0.2890593 1315860 female
-0.9321604 0.6307727 -0.1709891 -0.1856518 0.8984658 0.3978601 12894660 female
-0.6115503 -0.09215769 -0.1022259 0.9242095 -0.1312547 0.3586208 1841953 female
-0.6352936 -0.6528659 -0.2240954 0.9218308 -0.01571842 -0.3872736 1842207 female
-0.9345635 -0.4052809 -0.1011292 0.3223974 -0.2415437 0.9152685 2170913 female
-0.5878842 0.5945771 -0.2107587 0.6914766 0.7204928 -0.05244184 10132378 female
-0.9056749 -0.255683 -0.1502094 0.3628148 -0.04862055 -0.930592 2698289 female
-0.9965218 0.2162697 -0.08994091 0.8447372 -0.5087037 -0.1662518 14606823 female
-0.5623196 0.4848545 -0.2100925 0.980925 0.01327469 0.1939328 10725291 female
-0.9835704 -0.6221718 -0.172841 -0.9913312 0.08836538 -0.09723153 2170913 female
-0.7490932 -0.1303841 -0.1748816 -0.9139065 -0.1671907 -0.3698948 2170657 female
-0.6926009 0.02036497 -0.0382634 0.02120036 0.009477491 0.9997303 2237481 female
-0.7323729 0.44144 -0.2932447 0.04257012 -0.2816124 -0.9585834 12237251 female
-0.7670789 0.7388923 -0.09712277 0.2970548 -0.1366753 0.9450282 16246750 female
-0.6781909 0.1512217 -0.2729381 0.4647233 0.05980031 -0.8834344 12106953 female
-0.9935253 -0.7075261 -0.1238592 -0.03465815 -0.9798627 -0.1966415 1052688 female
-0.7659141 0.6531301 -0.150661 0.2489235 0.05339077 0.9670504 14804465 female
-0.596341 0.5724524 -0.2516569 0.6190404 0.366616 -0.694537 5922155 female
-0.8825209 -0.04258465 -0.1964436 0.1444958 -0.2863424 -0.9471689 2500652 female
-0.6587198 0.5602785 -0.2927315 0.4047699 0.001906105 -0.9144166 11383490 female
-0.8030692 0.7805019 -0.1057362 -0.3139916 -0.04311968 0.9484461 16772574 female
-0.8676416 0.006145459 -0.02162533 0.3191743 -0.0318744 0.9471599 2171171 female
-0.6461594 -0.5417026 -0.245352 0.5228314 -0.1349442 -0.8416872 2302502 female
-0.8789695 0.5290501 -0.07126587 -0.3542081 0.6002419 0.7171097 5724514 female
-0.8782489 -0.2454249 -0.135137 0.8059949 -0.215597 -0.5512623 2105124 female
-0.7348856 0.3152208 -0.03517221 0.3922347 0.1567095 0.9064183 13225949 female
-0.6150976 0.1117557 -0.003480041 -0.4013536 0.8625835 0.3080014 16774119 female
-0.9559541 0.5857159 -0.1321947 -0.1711169 0.3276252 0.9291828 12303555 female
-0.7324477 0.2940801 -0.03266105 0.3904995 0.1693993 0.9048834 11053494 female
-0.6384113 0.5195314 -0.1504592 0.8367135 -0.2500081 0.4872437 14080999 female
-0.9480845 -0.6722556 -0.07609296 0.5914 0.6816404 0.4308276 15060420 female
-0.7190837 0.452089 -0.2959707 0.09334063 -0.2881637 -0.9530211 15725567 female
-0.785345 0.5456671 -0.08727295 0.1998191 0.6608726 0.7234084 3419956 female
-0.689122 0.5509784 -0.1057923 0.3183864 0.6292297 0.7090135 15724543 female
-0.760359 -0.01514042 -0.2052963 -0.6745042 -0.2786186 -0.6836782 2302243 female
-0.7769143 0.5053448 -0.3007235 -0.2332372 0.1550443 -0.95998 13618138 female
-0.6366426 -0.5608522 -0.1847941 0.7228634 -0.1514058 0.6741993 2171682 female
-0.7319756 0.7055413 -0.1812612 0.902511 -0.1068625 0.4171982 14993595 female
-0.6544318 -0.4269105 -0.1509292 0.01768789 -0.2086279 0.9778351 2171431 female
-0.72867 0.2731426 -0.02986576 0.415012 0.1826381 0.8912959 4539471 female
-0.6584247 0.6004862 -0.1632649 0.2839836 0.5815769 0.7623134 11646908 female
-0.7862433 0.01796461 -0.1283339 -0.9954005 -0.04380017 0.08520208 1973793 female
-0.713235 0.05083542 -0.2697239 0.08124642 -0.4471967 -0.890738 2368300 female
-0.593908 0.009112335 -0.1516683 0.9963384 -0.07098442 -0.04765637 1776161 female
-0.6120352 0.2362802 -0.1846069 -0.9100717 -0.341254 -0.2351918 11581120 female
-0.6958579 0.8635917 -0.2029593 0.9830411 0.1761951 0.05084793 2368292 female
-0.6036711 0.4616647 -0.2698369 0.2215848 -0.05133463 -0.9737889 14605295 female
-0.912246 0.3031094 -0.09239832 -0.7883893 0.2419947 0.5655801 14146793 female
-0.9553338 -0.3165588 -0.07482674 -0.1949309 -0.2652846 0.9442595 2301987 female
-1.014076 -0.6904883 -0.0758234 -0.4143421 0.9077741 0.06532077 16770014 female
-0.6054286 0.03407377 -0.09887192 0.9057361 0.03655548 0.4222625 1973537 female
-0.5607635 0.03144172 -0.05105433 0.9366851 -0.09642481 -0.3366351 16772326 female
-0.5767562 0.5720404 -0.2248248 0.7748197 0.5230163 -0.3551174 14081007 female
-0.9271339 -0.5885438 -0.1720766 0.9944054 -0.08407464 -0.06394799 1973022 female
-0.6542165 -0.5203211 -0.1706888 0.07862322 -0.1583509 0.9842476 2499878 female
-0.914941 0.3925497 -0.1239963 -0.9125789 0.009365709 0.4087934 12369863 female
-0.7591138 0.6240169 -0.1418882 0.1255585 0.5484673 0.8266914 15263984 female
-0.9636235 -0.6448053 -0.1095876 -0.2732433 0.7423496 0.611764 5196879 female
-0.9675194 0.6142709 -0.1898419 -0.6663638 0.727524 -0.163304 12303039 female
-0.7613643 0.2733156 -0.2537439 -0.09397547 0.1976104 -0.9757657 15201279 female
-0.5974154 0.580331 -0.1708597 0.4359432 0.3938847 0.8092024 9802653 female
-0.9832876 0.3960454 -0.2178815 -0.1250259 -0.2111016 -0.9694353 12897242 female
-0.8979214 -0.4365091 -0.1543714 0.9832618 -0.1808912 0.02178713 1842720 female
-0.9013243 0.009745291 -0.2168211 -0.1194237 -0.486955 -0.8652241 2895412 female
-0.7389293 0.5297382 -0.0748308 0.02908739 0.6292005 0.7766986 10395047 female
-0.6320662 -0.5862193 -0.2118133 0.9788638 -0.1324403 -0.1558371 1578779 female
-0.6834977 -0.1062269 -0.2213397 -0.006947171 -0.05836247 -0.9982713 2106409 female
-1.014325 -0.693986 -0.05105955 -0.2212456 0.9603233 0.1697931 16243670 female
-0.8690725 0.337584 -0.2444929 -0.4161097 -0.1687206 -0.8935245 15398143 female
-0.9884911 -0.683557 -0.062812 -0.298298 0.9097624 0.2887052 16506325 female
-0.6595956 -0.0928027 -0.2186413 0.2885688 -0.04299042 -0.9564935 2171945 female
-0.6296374 -0.3182038 -0.1375615 0.6855983 -0.1726898 0.707201 2040353 female
