# .PCD v0.7 - Point Cloud Data file format
VERSION 0.7
FIELDS x y z normal_x normal_y normal_z rgb label
SIZE 4 4 4 4 4 4 4 4
TYPE F F F F F F U U
COUNT 1 1 1 1 1 1 1 1
WIDTH 170
HEIGHT 1
VIEWPOINT 0 0 0 1 0 0 0
POINTS 170
DATA ascii
-0.974903 0.1241086 -0.2304422 -0.8517862 0.09222177 -0.5157086 12173512 female
-0.6828982 0.1636884 -0.2895147 0.5651514 0.06895541 -0.8221004 9803174 female
-0.9638675 -0.4218716 -0.1120431 0.3426767 -0.2919047 0.8929526 2170913 female
-0.6281058 0.1068082 -0.05744962 -0.8632137 -0.4109571 -0.2932174 6773335 female
-0.6766303 -0.3025024 -0.2528024 -0.05684827 0.3665567 -0.9286574 2698289 female
-0.6476846 -0.194067 -0.1139832 0.6711403 -0.171218 0.7212871 2170145 female
-0.9232476 0.3407131 -0.2352384 -0.819001 -0.04461512 -0.572055 15725567 female
-1.015609 -0.7041571 -0.1286088 0.06235934 -0.982606 -0.1749197 657418 female
-0.944518 -0.5101832 -0.1686254 0.9532424 -0.23363 0.1916922 1841948 female
-1.028169 0.19473 -0.03591165 0.9234245 -0.3782721 -0.06478693 12764108 female
-1.033142 0.481964 -0.1739662 -0.9760333 0.1416605 0.1652009 7829376 female
-0.9115733 0.3283181 -0.2494416 -0.6734639 -0.04325955 -0.7379533 4078919 female
-0.9849406 -0.5275317 -0.2149046 -0.1030545 0.036384 -0.99401 2499883 female
-0.9831128 0.3791915 -0.1431237 0.7036636 -0.06770732 0.7073 14213617 female
-0.5907634 0.5493606 -0.2556225 0.8513687 0.3931442 -0.3472878 14608367 female
-0.6298057 0.02168649 -0.1131675 0.8620151 0.05968767 0.5033561 1973536 female
-0.9926475 0.1515068 0.1180908 0.3250633 -0.9431842 0.068829 6245446 female
-0.8773123 0.06750272 -0.04350911 0.3108903 0.211422 0.9266326 2434601 female
-0.9087025 -0.2698599 -0.1233644 0.9031228 -0.2426661 -0.3542348 1973278 female
-0.6778396 -0.5866847 -0.1984879 -0.3204935 0.07903624 0.9439477 2631471 female
-0.9907314 0.4185059 -0.1345566 0.3245108 0.04073282 0.9450045 13288397 female
-0.9386483 0.4214252 -0.1410265 -0.8567094 -0.3529533 0.3761288 14082023 female
-1.075109 0.243354 -0.06127399 -0.9853712 0.1027945 0.1359296 14474476 female
-0.728492 0.3402821 -0.08016398 0.6309052 0.1391166 0.7632858 15200255 female
-0.9432251 0.3953394 -0.1854435 -0.9972374 -0.07145028 0.02030586 14083055 female
-0.6127331 0.3608826 -0.2089691 0.02921713 -0.000213632 0.9995731 14147815 female
-0.7230742 0.2420757 -0.06378335 0.5914905 0.134582 0.795001 13620456 female
-0.7146103 0.2390769 -0.2841381 0.2762327 0.3289976 -0.9030261 5327965 female
-0.7287479 0.8766842 -0.2579325 0.8139035 0.4295915 -0.3911679 2631463 female
-0.7173921 0.4946254 -0.08090089 0.1665004 0.4805467 0.8610182 15593213 female
-0.5721767 0.2466077 -0.2296062 0.6506342 -0.427094 -0.6279058 11317177 female
-0.6255282 -0.4209963 -0.2412995 0.9411514 -0.03925593 -0.3356979 1579808 female
-0.9737608 -0.03847315 -0.1930322 -0.5724901 -0.2308624 -0.7867386 2631470 female
-0.9070457 -0.2027866 -0.1496964 0.6106846 -0.1387254 -0.7796278 2171688 female
-0.6408908 -0.6760532 -0.2249832 0.9426306 0.1629057 -0.2913921 13087919 female
-0.8257644 0.8293463 -0.3068276 -0.3463275 -0.08790561 -0.9339861 14338761 female
-0.7283369 0.767128 -0.1940016 0.9700882 -0.2326708 -0.06923202 14930626 female
-0.9113752 0.6562107 -0.2447662 -0.5202415 0.7883801 -0.3283377 11582152 female
-0.9607704 0.1890421 -0.1022232 -0.739279 0.2126695 0.6389353 13687008 female
-0.7804186 0.597872 -0.3113436 -0.2393312 0.2450701 -0.9395005 13094624 female
-0.6292247 -0.1814053 -0.1423313 0.9520986 -0.09783874 0.2897166 2105377 female
-0.7949061 0.3464437 -0.05687032 0.09269984 0.2196114 0.9711733 15067640 female
-0.8776639 0.08245586 -0.2943408 -0.1274669 -0.2865785 -0.9495394 2960949 female
-0.7777817 0.1154645 -0.05392538 0.2813849 -0.3781204 0.8819566 4013901 female
-1.019526 0.5701946 -0.1844198 -0.8400773 0.5393982 -0.05761566 4934995 female
-0.9252676 0.4160268 -0.1232214 -0.7604773 -0.4001856 0.5113959 9672086 female
-0.7153118 0.28622 -0.2754744 0.3629715 -0.02151934 -0.9315518 13488354 female
-0.7885557 -0.06655924 -0.1637339 -0.9673851 -0.2478676 0.05222731 2433573 female
-0.6166369 -0.03774634 -0.1913155 0.9662445 -0.1210129 -0.2274365 2105122 female
-0.6523546 0.610901 -0.2129829 0.2130603 0.8110501 0.5447963 13422293 female
-0.8604238 0.1250575 -0.05577362 -0.07619846 -0.06190896 0.9951689 2435117 female
-0.7376736 0.7728611 -0.2471241 0.7961703 -0.4641245 -0.3882027 2499619 female
-0.6623921 0.4461052 -0.2694272 0.8328916 -0.3319181 -0.4428565 13619671 female
-0.940968 -0.2887881 -0.1597537 0.5894524 0.3026289 -0.7489737 2697257 female
-0.9829741 0.5225675 -0.2404875 -0.2318592 -0.148272 -0.9613827 11053749 female
-0.8402267 0.7227694 -0.2413433 -0.8620936 0.09162202 -0.4983975 5984074 female
-0.9368647 -0.110447 -0.02727273 0.01403235 -0.09456926 0.9954194 2171944 female
-0.6593691 0.5985314 -0.1975072 0.1938417 0.6464092 0.737957 16251135 female
-0.7863793 0.528109 -0.09490149 0.1486391 0.6547279 0.7411058 14146792 female
-0.8972781 -0.03584369 -0.2114722 0.1563724 -0.3629093 -0.9186101 1841954 female
-0.7737187 0.8232949 -0.1200195 0.797312 0.1014486 0.5949805 15587529 female
-0.7255881 -0.1935457 -0.112888 -0.5974163 -0.2485793 0.7624317 2170913 female
-0.9016628 0.4135772 -0.2749594 -0.5233228 -0.3199391 -0.7897925 2698546 female
-0.9534985 -0.01296978 -0.03043942 -0.3944076 0.08421515 0.9150685 2368809 female
-0.6366612 -0.2743257 -0.1481603 0.8799571 -0.150607 0.4505475 2039075 female
-0.9841146 -0.007816177 -0.193882 -0.7106332 -0.2579332 -0.654577 2500907 female
-0.7328898 0.4019948 -0.09314004 0.4802729 0.1170169 0.8692784 15200255 female
-0.6734797 0.3215555 -0.1430253 0.8616761 0.1670243 0.4791838 6183780 female
-0.9982845 -0.2810298 -0.1664658 -0.379348 0.4265631 -0.8210596 2303275 female
-0.7033452 -0.1999569 -0.102675 -0.2882506 -0.2326569 0.9288608 2170401 female
-0.7899576 0.09927921 -0.05919192 0.1457939 -0.5751626 0.8049423 2500391 female
-0.930607 -0.2558388 -0.1469049 0.3692171 -0.03732023 -0.9285935 2631471 female
-0.9970782 -0.6889294 -0.200762 -0.1032721 -0.9816476 -0.1603217 788489 female
-0.900404 -0.233815 -0.08315665 0.869058 -0.2916175 0.3996215 1973534 female
-0.9612469 0.07766548 -0.250916 -0.6875728 -0.07721179 -0.7219985 2960429 female
-1.062826 0.12345 0.0219256 -0.4713221 -0.5399922 -0.6973263 15200255 female
-0.9232017 -0.005599879 -0.2256048 -0.1273713 -0.4567949 -0.8804061 2763826 female
-1.001815 -0.6342182 -0.2184602 -0.7993396 0.3076696 -0.5161353 2697257 female
-0.6147944 0.2078898 -0.143171 -0.8087232 0.269851 0.5226349 14147056 female
-0.6927273 -0.0857673 -0.07709428 0.03292936 -0.1776239 0.9835474 2171944 female
-1.052891 0.2754427 -0.05741346 -0.2015415 0.6378621 0.7433121 14872823 female
-0.6506831 0.4794817 -0.2133459 0.9768344 -0.1943865 0.08949003 14079966 female
-1.034744 0.3900863 -0.1377448 -0.5163257 0.2991236 0.8024543 14016221 female
-0.9783974 -0.3964511 -0.0982848 0.1369153 -0.2912604 0.9467954 2169889 female
-0.9388668 -0.2890427 -0.1582897 0.6142444 0.2892969 -0.7341738 2631464 female
-0.9196638 0.3959519 -0.2548032 -0.7414195 -0.1997416 -0.640625 14278120 female
-0.7675794 -0.124991 -0.1975611 -0.9147569 -0.2077509 -0.3464958 1972766 female
-0.6144568 0.06400628 -0.1683577 0.9895996 0.08469913 0.11627 1908257 female
-0.7607245 0.8337032 -0.3026315 0.4880639 -0.03053182 -0.8722737 2696225 female
-0.6085076 0.04448968 0.005202512 -0.1425995 -0.7187454 -0.6804927 11048851 female
-0.866893 -0.02539063 -0.2069153 0.4471807 -0.4042985 -0.7978548 2697257 female
-0.8269044 0.0685081 -0.2853811 -0.1244962 -0.5213035 -0.8442413 2565678 female
-0.9994732 -0.2576414 -0.1524491 -0.5181634 0.3458281 -0.7822465 2565673 female
-0.9529307 0.270833 -0.2064064 -0.8309559 0.4395847 -0.3409952 9607587 female
-0.7629992 -0.1507894 -0.1924078 -0.9464366 -0.1644916 -0.2778492 2170913 female
-0.6646059 0.2888121 -0.2256045 0.9094194 0.07612753 -0.4088532 14082023 female
-0.7356782 -0.3680539 -0.2157624 -0.9956529 0.02348787 0.0901312 1776161 female
-0.782784 0.4756461 -0.07233328 0.128494 0.1113573 0.9854383 14013410 female
-0.8386681 -0.05254648 -0.1114723 0.9507813 -0.2964737 0.09010167 2499627 female
-0.9497127 0.6282619 -0.1785405 -0.1457855 0.8953486 0.4208295 12894660 female
-0.6243843 -0.06410146 -0.1206052 0.9142085 -0.07773715 0.3977183 1973537 female
-0.64439 -0.662662 -0.2350521 0.9522929 0.05756699 -0.299707 2105376 female
-1.010076 -0.5694394 -0.1903726 -0.9583691 -0.04141772 -0.2825123 1579032 female
-0.6094365 0.59161 -0.2392789 0.6872406 0.7230005 -0.07050285 10132378 female
-0.933981 -0.2523246 -0.1478109 0.3230042 -0.03774258 -0.9456446 2698289 female
-1.019585 0.2237548 -0.08815642 0.772033 -0.5869285 -0.2438848 9474457 female
-0.5852739 0.4689132 -0.2604408 0.970702 0.0277638 -0.2386771 7171191 female
-1.01075 -0.6521416 -0.1308345 -0.6656651 0.6805993 0.3060631 15785175 female
-0.7584568 -0.1969235 -0.1688684 -0.9866346 -0.1113079 0.1190075 1579291 female
-0.6830207 -0.00159414 -0.06831785 0.2750463 -0.004924498 0.9614184 2499878 female
-0.7184998 0.427711 -0.3086111 0.2909353 -0.3529731 -0.8892506 9606042 female
-0.7936145 0.7767862 -0.1110364 -0.391353 0.2482595 0.8861208 14139062 female
-0.7393405 0.1977796 -0.302737 0.08664279 0.2804909 -0.9559382 15200255 female
-1.026606 -0.692313 -0.1637354 -0.5846665 -0.700959 -0.408438 855309 female
-0.755547 0.6423153 -0.1858753 0.6145033 0.2981125 0.7304209 13751003 female
-0.6086191 0.5630671 -0.2738153 0.6139431 0.4227295 -0.6666136 15724791 female
-0.896077 -0.03416188 -0.2122068 0.1658823 -0.3676707 -0.9150417 2105124 female
-0.6894595 0.5852851 -0.3158081 0.3261963 0.2666405 -0.9069172 16185343 female
-0.7971916 0.7592148 -0.1124291 -0.40187 -0.1911892 0.895515 10979466 female
-0.8470672 -0.009513797 -0.06181555 0.7319888 -0.160906 0.6620435 2170913 female
-0.6564261 -0.5566551 -0.261995 0.6685888 -0.1475929 -0.7288384 1973281 female
-0.8915574 0.5233207 -0.08519875 -0.3058821 0.5846159 0.7514389 5724514 female
-0.9072415 -0.2310483 -0.1402426 0.6923943 -0.1670683 -0.7019104 2236967 female
-0.7824928 0.2963766 -0.05228393 0.1598079 0.134842 0.9778952 7434876 female
-0.6321385 0.1145658 -0.008579628 0.07107558 0.9290182 0.363144 16573145 female
-0.953592 0.5011832 -0.1517342 0.6962135 -0.3397571 0.6323384 15725559 female
-0.7405922 0.2486411 -0.05422105 0.4627054 0.154933 0.8728685 5130576 female
-0.6656793 0.5303084 -0.1632093 0.7273366 0.1012809 0.6787663 9343641 female
-0.9681411 -0.6949963 -0.1019914 0.9161618 -0.4005927 -0.01315481 6641752 female
-0.7522415 0.4497661 -0.3211236 -8.691848E-05 -0.2541754 -0.9671582 15462391 female
-0.7692014 0.5406705 -0.1117783 0.0273776 0.6409625 0.7670839 9145496 female
-0.7042577 0.5453461 -0.1308731 0.3642275 0.6104633 0.7033299 15724543 female
-0.7664408 -0.05395257 -0.2290598 -0.6357068 -0.2432672 -0.7325966 2237481 female
-0.8144889 0.4930422 -0.3205527 -0.201293 0.04413202 -0.9785364 15526648 female
-0.6493829 -0.5804374 -0.2094551 0.7913301 -0.1073375 0.6018932 2434085 female
-0.7499031 0.7157806 -0.198281 0.9321138 -0.2584533 0.2537041 12429467 female
-0.6653885 -0.4620406 -0.1798101 0.07869257 -0.2063705 0.9753044 2105379 female
-0.7286455 0.2717899 -0.06703174 0.5695305 0.172042 0.8037639 14342371 female
-0.6823579 0.5944365 -0.1840174 0.3222991 0.5568954 0.7655004 10987956 female
-0.7877032 -0.03407831 -0.1223748 -0.9036935 -0.215348 0.3700857 1579295 female
-0.797646 0.07531923 -0.3014829 -0.289855 -0.3089857 -0.9058211 2764858 female
-0.619409 -0.006206 -0.133202 0.9461094 -0.007853715 0.323752 1973537 female
-0.6359335 0.269896 -0.2103536 -0.9326674 0.05751446 0.356123 15198199 female
-0.7191456 0.8719249 -0.2325932 0.9237356 0.349493 -0.156739 2039327 female
-0.6318849 0.448948 -0.2988031 0.0799636 -0.07570101 -0.9939191 6710639 female
-0.9315805 0.2882693 -0.1116485 -0.7703238 0.2751279 0.5752442 7960958 female
-0.9682395 -0.292664 -0.05854737 0.04036118 -0.5288064 0.8477823 2630696 female
-1.040191 -0.6832933 -0.1023555 -0.5159084 0.8543798 0.0622396 15452612 female
-0.6504745 0.1178126 -0.1099645 0.6960747 0.2319695 0.6794631 15330809 female
-0.5901355 0.02248562 -0.06829625 -0.68714 -0.2867723 -0.667533 10982032 female
-0.599988 0.5749916 -0.2462665 0.7822371 0.5828828 -0.2198925 13883363 female
-0.9588025 -0.5780917 -0.1985 0.9547096 -0.1041131 -0.2787293 2039327 female
-0.6630986 -0.3802207 -0.1629173 0.146781 -0.1901425 0.970722 2170403 female
-0.9125952 0.4210319 -0.1006373 -0.6018577 -0.5717197 0.5575875 14079458 female
-0.7868182 0.6230558 -0.1621303 0.09649145 0.4913229 0.8656161 16120317 female
-1.00666 -0.6157193 -0.1594949 -0.8964648 0.1424978 0.4195776 2499878 female
-0.9816527 0.6130472 -0.2073838 -0.7051292 0.6715999 -0.2274784 11711421 female
-0.7988644 0.2494824 -0.284933 -0.1052407 0.3127997 -0.9439707 13948650 female
-0.6121903 0.5497499 -0.1957878 0.4103285 0.1500704 0.8995051 5789280 female
-1.010074 0.3940842 -0.2175491 -0.2004957 -0.2309995 -0.9520718 12897242 female
-0.9221181 -0.3986795 -0.162504 0.9844753 -0.09374141 -0.1483947 1776673 female
-0.937932 -0.02027261 -0.2159408 -0.232368 -0.3653868 -0.9013864 2763826 female
-0.7449837 0.5305538 -0.1039989 0.1151866 0.6420341 0.7579738 15659774 female
-0.6502007 -0.6207402 -0.2096067 0.8806586 0.08024961 0.4669051 2829616 female
-0.666203 -0.0632266 -0.2430114 0.3866599 -0.1412105 -0.9113472 2303275 female
-1.056595 -0.6950465 -0.08083799 -0.9704193 0.2087967 -0.1212037 7233627 female
-0.8578074 0.2391364 -0.2799813 -0.1671424 0.3056777 -0.9373498 15201018 female
-1.007978 -0.6684459 -0.09827862 -0.3608053 0.8577368 0.3662062 15452607 female
-0.6794 -0.09719729 -0.2448382 0.2349833 -0.06339061 -0.9699302 2171945 female
-0.6453694 -0.3286448 -0.1582683 0.6119193 -0.1791233 0.7703698 1777187 female
