# .PCD v0.7 - Point Cloud Data file format
VERSION 0.7
FIELDS x y z normal_x normal_y normal_z rgb label
SIZE 4 4 4 4 4 4 4 4
TYPE F F F F F F U U
COUNT 1 1 1 1 1 1 1 1
WIDTH 170
HEIGHT 1
VIEWPOINT 0 0 0 1 0 0 0
POINTS 170
DATA ascii
-0.9751487 0.1247385 -0.2286075 -0.8516772 0.09201887 -0.5159249 12173512 female
-0.6831809 0.1644219 -0.2876661 0.5650399 0.06901585 -0.822172 9803174 female
-0.9636233 -0.4215824 -0.1112529 0.3418474 -0.2907448 0.8936486 2170913 female
-0.6300803 0.1065533 -0.05262256 -0.8713163 -0.4234542 -0.247981 7299423 female
-0.6769189 -0.3018183 -0.2516741 -0.05724945 0.36639 -0.9286985 2698289 female
-0.6479677 -0.1934376 -0.1127202 0.6714377 -0.1723174 0.7207483 2170145 female
-0.9236503 0.3412286 -0.2335283 -0.8191541 -0.04662478 -0.5716752 15725567 female
-1.015251 -0.7038584 -0.1275262 0.06324704 -0.982862 -0.1731533 657418 female
-0.944158 -0.509944 -0.1677093 0.9531569 -0.2328404 0.1930732 1841948 female
-1.034094 0.2242309 -0.1042172 0.1926871 -0.7916567 -0.5797856 10921901 female
-1.033619 0.4822918 -0.1729949 -0.9763601 0.1402407 0.164479 7829376 female
-0.9119689 0.3288261 -0.2477029 -0.6735972 -0.04539002 -0.7377036 4078919 female
-0.984512 -0.5273721 -0.214017 -0.1018821 0.03512131 -0.9941763 2499883 female
-0.9834335 0.3796375 -0.1419853 0.7031897 -0.06608753 0.7079242 14213617 female
-0.5914528 0.5498763 -0.2549392 0.8512326 0.3914905 -0.3494828 14608367 female
-0.6300335 0.02231206 -0.1114578 0.8621922 0.05876521 0.5031613 1973536 female
-0.9977534 0.1491305 0.11639 0.01135506 -0.9939582 0.1091703 7363671 female
-0.8776867 0.06785725 -0.04173418 0.3094436 0.2093504 0.9275867 2434601 female
-0.9085324 -0.2694791 -0.1226947 0.9036787 -0.2417808 -0.3534217 1973278 female
-0.6777966 -0.5860014 -0.1972039 -0.3204952 0.07921153 0.9439324 2631471 female
-0.9911275 0.418946 -0.1334894 0.3239279 0.04215075 0.9451423 13288397 female
-0.9390723 0.4221846 -0.1395363 -0.8561311 -0.352437 0.3779254 14082023 female
-1.075664 0.2429904 -0.06077516 -0.9857961 0.1018833 0.1335135 14474476 female
-0.7288317 0.3413555 -0.07853946 0.6310918 0.141622 0.7626705 15200255 female
-0.9436537 0.3959475 -0.183869 -0.9971613 -0.07228796 0.02106601 14083055 female
-0.627522 0.3672924 -0.2088872 -0.2876977 -0.04687867 0.9565733 7829371 female
-0.7233732 0.2429644 -0.06195215 0.5914955 0.1359861 0.7947584 13620456 female
-0.7149366 0.2397523 -0.2823188 0.2759496 0.3284595 -0.9033085 5327965 female
-0.7297833 0.8771452 -0.2587896 0.8130214 0.4283616 -0.3943382 2631463 female
-0.7178439 0.4958674 -0.07984351 0.1665315 0.4841751 0.8589771 15593213 female
-0.5907463 0.2532712 -0.2436381 0.2864244 -0.5520377 -0.7830808 12237763 female
-0.6256796 -0.4202777 -0.2401021 0.9412098 -0.03839986 -0.3356331 1579808 female
-0.9737988 -0.0378397 -0.1916806 -0.5711004 -0.22944 -0.7881635 2631470 female
-0.9069027 -0.2022416 -0.148893 0.611828 -0.1363561 -0.7791492 2171688 female
-0.6407518 -0.675346 -0.2236633 0.942324 0.1636694 -0.2919551 13087919 female
-0.8267964 0.8294261 -0.3073192 -0.3472213 -0.09354182 -0.9331062 14338761 female
-0.7291769 0.7679428 -0.1942535 0.9702753 -0.2319722 -0.0689542 14930626 female
-0.9121734 0.656545 -0.2442305 -0.521805 0.7861468 -0.3311989 11582152 female
-0.9610965 0.189642 -0.1003454 -0.7395995 0.2117701 0.6388632 13687008 female
-0.7811655 0.5980984 -0.310683 -0.2403643 0.2407661 -0.9403493 13094624 female
-0.6295171 -0.1807344 -0.1410525 0.9522172 -0.0983676 0.2891474 2105377 female
-0.7952437 0.3475126 -0.05523543 0.0929134 0.2221359 0.9705786 15067640 female
-0.8778875 0.08313418 -0.2924892 -0.1270815 -0.28646 -0.9496268 2960949 female
-0.7780431 0.1161632 -0.05205745 0.2814547 -0.3781781 0.8819096 4013901 female
-1.020153 0.5705203 -0.1835475 -0.8411615 0.5375323 -0.05921374 4934995 female
-0.9256769 0.4168604 -0.1217245 -0.7598032 -0.3990743 0.5132629 9672086 female
-0.7156731 0.2868516 -0.2737094 0.3627224 -0.02257993 -0.9316236 13488354 female
-0.7888234 -0.06582937 -0.1621318 -0.9674018 -0.2478234 0.05212814 2433573 female
-0.61691 -0.03699185 -0.1897326 0.9661421 -0.1207435 -0.2280142 2105122 female
-0.6530004 0.6116067 -0.2124949 0.2134755 0.8133109 0.541252 13422293 female
-0.8607644 0.1256222 -0.05390621 -0.07694764 -0.06329048 0.9950243 2435117 female
-0.7385788 0.7733768 -0.247392 0.7963682 -0.4651956 -0.386511 2499619 female
-0.6629393 0.4466556 -0.2682122 0.8328742 -0.3328498 -0.4421897 13619671 female
-0.940746 -0.2884914 -0.1591079 0.5900185 0.3027233 -0.7484896 2697257 female
-1.01356 0.5400845 -0.2234428 -0.6232676 0.1780992 -0.7614579 14080999 female
-0.8410703 0.7232045 -0.2412149 -0.8627638 0.08806016 -0.4978796 5984074 female
-0.9370283 -0.1102565 -0.02617789 0.01264745 -0.09758349 0.995147 2171944 female
-0.6600036 0.5993052 -0.196961 0.1944258 0.6494645 0.7351152 16251135 female
-0.7868789 0.5292385 -0.09393625 0.1485583 0.6579753 0.7382404 14146792 female
-0.8973057 -0.03506782 -0.2099815 0.1579628 -0.3603127 -0.9193598 1841954 female
-0.772056 0.8342365 -0.1213348 0.5251942 -0.1400075 0.839386 16378333 female
-0.725876 -0.1929145 -0.1116016 -0.5971398 -0.2497831 0.7622548 2170913 female
-0.9021552 0.4139116 -0.2734611 -0.5233806 -0.3232468 -0.7884062 2698546 female
-0.9537902 -0.01279641 -0.02905582 -0.3958966 0.08089557 0.9147249 2368809 female
-0.6369651 -0.2736036 -0.1470247 0.8801225 -0.150286 0.4503314 2039075 female
-1.003312 -0.1199109 -0.1435709 -0.9178394 -0.03986988 -0.3949446 2170145 female
-0.733273 0.4031 -0.09170965 0.4806771 0.120364 0.8685977 15200255 female
-0.6738311 0.3224876 -0.1413628 0.8616967 0.1689204 0.4784818 6183780 female
-0.9980609 -0.2807827 -0.1658878 -0.3785986 0.4258536 -0.8217736 2303275 female
-0.7036295 -0.1993417 -0.1014076 -0.287952 -0.234105 0.9285895 2170401 female
-0.7902223 0.09994677 -0.05732205 0.1456639 -0.5755898 0.8046604 2500391 female
-0.9304179 -0.2554578 -0.1462603 0.3703093 -0.03658666 -0.9281877 2631471 female
-0.9965757 -0.6887636 -0.1996677 -0.1025729 -0.9819819 -0.1587147 788489 female
-0.9003144 -0.2334145 -0.08243622 0.8688065 -0.2912549 0.4004321 1973534 female
-0.9600514 0.08955194 -0.2511746 -0.7001386 -0.03306039 -0.7132412 2566703 female
-1.063631 0.1225432 0.02166009 -0.4691991 -0.5351877 -0.7024432 15200255 female
-0.9232702 -0.004840042 -0.2240437 -0.1258492 -0.4549635 -0.8815725 2763826 female
-1.001305 -0.634086 -0.2174711 -0.7985946 0.3064569 -0.5180066 2697257 female
-0.6156539 0.2008356 -0.1369108 -0.8381526 0.2586108 0.4802297 11381437 female
-0.6929656 -0.08521954 -0.07559392 0.03327357 -0.1794459 0.983205 2171944 female
-1.053456 0.2750575 -0.05662831 -0.2038537 0.6330756 0.7467657 14872823 female
-0.651229 0.4802713 -0.2122896 0.9771122 -0.1929975 0.08946387 14079966 female
-1.02609 0.3720674 -0.1301659 -0.1461987 0.2422188 0.9591433 14740469 female
-0.9781841 -0.3961564 -0.09753839 0.1360319 -0.2901787 0.9472548 2169889 female
-0.9754918 -0.307308 -0.1846835 0.05051942 0.382526 -0.9225625 2697516 female
-0.9278276 0.3881718 -0.2409376 -0.8354317 -0.1228626 -0.5356852 6710377 female
-0.7678806 -0.1242048 -0.1960931 -0.9149219 -0.2070286 -0.3464925 1972766 female
-0.6147041 0.06474585 -0.1665808 0.9896214 0.08459102 0.1161631 1908257 female
-0.7617558 0.8338786 -0.3032163 0.4871306 -0.03472043 -0.8726386 2696225 female
-0.6065004 0.06115571 -0.02832749 -0.9218689 -0.3499162 -0.1664825 7958118 female
-0.8669477 -0.02459461 -0.2053516 0.4485498 -0.4017492 -0.7983737 2697257 female
-0.8271193 0.06924724 -0.2835256 -0.1240278 -0.5209588 -0.844523 2565678 female
-0.9992795 -0.257354 -0.1518822 -0.5173659 0.3453717 -0.7829757 2565673 female
-0.9532696 0.2714362 -0.2045711 -0.8312432 0.4387058 -0.3414265 9607587 female
-0.7633066 -0.1500163 -0.1910032 -0.9465659 -0.1639273 -0.2777424 2170913 female
-0.6649574 0.2895532 -0.22385 0.9092628 0.07610317 -0.4092059 14082023 female
-0.735896 -0.367434 -0.2145999 -0.9956753 0.02248815 0.09013837 1776161 female
-0.7832142 0.4768285 -0.07114836 0.1290787 0.115277 0.9849111 14013410 female
-0.8387897 -0.0519736 -0.1099908 0.9510323 -0.2955279 0.09055759 2499627 female
-0.9504545 0.6287526 -0.1778459 -0.1474817 0.8963998 0.4179911 12894660 female
-0.6246358 -0.06348205 -0.1190873 0.9143617 -0.07860179 0.3971958 1973537 female
-0.6442703 -0.6619648 -0.2337381 0.9521114 0.05837187 -0.3001275 2105376 female
-1.012525 -0.5637687 -0.1785412 -0.9933175 -0.1023424 -0.05335157 1579291 female
-0.6101013 0.592195 -0.2387386 0.6873159 0.7225723 -0.0740687 10132378 female
-0.9337938 -0.2519413 -0.1471687 0.3241405 -0.03698762 -0.9452856 2698289 female
-1.017402 0.24085 -0.1150522 0.6455868 -0.6553714 -0.3920537 13816027 female
-0.5860125 0.469414 -0.2595122 0.9705468 0.02646842 -0.2394544 7171191 female
-1.010397 -0.6518578 -0.1298389 -0.666538 0.6807579 0.3038022 15785175 female
-0.7587738 -0.196206 -0.1675812 -0.9865917 -0.1115051 0.1191781 1579291 female
-0.683237 -0.001065709 -0.06664738 0.2753397 -0.006788393 0.961323 2499878 female
-0.7190469 0.4280809 -0.3072684 0.2906497 -0.3559766 -0.888146 9606042 female
-0.788343 0.7730179 -0.1072234 -0.2128401 0.2241524 0.9510283 15192774 female
-0.739642 0.1984628 -0.3009037 0.0864962 0.2801653 -0.9560469 15200255 female
-1.026178 -0.6920884 -0.1626929 -0.5835815 -0.7019348 -0.408314 855309 female
-0.7562397 0.6431136 -0.185438 0.6148437 0.3021634 0.7284672 13751003 female
-0.6164283 0.5813632 -0.2665786 0.6319792 0.5119482 -0.5818173 15856379 female
-0.8961073 -0.0333831 -0.2107079 0.167462 -0.3650861 -0.9157885 2105124 female
-0.690201 0.5855622 -0.3151681 0.3251856 0.2629074 -0.9083689 16185343 female
-0.7990166 0.7483262 -0.1123877 -0.3919031 -0.09029013 0.9155653 15390663 female
-0.8473204 -0.009101016 -0.06022163 0.7312177 -0.1619602 0.6626384 2170913 female
-0.6564236 -0.5559836 -0.2607267 0.6687297 -0.1472456 -0.7287793 1973281 female
-0.8920462 0.5243553 -0.08413533 -0.3059954 0.5872952 0.7493005 5724514 female
-0.9070795 -0.2305723 -0.1395352 0.6933581 -0.1652886 -0.7013802 2236967 female
-0.7828026 0.2973811 -0.05052101 0.1599901 0.1369042 0.9775788 7434876 female
-0.6376759 0.1156241 -0.02144832 -0.8386467 0.5446731 -0.001737505 16576227 female
-0.9541106 0.5016791 -0.1507336 0.6964887 -0.337673 0.6331511 15725559 female
-0.7408893 0.2495497 -0.05238957 0.46277 0.1564534 0.8725629 5130576 female
-0.6662514 0.5312805 -0.1623649 0.7277907 0.1048628 0.6777348 9343641 female
-0.9678259 -0.6946313 -0.1008499 0.9164069 -0.4000973 -0.01097964 6641752 female
-0.7528212 0.4500441 -0.3198417 -0.0005051265 -0.2578728 -0.9661788 15462391 female
-0.7697311 0.5417535 -0.1108892 0.02724143 0.6442065 0.7643664 9145496 female
-0.7048068 0.5464246 -0.1300562 0.3641062 0.6138397 0.700448 15724543 female
-0.7667198 -0.05311377 -0.2274199 -0.6359848 -0.2419526 -0.7327907 2237481 female
-0.8146943 0.5079812 -0.3154432 -0.2326752 0.2758403 -0.9326169 15396607 female
-0.6493503 -0.5797291 -0.2081744 0.7915139 -0.1061363 0.6018645 2434085 female
-0.7506859 0.7165461 -0.1982335 0.932714 -0.2559114 0.2540749 12429467 female
-0.6654921 -0.4613342 -0.178589 0.07889611 -0.2058003 0.9754084 2105379 female
-0.7289522 0.2727463 -0.06523611 0.5695893 0.1738636 0.8033302 14342371 female
-0.6829919 0.5952804 -0.1834331 0.3226841 0.560246 0.7628889 10987956 female
-0.7879475 -0.03342417 -0.1207143 -0.9035788 -0.2159314 0.3700258 1579295 female
-0.7290001 0.0348503 -0.2883728 0.07056014 -0.5656973 -0.8215887 2171945 female
-0.6196525 -0.005549959 -0.1315571 0.946225 -0.008507489 0.3233974 1973537 female
-0.6350672 0.275041 -0.2073358 -0.8836638 0.1371396 0.4475837 9147032 female
-0.7201501 0.8725349 -0.2334331 0.9231668 0.3496805 -0.1596453 2039327 female
-0.6326621 0.4493662 -0.2977903 0.07924981 -0.07865401 -0.9937469 6710639 female
-0.9276177 0.2997895 -0.1084745 -0.7537532 0.2373412 0.6128013 14146793 female
-0.9681339 -0.2923478 -0.05792057 0.03969632 -0.5285273 0.8479877 2630696 female
-1.039894 -0.6829662 -0.1013485 -0.5165792 0.8541256 0.0601296 15452612 female
-0.6507185 0.1184996 -0.1081142 0.6961626 0.2313849 0.6795724 15330809 female
-0.595149 0.03941626 -0.06525319 -0.9215324 -0.3742701 -0.1034406 12232097 female
-0.6006622 0.5755438 -0.2456708 0.7822154 0.5817574 -0.2229294 13883363 female
-0.9583617 -0.577899 -0.1975207 0.9551561 -0.1039447 -0.2772586 2039327 female
-0.6632972 -0.3795018 -0.1617405 0.1469685 -0.189587 0.9708022 2170403 female
-0.9227956 0.4073271 -0.1228004 -0.7872131 -0.2612031 0.5586307 14343396 female
-0.7874816 0.6239134 -0.1615821 0.09660803 0.4952517 0.8633612 16120317 female
-1.006259 -0.6154938 -0.1585376 -0.8971677 0.1426803 0.4180101 2499878 female
-0.9823771 0.6133778 -0.2066117 -0.7067419 0.6692876 -0.2292816 11711421 female
-0.7992001 0.2500929 -0.2831073 -0.1055429 0.3117866 -0.944272 13948650 female
-0.6128366 0.5504938 -0.1950934 0.4110523 0.1530102 0.898679 5789280 female
-1.023056 0.4074836 -0.2130307 -0.5435996 -0.09023185 -0.8344805 5589847 female
-0.9265273 -0.429427 -0.161276 0.9824235 -0.1855702 -0.02018894 1842720 female
-0.9379779 -0.01954309 -0.2144578 -0.2307805 -0.3634564 -0.902574 2763826 female
-0.7454947 0.5316946 -0.1030838 0.1150308 0.6452878 0.7552294 15659774 female
-0.6501198 -0.6200321 -0.2083128 0.8806976 0.08145839 0.4666222 2829616 female
-0.6664966 -0.06237438 -0.241442 0.3863092 -0.1396679 -0.9117335 2303275 female
-1.056606 -0.6909013 -0.07557385 -0.734983 0.6744813 0.06982139 10456198 female
-0.8581317 0.2397422 -0.2781518 -0.1674224 0.3048961 -0.9375544 15201018 female
-1.007689 -0.6680964 -0.0972487 -0.3619646 0.8580484 0.3643275 15452607 female
-0.6797084 -0.09633867 -0.2433408 0.2345853 -0.06170746 -0.970135 2171945 female
-0.6456273 -0.3279099 -0.157122 0.6121091 -0.178389 0.7703894 1777187 female
