# .PCD v0.7 - Point Cloud Data file format
VERSION 0.7
FIELDS x y z normal_x normal_y normal_z rgb label
SIZE 4 4 4 4 4 4 4 4
TYPE F F F F F F U U
COUNT 1 1 1 1 1 1 1 1
WIDTH 170
HEIGHT 1
VIEWPOINT 0 0 0 1 0 0 0
POINTS 170
DATA ascii
-0.9550716 0.1500424 -0.248401 -0.7451217 0.05753741 -0.664442 14936567 female
-0.6819463 0.1657479 -0.2804683 0.567368 0.07108255 -0.8203907 9803174 female
-0.9602908 -0.4225008 -0.1074221 0.3421076 -0.282664 0.8961381 2170913 female
-0.622696 0.1220159 -0.06261871 -0.8611141 0.2637552 -0.4346444 13354698 female
-0.6761984 -0.3006968 -0.2482299 -0.05536866 0.3687495 -0.9278783 2698289 female
-0.6475307 -0.1929737 -0.1083802 0.6699702 -0.1790741 0.7204668 2170145 female
-0.9183744 0.3507246 -0.2359306 -0.7605379 -0.1700143 -0.6266396 6251625 female
-0.9809486 -0.6977323 -0.1324371 0.2478449 -0.9583351 -0.1420098 3946293 female
-0.9445992 -0.5335377 -0.1763619 0.983789 -0.1788101 -0.01363949 1776929 female
-1.033187 0.22262 -0.1019391 0.2020605 -0.7825376 -0.5889028 10921901 female
-1.033951 0.481527 -0.1702161 -0.9783316 0.13282 0.1588271 7829376 female
-0.9061664 0.3300461 -0.2469671 -0.6130004 -0.08273135 -0.7857392 7566207 female
-0.9986384 -0.4626676 -0.2029168 -0.4234684 -0.005158061 -0.9058962 1973537 female
-0.9830435 0.379482 -0.1383314 0.6998034 -0.05701882 0.7120562 14213617 female
-0.5907567 0.554496 -0.239511 0.9080204 0.4001883 -0.123888 13620701 female
-0.6291426 0.02276969 -0.104841 0.8612022 0.05341781 0.5054476 1973536 female
-1.005491 0.1451174 0.1111272 -0.3760424 -0.9224266 0.08786985 6771534 female
-0.8771057 0.06745619 -0.03553261 0.3037932 0.2031438 0.9308288 2434601 female
-0.9053981 -0.2700477 -0.1201565 0.9048245 -0.2394126 -0.3520997 1973278 female
-0.6684206 -0.56126 -0.1925488 0.008338412 -0.0443108 0.998983 2171937 female
-0.9911242 0.4187604 -0.1301434 0.3189221 0.04962464 0.9464809 13288397 female
-0.9382559 0.4283188 -0.1261712 -0.8460669 -0.3477772 0.4040073 10987703 female
-1.075259 0.2405635 -0.05863331 -0.9875142 0.09497537 0.1256797 14474476 female
-0.7290353 0.3437378 -0.07203714 0.6276162 0.1518071 0.7635787 15200255 female
-0.9442476 0.408194 -0.1644212 -0.9627771 -0.2105452 0.1695023 3553086 female
-0.6274641 0.368703 -0.201847 -0.2865691 -0.03425267 0.9574471 7829371 female
-0.7141226 0.266955 -0.06802881 0.6499383 0.1777392 0.7389106 6184287 female
-0.7301013 0.2228256 -0.2856919 0.1318509 0.3070537 -0.9425144 11844804 female
-0.7322684 0.8771281 -0.2612276 0.8120541 0.4240958 -0.4008877 2631463 female
-0.7165793 0.5078537 -0.08212662 0.2027926 0.588845 0.7823918 10856115 female
-0.5898798 0.2541713 -0.2361359 0.2835964 -0.546792 -0.7877764 12237763 female
-0.6246532 -0.4191288 -0.2366198 0.9423956 -0.03547731 -0.3326138 1579808 female
-0.9717855 -0.03753751 -0.1868544 -0.5656739 -0.2261202 -0.7930213 2631470 female
-0.9039053 -0.2021435 -0.1459176 0.6152044 -0.1285365 -0.7778187 2171688 female
-0.6390721 -0.6742982 -0.2206135 0.9424646 0.1660177 -0.2901699 13087919 female
-0.828879 0.8278524 -0.3089987 -0.3438538 -0.1158803 -0.9318457 14338761 female
-0.7343784 0.760761 -0.2000615 0.9397233 -0.3199221 -0.1207062 14075829 female
-0.9135775 0.6559657 -0.24259 -0.5261846 0.7774668 -0.3444926 11582152 female
-0.956167 0.1799797 -0.08759709 -0.6836134 0.2069269 0.6998957 7039086 female
-0.7818923 0.597367 -0.3077478 -0.2382431 0.2252929 -0.9447133 13094624 female
-0.6472445 -0.1655345 -0.103412 0.6719435 -0.1880339 0.7163345 1974050 female
-0.7955601 0.3497525 -0.04902582 0.0883918 0.2313375 0.9688498 15067640 female
-0.8628089 0.06048838 -0.2768024 -0.004251191 -0.4848872 -0.8745664 2566703 female
-0.7502697 0.2372918 -0.03766463 0.3892707 0.1290518 0.9120383 12502226 female
-1.021196 0.5697964 -0.1812695 -0.8456578 0.5292643 -0.06886377 4934995 female
-0.9336299 0.4083791 -0.1324953 -0.8713923 -0.2080809 0.4442722 13620448 female
-0.7149093 0.2877113 -0.2666961 0.3659273 -0.02525239 -0.9303008 13488354 female
-0.7880153 -0.06470894 -0.156668 -0.9678766 -0.2468176 0.04791828 2433573 female
-0.6159875 -0.03588451 -0.183683 0.9664037 -0.1200895 -0.2272495 2105122 female
-0.6540465 0.6128713 -0.2094281 0.2096054 0.8224725 0.5287765 13422293 female
-0.866083 0.109076 -0.04586121 0.1387185 0.08414777 0.9867504 2566703 female
-0.7405618 0.7736157 -0.2475769 0.8003048 -0.4685747 -0.3740987 2499619 female
-0.6492896 0.4538964 -0.1771933 0.9851452 -0.1588511 0.06523273 6973546 female
-0.9375727 -0.2895639 -0.1565088 0.5896885 0.3000522 -0.749824 2697257 female
-1.014151 0.539138 -0.2208386 -0.620963 0.1669592 -0.7658522 14080999 female
-0.8427992 0.7230518 -0.2405863 -0.8618416 0.07319146 -0.5018685 5984074 female
-0.9352453 -0.1112752 -0.0221902 0.008330753 -0.10701 0.9942231 2171944 female
-0.6610701 0.6008068 -0.1937099 0.1904715 0.6616174 0.725247 16251135 female
-0.7880116 0.5316298 -0.09001878 0.1425574 0.6692622 0.7292225 14146792 female
-0.9044368 -0.0434131 -0.2020089 0.0966651 -0.3249981 -0.9407615 2500651 female
-0.7875731 0.809995 -0.1036169 -0.5065218 0.5605707 0.6551306 13874093 female
-0.7254639 -0.1923517 -0.1074322 -0.5989262 -0.2555683 0.7589284 2170913 female
-0.9020036 0.4133473 -0.2683393 -0.5186438 -0.3357605 -0.7863037 2698546 female
-0.9526699 -0.01392786 -0.02414685 -0.4010074 0.0694049 0.9134418 2368809 female
-0.636587 -0.2727178 -0.1433335 0.8791382 -0.1516791 0.4517846 2039075 female
-1.000906 -0.1202605 -0.1400208 -0.9157267 -0.04229067 -0.39957 2170145 female
-0.7337169 0.4055655 -0.08591057 0.4772189 0.1330936 0.8686473 15200255 female
-0.6737098 0.3244675 -0.1344583 0.8590817 0.1772847 0.480155 6183780 female
-0.994912 -0.2820675 -0.1633655 -0.3784712 0.4199952 -0.8248416 2303275 female
-0.7032428 -0.1988931 -0.09725115 -0.2902279 -0.2416065 0.9259557 2170401 female
-0.757347 0.1688886 -0.03898802 0.4076365 -0.2115155 0.8883094 15133177 female
-0.9403605 -0.2162295 -0.1516662 0.09128402 -0.06635291 -0.9936119 2565419 female
-0.9852285 -0.6924891 -0.1795398 0.009153277 -0.9959134 -0.089849 593934 female
-0.8973864 -0.233723 -0.07975687 0.8689026 -0.2880734 0.4025195 1973534 female
-0.9677331 0.09324624 -0.2352445 -0.7625776 0.01457743 -0.6467326 3025454 female
-1.06336 0.1190287 0.02218795 -0.4610128 -0.5269518 -0.713995 15200255 female
-0.9258836 -0.02036948 -0.2105825 -0.1321837 -0.3604324 -0.923372 2697516 female
-0.9989727 -0.6430443 -0.2137753 -0.8220385 0.327289 -0.465977 15716301 female
-0.5757625 0.1414614 -0.06952725 0.6364269 0.4374247 0.6353112 15727607 female
-0.6923772 -0.08510289 -0.07025865 0.03104048 -0.1887016 0.9815437 2171944 female
-1.053251 0.2726902 -0.05381102 -0.2140234 0.6216982 0.753449 14872823 female
-0.6517536 0.482703 -0.2058719 0.9771057 -0.1867831 0.1018647 14079451 female
-1.025686 0.3715716 -0.1265817 -0.1527263 0.2435745 0.9577819 14740469 female
-0.9749017 -0.3969889 -0.09392983 0.1362883 -0.2820797 0.9496613 2169889 female
-0.9723036 -0.308763 -0.1819111 0.05038042 0.3760076 -0.925246 2697516 female
-0.9302447 0.3754373 -0.229321 -0.8491599 -0.1929606 -0.4916235 10066337 female
-0.7622719 -0.1637134 -0.1684319 -0.9880033 -0.152919 -0.02157018 1841436 female
-0.6136467 0.06580803 -0.1595311 0.9893356 0.08355721 0.1193034 1908257 female
-0.7591662 0.8236578 -0.300826 0.5598965 -0.1366161 -0.8172221 3420972 female
-0.6061133 0.05869528 -0.002413495 -0.7497821 -0.5010385 -0.432189 9075062 female
-0.8650049 -0.02348861 -0.1998142 0.4545744 -0.3923762 -0.7996268 2697257 female
-0.8670707 0.0992513 -0.2902431 -0.08184451 -0.1861152 -0.9791132 5263457 female
-0.9831976 -0.1706986 -0.03964391 -0.6379551 -0.04839869 0.7685512 2170657 female
-0.9498132 0.2756707 -0.2007904 -0.8349963 0.4031803 -0.3744687 7698044 female
-0.7626547 -0.1486783 -0.1864015 -0.946311 -0.160035 -0.2808634 2170913 female
-0.6617805 0.2816773 -0.2110544 0.9193388 0.1613456 -0.3588644 4343106 female
-0.7316772 -0.3352877 -0.2194115 -0.9498438 0.1355732 -0.2818096 2039329 female
-0.7717234 0.4850775 -0.068891 0.03082041 0.2055469 0.9781619 15396603 female
-0.8190852 0.0290507 -0.1812737 0.8043817 -0.5148492 -0.29648 2170913 female
-0.9520202 0.6287315 -0.1759346 -0.1568714 0.9003191 0.4059764 12894660 female
-0.6239195 -0.0630645 -0.1133938 0.9135152 -0.08382794 0.3980739 1973537 female
-0.6426015 -0.6608939 -0.2306569 0.9525009 0.06092606 -0.298379 2105376 female
-1.008941 -0.5653499 -0.17342 -0.9930915 -0.1047665 -0.05285189 1579291 female
-0.678923 0.6055414 -0.1902623 0.3054565 0.628675 0.7151672 10264740 female
-0.9399264 -0.2218399 -0.1507321 0.1115847 -0.06497557 -0.9916285 2500140 female
-1.016477 0.2394711 -0.1123682 0.6525033 -0.6466853 -0.3950159 13816027 female
-0.5864485 0.4702331 -0.254153 0.9703168 0.0273563 -0.240285 7171191 female
-1.006669 -0.6532469 -0.124141 -0.6694835 0.6795208 0.3000721 15785175 female
-0.7582858 -0.1951359 -0.163515 -0.9869425 -0.1114148 0.1163237 1579291 female
-0.7207122 0.009125577 -0.05802676 -0.1067658 -0.0295235 0.9938458 2171945 female
-0.7596143 0.4405538 -0.3113452 -0.01198253 -0.2736059 -0.9617673 12237251 female
-0.7844842 0.7658871 -0.1079873 0.153998 -0.3621833 0.9192975 13872049 female
-0.7384851 0.1995354 -0.2939117 0.08881052 0.2802896 -0.9557983 15200255 female
-1.025876 -0.6847 -0.1577386 -0.9163021 -0.02748978 -0.3995432 13414826 female
-0.7576582 0.6444494 -0.1831029 0.6106277 0.3178068 0.7253501 13751003 female
-0.6161491 0.5698148 -0.2716022 0.5910268 0.4035238 -0.6984668 8027273 female
-0.8940585 -0.03241243 -0.2053915 0.1740764 -0.3562628 -0.9180273 2105124 female
-0.6908798 0.5851153 -0.3117288 0.3267573 0.2496915 -0.9115283 16185343 female
-0.8113052 0.7700633 -0.115293 -0.2977081 -0.03632379 0.9539657 15324616 female
-0.8461097 -0.009214914 -0.0545776 0.7288899 -0.163543 0.6648107 2170913 female
-0.654945 -0.5548887 -0.2574844 0.6712357 -0.1444339 -0.7270361 1973281 female
-0.8931877 0.5262435 -0.08052723 -0.3121015 0.5958145 0.7399985 5724514 female
-0.9039878 -0.2307574 -0.1369059 0.6957478 -0.1599434 -0.7002522 2236967 female
-0.782889 0.2993821 -0.04378723 0.155862 0.1444439 0.9771607 7434876 female
-0.6229298 0.1111123 0.0009776128 0.5828304 0.6682337 0.4623553 15123386 female
-0.9547269 0.5017585 -0.1476516 0.6961744 -0.3276675 0.6387293 15725559 female
-0.7407525 0.2511926 -0.04528297 0.4591366 0.1616758 0.8735299 5130576 female
-0.6625158 0.5279161 -0.1653884 0.777764 -0.07020871 0.6246231 10526630 female
-0.9738042 -0.7130055 -0.07593696 0.4036747 -0.9107499 -0.08707189 723723 female
-0.7465601 0.4511932 -0.3147203 0.03901499 -0.2804084 -0.9590876 15725567 female
-0.7708869 0.5440077 -0.1071153 0.02070146 0.6552551 0.755124 9145496 female
-0.7088119 0.5557824 -0.1311813 0.3341443 0.6242204 0.7061844 2697265 female
-0.780645 -0.01853094 -0.2202728 -0.7072091 -0.2990991 -0.6406208 2302243 female
-0.8149028 0.5070503 -0.3112657 -0.2305824 0.261127 -0.9373603 15396607 female
-0.6479558 -0.5786923 -0.2049368 0.7901646 -0.1050703 0.6038213 2434085 female
-0.7524912 0.7177788 -0.1972835 0.9334662 -0.2449393 0.262003 12429467 female
-0.6466626 -0.4970337 -0.188385 0.5456227 -0.1841554 0.8175467 2171428 female
-0.7288734 0.2746369 -0.05816175 0.565981 0.1808309 0.8043417 14342371 female
-0.6841283 0.5969509 -0.1801632 0.3181257 0.5733048 0.7550613 10987956 female
-0.7902595 -0.02418115 -0.1190245 -0.9267079 -0.1922302 0.3228933 1907741 female
-0.7274584 0.03642244 -0.2815495 0.07402585 -0.5625641 -0.823433 2171945 female
-0.6187814 -0.004945689 -0.1252144 0.9455594 -0.01258182 0.3252062 1973537 female
-0.6079593 0.2133646 -0.2059739 -0.2353052 -0.6439036 -0.7280245 3947321 female
-0.7226942 0.8731148 -0.2357429 0.9218068 0.3510594 -0.1644065 2039327 female
-0.6332173 0.4590054 -0.2928379 0.08272131 -0.08191611 -0.9932004 14473451 female
-0.9288643 0.2848065 -0.09722415 -0.7330217 0.2895839 0.6154838 9145493 female
-0.9667184 -0.3062897 -0.06377225 0.05283109 -0.4526592 0.8901172 1776669 female
-1.046999 -0.6922619 -0.09070487 -0.8364793 0.5388421 -0.0997576 13545899 female
-0.6498394 0.1192812 -0.1008129 0.6942339 0.2277751 0.6827575 15330809 female
-0.5842883 0.02366111 -0.06307913 -0.2893623 -0.3205077 -0.9019669 7298908 female
-0.6056904 0.5859507 -0.2342813 0.7417128 0.6679685 -0.06066542 8619406 female
-0.9570285 -0.5988321 -0.1903453 0.9619067 -0.03178994 -0.2715232 1908771 female
-0.6548644 -0.5746964 -0.1979039 0.5499429 -0.07568638 0.8317658 2171172 female
-0.9320974 0.3897365 -0.1325605 -0.8882 0.002483145 0.4594502 12369863 female
-0.788913 0.6253686 -0.1590704 0.0905283 0.5089011 0.8560515 16120317 female
-0.9974048 -0.6212776 -0.1445709 -0.7896038 0.2630628 0.5543678 2236968 female
-0.9836892 0.6127255 -0.2045857 -0.7117392 0.6599793 -0.2405299 11711421 female
-0.7982717 0.2507561 -0.2762692 -0.103516 0.3088668 -0.9454553 13948650 female
-0.6220766 0.5772229 -0.1911823 0.4035836 0.3547758 0.8433591 8947088 female
-1.022555 0.4066263 -0.2097942 -0.5387111 -0.09903683 -0.8366493 5589847 female
-0.9231583 -0.4306888 -0.1573802 0.9827995 -0.1837598 -0.01836872 1842720 female
-0.9360151 -0.01883576 -0.2092118 -0.2241521 -0.3576272 -0.9065642 2763826 female
-0.7466156 0.5341965 -0.09907144 0.1085029 0.6565002 0.7464815 15659774 female
-0.6486003 -0.619011 -0.2051487 0.8795076 0.08246775 0.4686848 2829616 female
-0.6655061 -0.06072843 -0.2356728 0.3879563 -0.1320724 -0.9121659 2303275 female
-1.029045 -0.6823951 -0.09194688 -0.4023968 0.8996085 0.169651 16242386 female
-0.8997921 0.349294 -0.253501 -0.5649382 -0.1905762 -0.8028235 10330288 female
-0.9931377 -0.6514962 -0.1107398 -0.2968206 0.8215089 0.4868477 16774119 female
-0.6788176 -0.09465024 -0.2379752 0.2362902 -0.05327715 -0.9702208 2171945 female
-0.6451233 -0.3269352 -0.1535888 0.6101766 -0.1789659 0.7717874 1777187 female
