# .PCD v0.7 - Point Cloud Data file format
VERSION 0.7
FIELDS x y z normal_x normal_y normal_z rgb label
SIZE 4 4 4 4 4 4 4 4
TYPE F F F F F F U U
COUNT 1 1 1 1 1 1 1 1
WIDTH 170
HEIGHT 1
VIEWPOINT 0 0 0 1 0 0 0
POINTS 170
DATA ascii
-0.8841311 0.1366977 0.8273319 -0.8377357 0.09433775 -0.5378656 8618891 female
-0.5812648 0.1658883 0.7957328 0.6641994 0.07310082 -0.7439728 9803174 female
-0.8697805 -0.429208 0.9213273 0.2596043 -0.2761344 0.9253947 2170913 female
-0.5692144 0.1377723 1.040223 -0.7063374 0.1372593 -0.6944403 15726591 female
-0.5709141 -0.5724984 0.8602641 0.7524148 -0.1778393 0.634228 2171172 female
-0.5754703 -0.1954891 0.9713949 0.5640989 -0.2009652 0.8008779 2170145 female
-0.8139925 0.3696128 0.7911603 -0.5348282 -0.2722268 -0.7999071 15199223 female
-0.9297872 -0.7162786 0.9288516 0.009731118 -0.9961815 -0.08676179 855565 female
-0.8493428 -0.5411683 0.8553378 0.9792653 -0.188639 0.07385693 1776929 female
-0.94938 0.2383668 0.9587643 0.241974 -0.8576132 -0.4538152 10921901 female
-0.9371878 0.4807013 0.8286229 -0.8244392 -0.01536104 -0.565742 13553631 female
-0.8765081 0.257966 0.9127625 -0.8857605 0.4044169 0.2277615 13753065 female
-0.9001095 -0.470078 0.8233461 -0.343109 -0.01125732 -0.9392281 1973537 female
-0.9268329 0.3825044 0.9176485 0.07377198 0.1984345 0.9773339 9079699 female
-0.5065128 0.5043654 0.8044918 0.6677223 0.04127907 -0.743265 9671326 female
-0.5519217 0.02052201 0.9777647 0.7877931 0.03453373 0.6149712 1973536 female
-0.9189596 0.1966717 1.183786 0.7576313 -0.6465993 -0.08890572 7101012 female
-0.8684143 0.0374252 1.010031 -0.4942661 0.1483293 0.8565625 2500651 female
-0.8099334 -0.2408033 0.956467 0.8047418 -0.296367 0.5143512 2105120 female
-0.6034135 -0.5844953 0.8679599 -0.443227 0.05186398 0.8949078 2631471 female
-0.8910341 0.3916545 0.8983936 0.7900671 -0.06787528 0.609251 7040379 female
-0.8586339 0.4286759 0.9096684 -0.892165 -0.3395703 0.2978821 10987703 female
-0.9936761 0.2422065 1.007237 -0.9792826 -0.165613 -0.1165247 4868692 female
-0.6596308 0.3548107 0.9940989 0.4924116 0.1945932 0.8483303 15199231 female
-0.856948 0.3775822 0.8595073 -0.9901057 -0.05589698 -0.1287102 15001836 female
-0.5301698 0.3653364 0.8956714 -0.18171 0.08866061 0.9793471 14147815 female
-0.6391035 0.2306023 1.00986 0.5384581 0.1049698 0.8360886 5461599 female
-0.6291959 0.2221925 0.7842575 0.2450613 0.3019775 -0.9212788 11844804 female
-0.6316458 0.8727143 0.7896771 0.8675268 0.4036182 -0.2906708 2631463 female
-0.6573342 0.4832073 0.9957244 -0.07630911 0.2278027 0.9707125 14606327 female
-0.4876597 0.249649 0.8938685 0.7645658 -0.4742713 -0.4364699 11317177 female
-0.5419319 -0.4189394 0.840259 0.9766474 -0.05329299 -0.2081338 1579808 female
-0.8765968 -0.03988 0.8492082 -0.4657528 -0.2095739 -0.8597402 2631470 female
-0.8083699 -0.205269 0.8892708 0.6963364 -0.09569384 -0.7113075 2171688 female
-0.5651736 -0.6736708 0.8430556 0.9764403 0.1476071 -0.1574055 13087919 female
-0.7208893 0.822627 0.7299218 -0.2063319 -0.1454144 -0.9676166 14338761 female
-0.6432431 0.7632031 0.833872 0.3512544 -0.830429 -0.4324442 12098706 female
-0.8063406 0.6375091 0.7665288 -0.3151092 0.5167699 -0.7960246 12369607 female
-0.8610944 0.1635509 0.9734267 -0.5895126 0.1908543 0.7848883 3552582 female
-0.6837671 0.6030779 0.7483387 -0.06904271 0.183607 -0.980572 13950196 female
-0.553058 -0.1828553 0.9459393 0.9019748 -0.1288629 0.4121114 2105377 female
-0.7173981 0.3341109 1.012577 0.007305847 0.1871998 0.9822947 15199738 female
-0.7419085 0.07006233 0.7753145 0.105959 -0.4471616 -0.888155 2435119 female
-0.6807778 0.2256161 1.030006 0.2697704 0.05693528 0.9612399 15002619 female
-0.9312068 0.5745922 0.8417759 -0.813389 0.5412516 -0.2131786 5856354 female
-0.8530629 0.4082689 0.904909 -0.9219518 -0.2006922 0.3312514 13620448 female
-0.6451536 0.2694964 0.7945679 0.2078989 0.1088088 -0.9720796 15200255 female
-0.7047642 -0.0633579 0.9050771 -0.9712166 -0.2236403 -0.08199571 2433573 female
-0.5299271 -0.03854502 0.9012887 0.9850022 -0.142161 -0.09777991 2105122 female
-0.5398647 0.6083699 0.8473726 0.50357 0.8528852 0.1378556 11645363 female
-0.7954361 0.1385867 1.003634 -0.3042798 -0.0784585 0.9493461 15133438 female
-0.6620541 0.7209292 0.8112198 0.8607028 -0.1635954 -0.4821072 4866113 female
-0.5654539 0.4536207 0.8977148 0.966151 -0.1546254 0.2065024 6973546 female
-0.8735014 -0.319723 0.8432024 0.141761 0.3566732 -0.9234111 2697774 female
-0.933364 0.5493472 0.8248501 -0.7993362 0.3217822 -0.5074622 7171710 female
-0.7503902 0.7118233 0.8035797 -0.8020996 0.1662006 -0.5735972 10981510 female
-0.8696343 -0.1129386 1.010556 -0.3184516 -0.1235328 0.9398555 2171944 female
-0.5411486 0.6041942 0.8648626 0.3697501 0.8103327 0.454583 11185591 female
-0.6824399 0.5479373 0.9473425 -0.04860583 0.6805462 0.7310912 13552859 female
-0.836291 0.01323739 0.8166402 -0.1858465 -0.5085086 -0.8407616 3157808 female
-0.709754 0.8170422 0.9339251 -0.6203355 0.5696121 0.5391901 14072237 female
-0.6527997 -0.1928095 0.9620196 -0.701068 -0.243952 0.670068 2170913 female
-0.8037623 0.4091201 0.7743865 -0.4078065 -0.3657472 -0.8366138 2698546 female
-0.8761106 -0.02239183 1.012864 -0.5027506 0.02201365 0.8641512 2368809 female
-0.5620122 -0.2756834 0.9374537 0.8082654 -0.1891766 0.5576014 2039075 female
-0.8879427 -0.009619284 0.8486024 -0.618025 -0.2497436 -0.745435 2500907 female
-0.6669804 0.4056167 0.9814666 0.3307667 0.2591079 0.9074451 15791103 female
-0.5768902 0.3545471 0.852245 0.9667801 -0.1608939 -0.1986188 13882588 female
-0.9200884 -0.3708649 0.927901 -0.7163685 -0.1314955 0.685219 2565671 female
-0.6322984 -0.2000393 0.9750505 -0.4173116 -0.2398474 0.876541 2170401 female
-0.6886984 0.1776908 1.028249 0.2642537 -0.1876194 0.946028 4606287 female
-0.8437228 -0.2205351 0.878635 0.1954733 -0.04464915 -0.9796921 2565419 female
-0.9085731 -0.6983412 0.8453307 -0.1878615 -0.959334 -0.2106808 921102 female
-0.8051435 -0.2544768 0.9386206 0.9102438 -0.3024117 0.2828486 2038559 female
-0.8794218 0.0849012 0.814927 -0.7517924 -0.02418215 -0.6589563 2565935 female
-0.989662 0.1536494 1.100445 -0.7081037 -0.4968654 -0.501711 15201279 female
-0.8369254 0.001263565 0.8235968 -0.1378209 -0.4371009 -0.8887902 2566447 female
-0.9122049 -0.6615341 0.8264139 -0.87072 0.275488 -0.4073734 15717326 female
-0.5484746 0.2179109 0.9718489 -0.8982581 0.3089432 0.3125482 14147056 female
-0.6223075 -0.0862136 1.003145 -0.1050419 -0.1901204 0.9761252 2171944 female
-0.9873259 0.256335 1.033136 -0.768141 0.5284649 0.3615029 6250344 female
-0.5633996 0.4799576 0.8672664 0.952894 -0.1827283 0.2420815 14079966 female
-0.9612879 0.4013002 0.891365 -0.8706565 0.3558005 0.3396518 12042183 female
-0.9118022 -0.369979 0.9373219 -0.5243365 -0.1728441 0.8337843 2631464 female
-0.8738527 -0.3158727 0.8447145 0.1361115 0.3688419 -0.9194723 2697516 female
-0.8352154 0.4001218 0.8048326 -0.7661176 -0.2839394 -0.576578 5460312 female
-0.680405 -0.1628502 0.896758 -0.9799982 -0.1269985 -0.1532152 1841436 female
-0.5281856 0.06408189 0.9257994 0.9664567 0.06828663 0.2475851 1908257 female
-0.6531497 0.8181262 0.7483155 0.6708786 -0.1681789 -0.722245 3420972 female
-0.5674369 0.07605047 1.120401 0.4787455 -0.7965054 -0.3692993 4734779 female
-0.7722705 -0.04909698 0.8601893 0.6171376 -0.3180514 -0.7197114 2498854 female
-0.7631059 0.09776014 0.7632966 0.0436469 -0.1876235 -0.9812708 5263457 female
-0.8996996 -0.1785794 0.9874927 -0.7160016 -0.08781824 0.692553 2170657 female
-0.8247329 0.2839208 0.8113572 -0.5476562 0.1309544 -0.8263919 5524558 female
-0.6779936 -0.14778 0.8789152 -0.9044046 -0.1351316 -0.404712 2170913 female
-0.5713931 0.282587 0.8666714 0.9551916 0.1683355 -0.2434589 4343106 female
-0.6533121 -0.3639578 0.8531903 -0.9979221 0.04887718 -0.04198264 1776161 female
-0.7009045 0.5067157 0.9792666 -0.06987032 0.4564059 0.8870241 14015206 female
-0.7254088 0.03632627 0.8636551 0.4953541 -0.8314798 -0.2515267 1315860 female
-0.8621491 0.6311015 0.8511618 -0.1681751 0.9298549 0.3272415 12894660 female
-0.548103 -0.0658643 0.9697737 0.8501093 -0.1075107 0.515515 1973537 female
-0.5670488 -0.659889 0.8330678 0.9849311 0.04230414 -0.1676938 2105376 female
-0.8677573 -0.4086011 0.9271175 0.2687881 -0.2783283 0.9221097 2170913 female
-0.5939537 0.6054347 0.8771848 0.1689692 0.6623161 0.7299225 10264740 female
-0.8433611 -0.2263688 0.8794196 0.2142854 -0.0454453 -0.9757133 2500140 female
-0.9323559 0.2537803 0.9467329 0.6800148 -0.6855397 -0.2600291 13816027 female
-0.4939808 0.4587556 0.8308579 0.9677272 -0.0003474316 -0.2519999 15461628 female
-0.9158539 -0.6623679 0.9118593 -0.6102422 0.741241 0.2795821 16311770 female
-0.6779072 -0.1943531 0.90224 -0.9962105 -0.08544528 -0.01623911 1579291 female
-0.6494194 0.008754333 1.011785 -0.2389788 -0.0279052 0.9706237 2171945 female
-0.6174184 0.423771 0.7655585 0.4133128 -0.3938107 -0.8210272 9606042 female
-0.7050276 0.7569536 0.9371185 0.2028226 -0.06539112 0.9770297 14004404 female
-0.6362138 0.1988892 0.7751463 0.2043909 0.275993 -0.9391763 15200255 female
-0.8973351 -0.7039125 0.8840476 0.1451705 -0.9862003 -0.07959019 722698 female
-0.7003492 0.6457292 0.88367 0.1364405 0.151331 0.9790214 13357275 female
-0.5365236 0.5218955 0.7844757 0.3439593 -0.2495298 -0.905222 9409180 female
-0.8093898 -0.0456458 0.842033 0.2033836 -0.2835087 -0.9371542 2500652 female
-0.5841187 0.5798131 0.7568378 0.4820082 0.2181703 -0.8485693 16185343 female
-0.7362109 0.766484 0.92358 -0.4151752 -0.1643951 0.8947647 15260103 female
-0.8054184 0.002481253 1.01731 0.2617156 -0.03494317 0.9645123 2171171 female
-0.5729321 -0.5526644 0.8093707 0.7569911 -0.1378419 -0.6387206 1973281 female
-0.8379858 0.5242212 0.9449865 -0.6304528 0.4744714 0.6143339 13949156 female
-0.8088982 -0.2350018 0.8967333 0.7649287 -0.1372172 -0.6293294 2236967 female
-0.7048964 0.2895596 1.019992 0.03892587 0.2255234 0.9734598 15202303 female
-0.6045157 0.1325362 1.118817 -0.02401191 0.9724174 0.232008 16179669 female
-0.8684396 0.5243142 0.8877609 0.4934041 -0.387025 0.7789506 8684168 female
-0.6567258 0.2387197 1.018858 0.4448565 0.1377027 0.8849523 13357798 female
-0.5862218 0.5337498 0.9122481 0.6106139 0.1495485 0.7776798 9343641 female
-0.8790989 -0.7080165 0.9582632 0.9351126 -0.3279146 0.1342996 6706519 female
-0.6490597 0.4446353 0.7474287 0.1364246 -0.3035006 -0.9430142 15462391 female
-0.7274055 0.5436887 0.950145 0.1497354 0.6845607 0.7134115 6315623 female
-0.6109769 0.4864905 0.9841406 0.5032099 0.2979864 0.8111621 7895428 female
-0.6733919 -0.05067021 0.8436928 -0.5367359 -0.2204113 -0.8144529 2237481 female
-0.7102207 0.4869174 0.7371637 -0.05787916 -0.009473337 -0.9982787 15526648 female
-0.5755604 -0.5897864 0.8609648 0.703486 -0.1106007 0.7020506 1907998 female
-0.6637392 0.7013853 0.8547848 0.8621808 -0.1071839 0.4951321 14993595 female
-0.5906429 -0.4612294 0.8939342 -0.05849716 -0.2481669 0.9669494 2105379 female
-0.6559046 0.2576412 1.014181 0.4552801 0.1867762 0.870537 12895958 female
-0.6004789 0.5970135 0.8863862 0.1801686 0.6074643 0.773645 10987956 female
-0.7109552 -0.02283498 0.942044 -0.9654602 -0.171164 0.1964418 1907741 female
-0.6352005 0.04767799 0.7813957 0.1471868 -0.4578156 -0.8767787 2368300 female
-0.5396746 -0.007513018 0.9589632 0.8937593 -0.03407966 0.4472505 1973537 female
-0.5537146 0.2742326 0.8970117 -0.9865313 0.08284241 0.1410432 15198199 female
-0.6238992 0.8583795 0.8336076 0.9777306 0.1648842 0.1298304 2368292 female
-0.5392131 0.4611225 0.7914156 0.1010303 -0.1955434 -0.9754772 11184050 female
-0.8490771 0.2999977 0.9403899 -0.8301527 0.2410973 0.5027112 14146793 female
-0.8891315 -0.3206275 0.9556698 -0.2500425 -0.2951733 0.9221451 2301987 female
-0.969991 -0.7008312 0.9571521 -0.974084 0.2200905 -0.05216002 2038037 female
-0.5709942 0.1183868 0.9792973 0.6021802 0.2194168 0.7676166 15330809 female
-0.5465655 0.04403928 1.06643 -0.9019509 -0.223617 -0.369432 9797500 female
-0.519583 0.5898535 0.8568962 0.6581337 0.7123559 0.2437397 12369597 female
-0.8579792 -0.5892551 0.8495399 0.9953915 -0.09501827 -0.01293541 1973022 female
-0.5887327 -0.3802451 0.9147087 0.01000616 -0.2334896 0.9723078 2170403 female
-0.8513305 0.3893471 0.9058827 -0.9407949 0.007630938 0.3388903 12369863 female
-0.6775984 0.6301305 0.8829287 0.2766841 0.6243602 0.7304931 15396082 female
-0.9055527 -0.6279781 0.8833226 -0.8303344 0.2795457 0.4820776 2236968 female
-0.8910667 0.6140301 0.8204601 -0.6593713 0.6609173 -0.3583544 11711421 female
-0.6981893 0.2489802 0.7850867 0.01264612 0.2956778 -0.955204 13948650 female
-0.5491395 0.5680171 0.8927433 0.08994809 0.2797537 0.955849 11316404 female
-0.908829 0.3198657 0.8689036 0.6862715 -0.5109292 -0.5176706 9147031 female
-0.828486 -0.4382555 0.8748565 0.9788976 -0.1922618 0.06924512 1842720 female
-0.826895 0.006430192 0.8207898 -0.06180977 -0.4879791 -0.8706641 2895412 female
-0.6637669 0.531864 0.9626439 0.02962118 0.6742678 0.7378926 14606319 female
-0.5612254 -0.5389783 0.8274694 0.9330664 -0.1797674 -0.3115617 1579035 female
-0.5726936 -0.06221902 0.8431019 0.5029291 -0.1406695 -0.8528039 2303275 female
-0.9592708 -0.6955498 0.9559259 -0.2212436 0.954916 0.1979563 7953235 female
-0.7955325 0.3318999 0.7908432 -0.3464603 -0.1946226 -0.9176532 15398143 female
-0.9028946 -0.6615252 0.9252121 -0.2030558 0.8553121 0.4766651 16443357 female
-0.5872787 -0.1219006 0.8395023 0.3492218 -0.0629022 -0.9349265 2171945 female
-0.5705841 -0.329414 0.9240654 0.4985574 -0.2261302 0.8368426 1777187 female
