# .PCD v0.7 - Point Cloud Data file format
VERSION 0.7
FIELDS x y z normal_x normal_y normal_z rgb label
SIZE 4 4 4 4 4 4 4 4
TYPE F F F F F F U U
COUNT 1 1 1 1 1 1 1 1
WIDTH 170
HEIGHT 1
VIEWPOINT 0 0 0 1 0 0 0
POINTS 170
DATA ascii
-0.8723037 0.1388277 0.8268733 -0.8273081 0.1015799 -0.5524879 8618891 female
-0.5519156 0.1549906 0.8225502 0.8036934 0.05090372 -0.5928624 11121347 female
-0.8922915 -0.4662067 0.9074951 -0.3571929 -0.2404649 0.9025463 2171174 female
-0.5489398 0.1027261 1.065989 -0.7234607 -0.6903045 -0.009186642 8877942 female
-0.5497579 -0.5527817 0.868227 0.8204253 -0.1836606 0.5414526 2171937 female
-0.6413681 -0.19248 0.9628018 -0.7043173 -0.2487829 0.6648641 2170913 female
-0.8025633 0.37229 0.7962529 -0.5285171 -0.2644341 -0.8066872 15199223 female
-0.9421225 -0.7138451 0.9709446 -0.217048 -0.975411 0.03825665 526344 female
-0.8304681 -0.1660734 0.9974505 0.2261471 -0.2211037 0.9486678 2039072 female
-0.9410298 0.2279975 0.9308597 0.2719143 -0.7953218 -0.5417802 10921901 female
-0.935137 0.4851187 0.8561871 -0.9909144 0.1313967 0.02869719 7829376 female
-0.8640735 0.2571329 0.9242461 -0.8735472 0.3818012 0.3018993 14476786 female
-0.8955448 -0.4701307 0.8219415 -0.5252442 -0.0477579 -0.8496103 2170401 female
-0.9144916 0.3779692 0.906305 0.07879683 0.1136314 0.9903933 8224648 female
-0.4848399 0.5158309 0.8221921 0.8690091 0.1602349 -0.4681324 12434634 female
-0.5365199 -0.01257123 0.9756362 0.8317503 -0.02820911 0.5544328 1973536 female
-0.9305814 0.1558313 1.15518 0.009549047 -0.9922944 0.1235338 7363671 female
-0.8609266 0.03579436 1.006752 -0.5200746 0.126596 0.8446868 2500651 female
-0.7943779 -0.2577882 0.9280126 0.9066967 -0.3109976 0.2849236 2169889 female
-0.5884548 -0.6089777 0.8802624 -0.3904852 0.2243136 0.8928632 2367780 female
-0.879354 0.4010524 0.8909994 0.7204687 -0.08968487 0.6876639 13224148 female
-0.8479912 0.4308358 0.9148934 -0.8950912 -0.3383477 0.2904005 10987703 female
-0.9865063 0.2148779 0.9800994 -0.9001637 -0.2971419 -0.3184524 13028569 female
-0.6476575 0.3480743 1.000335 0.5136132 0.1738597 0.8402227 15200255 female
-0.8460951 0.3798852 0.8643222 -0.9891173 -0.05167719 -0.1377545 15001836 female
-0.5167122 0.3954801 0.891418 -0.02852965 0.06576397 0.9974273 15725047 female
-0.6325042 0.269778 1.007832 0.5368302 0.192593 0.8214143 6184287 female
-0.5974198 0.2266306 0.7980369 0.4123202 0.3213935 -0.852466 6514804 female
-0.6193513 0.873991 0.7938993 0.8687968 0.3965018 -0.2966118 2631463 female
-0.7065234 0.4059896 0.9969215 0.02182184 0.3556242 0.9343743 6184292 female
-0.4633274 0.2535269 0.8893974 0.9278671 -0.2310012 -0.2927473 13158615 female
-0.5296475 -0.4388676 0.8437921 0.9764109 -0.08729232 -0.1974886 1579553 female
-0.8477591 -0.03902786 0.8387128 -0.2561541 -0.2050095 -0.9446461 2105896 female
-0.7984037 -0.2026943 0.8786932 0.6687825 -0.08326767 -0.7387804 2171944 female
-0.5498067 -0.6739404 0.8552084 0.9790807 0.1446278 -0.1431216 13087919 female
-0.7087874 0.8233645 0.7349311 -0.2074665 -0.1584854 -0.9653186 14338761 female
-0.6339776 0.7586648 0.878599 0.9469687 -0.2805356 0.1566848 15851728 female
-0.7993131 0.6510783 0.7850975 -0.3980422 0.661987 -0.6350871 13293286 female
-0.8475943 0.1506283 0.9800025 -0.5214241 0.248316 0.8163676 14015981 female
-0.6741112 0.5911665 0.7525234 -0.1138991 0.1722779 -0.9784413 14541555 female
-0.5888759 -0.1530339 0.9913179 0.1842536 -0.2479621 0.9510865 1842723 female
-0.7166463 0.3537342 1.013731 -0.0488876 0.2509948 0.9667531 15067640 female
-0.7290049 0.07332394 0.7765291 0.1242118 -0.4322937 -0.8931369 2435119 female
-0.67751 0.197835 1.034888 0.2351161 -0.1409815 0.9616885 4734801 female
-0.9208587 0.5736501 0.8441963 -0.8237104 0.5307221 -0.1995874 4934995 female
-0.8424677 0.410408 0.9100251 -0.9250416 -0.1993568 0.3233496 13620448 female
-0.6249312 0.2691326 0.8019426 0.2927372 0.1584696 -0.94297 13752817 female
-0.688739 -0.08050337 0.9121798 -0.9688458 -0.245463 -0.03295279 2237218 female
-0.5225201 -0.05648285 0.9231627 0.9881139 -0.1287716 0.08395783 1908509 female
-0.5676894 0.613571 0.8707206 0.1369146 0.7619401 0.63301 15922171 female
-0.7873159 0.1378797 1.004558 -0.3253232 -0.09615968 0.9407009 15133438 female
-0.6367567 0.7548398 0.8222662 0.8931864 -0.3815919 -0.2379194 3551790 female
-0.558601 0.4473777 0.8099915 0.8524451 -0.3648019 -0.3745087 13553878 female
-0.8780714 -0.3419823 0.8259205 -0.1308541 0.2737061 -0.9528705 2434089 female
-0.9148087 0.5458976 0.8140253 -0.6555539 0.235671 -0.7174317 9078681 female
-0.7387394 0.7138642 0.81024 -0.8021958 0.1627915 -0.5744395 10981510 female
-0.8615245 -0.1145075 1.003445 -0.3463831 -0.1458002 0.9266936 2171944 female
-0.5736151 0.5968764 0.8881864 0.1400731 0.6091536 0.780584 13751265 female
-0.6742486 0.5388151 0.964734 -0.03280563 0.6840723 0.7286761 15660798 female
-0.8233835 0.01591995 0.8143382 -0.1617837 -0.4917958 -0.8555483 3157808 female
-0.7092644 0.8071799 0.9305742 -0.6013613 0.30965 0.7365333 14795706 female
-0.5338621 -0.1977792 0.9040047 0.9961227 -0.02168578 -0.08526052 2170921 female
-0.7921475 0.4117071 0.7799186 -0.4022569 -0.3606073 -0.8415176 2698546 female
-0.8508578 -0.03280315 1.014813 -0.2718211 -0.04746478 0.9611766 2500142 female
-0.5701581 -0.2671934 0.9614123 0.4552 -0.3069273 0.8358161 2170402 female
-0.8755664 -0.007652387 0.8439724 -0.5954486 -0.2351258 -0.7682167 2500907 female
-0.651021 0.4098507 0.9842919 0.3505924 0.1608202 0.9226168 15200255 female
-0.5839244 0.3280445 0.9467671 0.7821937 0.1969752 0.5910786 6183780 female
-0.9097062 -0.3711269 0.9190546 -0.7338036 -0.1077412 0.6707639 2565671 female
-0.5675864 -0.1981428 0.9736744 0.5087712 -0.1954616 0.8384191 2170403 female
-0.685392 0.1533102 1.028002 0.2528 -0.2265608 0.9406181 12303563 female
-0.8310835 -0.220281 0.8687754 0.2231422 -0.04117712 -0.9739158 2565419 female
-0.8965812 -0.7023531 0.8535959 -0.07614007 -0.9873309 -0.1392133 789772 female
-0.7954611 -0.2144786 0.9537049 0.8240034 -0.2704533 0.497869 1841436 female
-0.8626518 0.08642038 0.8088459 -0.7047374 -0.02429407 -0.7090521 2434093 female
-0.9925318 0.1720191 1.068087 -0.9042399 0.2653789 0.3345507 7699066 female
-0.8240579 0.003868653 0.8209179 -0.1118775 -0.4183635 -0.9013631 2566447 female
-0.9087104 -0.6788195 0.8334705 -0.9201831 0.1237853 -0.3714029 11705240 female
-0.5170078 0.1708108 1.003673 -0.6485591 0.5197957 0.5560427 14674677 female
-0.6608539 -0.07262734 0.9870983 -0.633622 -0.249686 0.7322432 2105635 female
-0.9615186 0.2735817 0.9816678 -0.09104663 0.6549027 0.7502087 10396585 female
-0.5492529 0.4728425 0.8373588 0.9167981 -0.394507 0.06201207 10132382 female
-0.9500309 0.3989046 0.8798555 -0.8891851 0.3231488 0.3239208 12042183 female
-0.9016444 -0.3700358 0.9286415 -0.5458075 -0.1462063 0.8250564 2631464 female
-0.8814322 -0.3421363 0.8258198 -0.1872888 0.2712199 -0.94412 2302505 female
-0.823836 0.4026328 0.8100567 -0.7621735 -0.2795637 -0.5838969 5460312 female
-0.6770262 -0.1035923 0.8842099 -0.9098486 -0.2175253 -0.3533528 2170913 female
-0.5179408 0.03243814 0.9381529 0.9566703 0.001313792 0.2911702 1974307 female
-0.6410567 0.8188872 0.7533368 0.6698647 -0.1804869 -0.7202123 3420972 female
-0.5392672 0.05803643 1.101221 -0.9245269 -0.1523356 -0.349348 10852751 female
-0.7600309 -0.04693574 0.8580265 0.6388571 -0.299109 -0.7087986 2498854 female
-0.7501531 0.1011776 0.7645158 0.06200331 -0.171638 -0.9832069 5263457 female
-0.8720356 -0.1528207 0.9939193 -0.4444925 -0.1507648 0.8830042 2172969 female
-0.8133809 0.2864668 0.8147568 -0.5359934 0.1413925 -0.8322976 5524558 female
-0.666877 -0.1752306 0.8957192 -0.9812859 -0.1044519 -0.1617642 1710363 female
-0.5553552 0.273159 0.8981339 0.9575446 0.2847184 0.04520814 14673128 female
-0.6156113 -0.2478457 0.8526465 -0.2403106 -0.004326876 -0.9706864 2565677 female
-0.7025456 0.5033304 0.9878544 -0.009763235 0.3952289 0.9185308 14738420 female
-0.7132934 0.03979154 0.8570904 0.2825145 -0.9283543 -0.2415449 1842204 female
-0.858054 0.6289812 0.8608382 -0.1954844 0.9174472 0.3465207 11117481 female
-0.5375625 -0.09248274 0.9619039 0.8856005 -0.1328084 0.4450547 1841953 female
-0.5530263 -0.6520891 0.832735 0.9560224 -0.01853427 -0.2927074 1842207 female
-0.8576734 -0.4092174 0.9207007 0.2438579 -0.2538292 0.9360043 2170913 female
-0.5180273 0.6024423 0.8441607 0.6346892 0.7710203 -0.05193659 9013393 female
-0.830751 -0.226285 0.8694971 0.2414927 -0.0442026 -0.9693954 2500140 female
-0.9233831 0.2447364 0.9219157 0.6969338 -0.6502671 -0.3023838 13816027 female
-0.4814458 0.484052 0.8577217 0.9532399 0.03373148 0.3003265 10725291 female
-0.9044353 -0.6259862 0.8518599 -0.9955641 0.09389036 0.006060664 1907741 female
-0.6677504 -0.1306449 0.8769456 -0.875708 -0.165831 -0.4534706 2170657 female
-0.623648 0.02074715 1.017049 -0.07266556 0.01570066 0.9972327 2237481 female
-0.6449782 0.4380995 0.7566665 0.1235693 -0.30216 -0.9452143 12237251 female
-0.6908702 0.7394183 0.9404449 0.28979 -0.1270883 0.948615 16245465 female
-0.5886647 0.1517166 0.7839528 0.5388688 0.06706819 -0.8397156 12106953 female
-0.9304791 -0.7082804 0.8901356 -0.4722906 -0.7763665 -0.4173687 921102 female
-0.6388463 0.6641311 0.8457168 0.7895157 0.4879213 0.3722872 12363155 female
-0.5268809 0.5410317 0.7852376 0.4642017 -0.06486429 -0.8833512 15200247 female
-0.7966534 -0.0431812 0.8388896 0.2316858 -0.260737 -0.9371969 2500652 female
-0.5647527 0.5564426 0.7644839 0.5011005 -0.01420259 -0.8652725 11186367 female
-0.7339406 0.7697526 0.9241228 -0.5770311 -0.07918382 0.8128746 16574676 female
-0.7980921 0.0007988908 1.015141 0.2321618 -0.05721762 0.9709929 2171171 female
-0.5616859 -0.52749 0.810459 0.5191333 -0.1107837 -0.8474831 2697264 female
-0.8244884 0.5193131 0.9614959 -0.6019396 0.5117201 0.6130344 14935794 female
-0.7967723 -0.2348709 0.8878016 0.7812098 -0.1352346 -0.6094447 2236967 female
-0.7042487 0.3025571 1.021861 0.01689879 0.1586928 0.9871833 7434876 female
-0.5512008 0.1210881 1.076899 -0.07996107 0.9074171 0.4125535 16770780 female
-0.8571009 0.4975029 0.8808632 0.7496668 -0.2957226 0.5920708 9277338 female
-0.6618921 0.2532595 1.026698 0.3303365 0.1720227 0.9280549 5130576 female
-0.5751607 0.5274938 0.9261949 0.700389 0.1993479 0.6853581 14015205 female
-0.8695201 -0.6911479 0.9427932 0.9256784 0.2422304 0.2905923 12231836 female
-0.6314067 0.4484322 0.7548364 0.1736492 -0.3100945 -0.9347124 15725567 female
-0.7303514 0.5399782 0.9667346 0.1091151 0.6790075 0.7259771 15396344 female
-0.6046275 0.5113696 0.9772381 0.4090912 0.5827755 0.7021518 14607854 female
-0.6753619 -0.0155785 0.8444524 -0.6084549 -0.2797068 -0.7426619 2302243 female
-0.6806259 0.4905292 0.7420341 -0.07483602 -0.06154547 -0.9952948 15463935 female
-0.5767252 -0.3101862 0.824011 0.06068419 0.3594733 -0.9311801 2237738 female
-0.652013 0.7036648 0.8614137 0.8624426 -0.1047346 0.4952003 14993595 female
-0.5775832 -0.4272306 0.9077798 -0.0790212 -0.2254772 0.9710385 2171431 female
-0.6485485 0.277588 1.015476 0.4456775 0.1963446 0.8733959 14342371 female
-0.5172897 0.5987396 0.865912 0.5330649 0.7577739 0.376325 5724511 female
-0.699953 -0.01102864 0.9573526 -0.9428104 -0.1511038 0.2971131 2434085 female
-0.6225029 0.05082672 0.7841461 0.1637664 -0.4450582 -0.8803998 2368300 female
-0.5145822 0.008702233 0.9135035 0.9963179 -0.07264548 0.04553215 1776161 female
-0.5323853 0.2365396 0.8894003 -0.8775549 -0.358804 -0.3180519 11581120 female
-0.6116301 0.860254 0.8380346 0.9783644 0.1635115 0.1267556 2368292 female
-0.5173504 0.465565 0.7936869 0.3052035 -0.08984063 -0.9480398 9277854 female
-0.8393602 0.3010589 0.9438758 -0.8358134 0.235914 0.4957425 14146793 female
-0.8790417 -0.3204451 0.9459534 -0.2750587 -0.2719956 0.9221503 2301987 female
-0.9462647 -0.6936966 0.9417366 -0.3884181 0.9195088 0.06029186 16768982 female
-0.5307978 0.05664429 0.9621531 0.8632194 0.07286869 0.499542 1776675 female
-0.496544 0.02903144 1.040218 0.9811188 -0.07548532 -0.178067 16572379 female
-0.5069042 0.5880868 0.8370689 0.7291367 0.6333967 -0.2591686 13554654 female
-0.8465574 -0.5860115 0.8443547 0.9887425 -0.1401422 -0.05242489 1907745 female
-0.5811452 -0.5087407 0.8880146 -0.135207 -0.1850203 0.9733892 2301987 female
-0.8408303 0.3914167 0.9108418 -0.9435449 0.008990489 0.3311225 12369863 female
-0.6660774 0.6320068 0.8901599 0.2807291 0.6210058 0.7318081 15396082 female
-0.8967778 -0.6732846 0.9434007 -0.1138721 0.8877579 0.4460035 14596789 female
-0.8862572 0.6156362 0.8362699 -0.6341616 0.7350973 -0.2397312 12303039 female
-0.6749519 0.2722997 0.7961054 -0.01313461 0.1921607 -0.9812755 15201279 female
-0.5210238 0.5804465 0.8885069 0.3453404 0.4277077 0.835348 9802653 female
-0.918611 0.4092685 0.8203271 -0.4281398 -0.123347 -0.8952551 5589847 female
-0.8172339 -0.4425336 0.8636448 0.9815264 -0.1836617 -0.05361211 2040358 female
-0.8467841 0.03818658 0.8117782 -0.4549078 -0.3762595 -0.8071479 2631465 female
-0.645315 0.5392119 0.9631235 0.08115388 0.6851615 0.7238563 12765138 female
-0.5505613 -0.5856406 0.8463719 0.9884096 -0.138675 -0.06177087 1578779 female
-0.5899472 -0.09113859 0.8372728 0.1939622 -0.05973884 -0.9791884 2106409 female
-0.9417601 -0.6965908 0.9641106 -0.2030883 0.9628275 0.1780966 16243670 female
-0.7841255 0.334679 0.7955611 -0.3368071 -0.1844088 -0.9233387 15398143 female
-0.9091486 -0.6789751 0.9435273 -0.3149956 0.8932101 0.3208638 16241870 female
-0.5782191 -0.1271931 0.8415056 0.3175481 -0.06545032 -0.9459807 2171688 female
-0.5608292 -0.3232449 0.9284991 0.4607709 -0.2396701 0.8545457 1908773 female
