# .PCD v0.7 - Point Cloud Data file format
VERSION 0.7
FIELDS x y z normal_x normal_y normal_z rgb label
SIZE 4 4 4 4 4 4 4 4
TYPE F F F F F F U U
COUNT 1 1 1 1 1 1 1 1
WIDTH 170
HEIGHT 1
VIEWPOINT 0 0 0 1 0 0 0
POINTS 170
DATA ascii
-0.9557959 0.1499797 -0.2486377 -0.7462336 0.05780341 -0.6631698 14936567 female
-0.6827123 0.1655086 -0.2811641 0.5660681 0.07054384 -0.8213347 9803174 female
-0.9611681 -0.4223036 -0.1076153 0.3443799 -0.2850269 0.8945178 2170913 female
-0.6240256 0.1224227 -0.06215421 -0.8596382 0.2634155 -0.4377607 13354698 female
-0.6768863 -0.3009283 -0.2484735 -0.05653038 0.3679678 -0.9281186 2698289 female
-0.6480246 -0.1930812 -0.1087818 0.6709833 -0.17827 0.7197231 2170145 female
-0.9189064 0.3507282 -0.2362511 -0.7614776 -0.1686647 -0.6258627 6251625 female
-0.9817027 -0.6974522 -0.1333178 0.2479672 -0.9578654 -0.1449354 3946293 female
-0.9455964 -0.5331388 -0.1769267 0.9838319 -0.1783201 -0.01663349 1776929 female
-1.033692 0.2223155 -0.1029372 0.2018811 -0.78067 -0.5914375 10921901 female
-1.034256 0.4814511 -0.1704448 -0.9782751 0.132874 0.1591301 7829376 female
-0.9067378 0.3300348 -0.2473173 -0.6141513 -0.08153757 -0.7849648 7566207 female
-0.9997303 -0.4622172 -0.203136 -0.4256691 -0.002787237 -0.9048746 1973537 female
-0.9833986 0.3792963 -0.1388268 0.6997037 -0.05929674 0.7119682 14213617 female
-0.5910696 0.5542426 -0.2396228 0.9084954 0.3994781 -0.1226921 13620701 female
-0.629674 0.02265827 -0.1055209 0.8619374 0.05398785 0.5041321 1973536 female
-0.9947711 0.1442296 0.1156809 0.4117056 -0.9097678 -0.05311399 6179653 female
-0.8774871 0.06750499 -0.03585101 0.3059382 0.2038681 0.9299675 2434601 female
-0.9063726 -0.2698841 -0.1200144 0.9040391 -0.2390412 -0.3543624 1973278 female
-0.6691507 -0.5614479 -0.1926061 0.009660147 -0.0434511 0.9990088 2171937 female
-0.9749816 0.3963138 -0.1453466 0.8013797 -0.1113435 0.5877016 13224148 female
-0.9397986 0.4229402 -0.1349015 -0.8555592 -0.3518969 0.3797196 14082023 female
-1.075782 0.2401434 -0.05960006 -0.9875302 0.09531706 0.125295 14474476 female
-0.7293732 0.3433954 -0.07259538 0.6286877 0.1504219 0.7629712 15200255 female
-0.9446432 0.4081357 -0.1646726 -0.9627991 -0.2099553 0.170108 3553086 female
-0.6280019 0.3684797 -0.2020229 -0.2876857 -0.03382208 0.9571275 7829371 female
-0.7144923 0.266692 -0.06869084 0.6511891 0.1769011 0.73801 6184287 female
-0.730836 0.2226268 -0.28632 0.1304935 0.3068517 -0.9427691 11844804 female
-0.732214 0.8770127 -0.2608738 0.8121669 0.423608 -0.4011748 2631463 female
-0.7190765 0.4983733 -0.07550538 0.1616365 0.4952686 0.8535705 15593213 female
-0.5905489 0.2539354 -0.2360525 0.2846914 -0.5498408 -0.7852553 12237763 female
-0.6253758 -0.4193711 -0.2368463 0.9419116 -0.03612224 -0.3339127 1579808 female
-0.9726131 -0.03754669 -0.1868552 -0.5676119 -0.2263539 -0.7915685 2631470 female
-0.9048877 -0.2021181 -0.1457686 0.6134464 -0.1292969 -0.7790801 2171688 female
-0.6398765 -0.6745082 -0.2206023 0.9421633 0.1656193 -0.2913735 13087919 female
-0.8289648 0.8279786 -0.3086126 -0.3452498 -0.1134992 -0.9316224 14338761 female
-0.7315301 0.7714292 -0.2115144 0.9578645 -0.2247865 0.1787922 16704213 female
-0.913828 0.656004 -0.2424638 -0.5258965 0.7784503 -0.3427071 11582152 female
-0.9565817 0.1799818 -0.08784069 -0.6821829 0.2078443 0.7010188 7039086 female
-0.7822021 0.5974005 -0.3078385 -0.238489 0.2270421 -0.9442324 13094624 female
-0.647737 -0.1656346 -0.1038447 0.6729671 -0.1871967 0.7155926 1974050 female
-0.7958598 0.3494531 -0.04949549 0.08980918 0.2302806 0.9689713 15067640 female
-0.8636464 0.0603322 -0.277163 -0.006144624 -0.4853368 -0.8743057 2566703 female
-0.7506024 0.2370912 -0.03827789 0.3907853 0.1286426 0.9114482 12502226 female
-1.021461 0.5697371 -0.1812522 -0.8454912 0.5297114 -0.06745683 4934995 female
-0.9339953 0.4082646 -0.1327561 -0.871159 -0.2079859 0.4447739 13620448 female
-0.7155536 0.2875375 -0.2673412 0.3645479 -0.02516903 -0.9308444 13488354 female
-0.7886053 -0.06488749 -0.1570223 -0.9677795 -0.246869 0.04958349 2433573 female
-0.6166226 -0.03607349 -0.1843154 0.9660885 -0.1202353 -0.2285091 2105122 female
-0.6543117 0.6126381 -0.2095177 0.2102265 0.8215846 0.5299091 13422293 female
-0.8664681 0.1090564 -0.04621467 0.1407718 0.08482652 0.9864014 2566703 female
-0.7406471 0.7734842 -0.2474149 0.7990539 -0.4691514 -0.376045 2499619 female
-0.6496576 0.4535951 -0.1776219 0.9850544 -0.1598099 0.06425382 6973546 female
-0.938628 -0.2892701 -0.1563492 0.5879239 0.301784 -0.7505144 2697257 female
-1.014436 0.5391755 -0.2209031 -0.6210431 0.1690883 -0.76532 14080999 female
-0.8429463 0.7230577 -0.240401 -0.8622619 0.07536787 -0.5008235 5984074 female
-0.9358264 -0.1111377 -0.02213484 0.01035707 -0.1058824 0.9943247 2171944 female
-0.6613474 0.6005588 -0.1938191 0.1909301 0.6604746 0.7261673 16251135 female
-0.7882531 0.531303 -0.09021612 0.1435596 0.6679049 0.7302696 14146792 female
-0.9052994 -0.04352129 -0.2021498 0.09433509 -0.3261727 -0.9405915 2500651 female
-0.7955295 0.7974001 -0.1043244 -0.8308538 0.2779016 0.4821335 13872292 female
-0.7259541 -0.1924651 -0.1077221 -0.5978323 -0.2547986 0.7600489 2170913 female
-0.9024904 0.4134051 -0.268627 -0.5196985 -0.3341205 -0.786306 2698546 female
-0.9531328 -0.01376627 -0.02418453 -0.3989733 0.07099447 0.9142101 2368809 female
-0.6371225 -0.2728726 -0.1436649 0.8797306 -0.1514124 0.4507199 2039075 female
-1.001755 -0.1201761 -0.1398019 -0.916626 -0.04162884 -0.3975724 2170145 female
-0.7340369 0.4052061 -0.08636961 0.4781737 0.1313786 0.8683833 15200255 female
-0.6741396 0.3241538 -0.135115 0.8598585 0.1760334 0.4792241 6183780 female
-0.9959833 -0.2817622 -0.16306 -0.3805766 0.4217875 -0.8229561 2303275 female
-0.7037183 -0.1989933 -0.09756611 -0.2888821 -0.2406352 0.9266292 2170401 female
-0.7577167 0.1687533 -0.03957411 0.4089814 -0.2114939 0.8876962 15133177 female
-0.9413804 -0.2161215 -0.1514011 0.08892202 -0.06605199 -0.9938461 2565419 female
-0.9861484 -0.6921043 -0.1804027 0.009519415 -0.9957036 -0.09210773 593934 female
-0.8982517 -0.2336597 -0.07960281 0.8696604 -0.2887257 0.4004101 1973534 female
-0.968482 0.09319615 -0.2354297 -0.7637265 0.01482865 -0.6453696 3025454 female
-1.06403 0.1183186 0.02079042 -0.4606244 -0.5239223 -0.7164709 15200255 female
-0.9267308 -0.02046063 -0.2107096 -0.1344922 -0.3612607 -0.9227148 2697516 female
-1.00004 -0.6425829 -0.2144875 -0.8237448 0.3278695 -0.4625431 15716301 female
-0.5770459 0.1417723 -0.06901389 0.6354862 0.4386793 0.6353879 15727607 female
-0.6928347 -0.08517037 -0.07071503 0.03247138 -0.1876268 0.9817035 2171944 female
-1.053751 0.2722364 -0.05465114 -0.2140688 0.619278 0.7554266 14872823 female
-0.6520416 0.481499 -0.2075245 0.977681 -0.187448 0.0948846 14079966 female
-1.026046 0.3713723 -0.1270984 -0.1527043 0.2409822 0.958441 14740469 female
-0.9757569 -0.3968353 -0.09401543 0.13868 -0.284664 0.9485432 2169889 female
-0.97341 -0.3083859 -0.181735 0.04804078 0.3783639 -0.9244094 2697516 female
-0.9307398 0.3754535 -0.2296119 -0.8498924 -0.1915548 -0.490907 10066337 female
-0.7628534 -0.1638992 -0.1687047 -0.9880159 -0.1530475 -0.02002404 1841436 female
-0.6142636 0.06562096 -0.1602869 0.9895229 0.08357827 0.1177247 1908257 female
-0.759248 0.8236623 -0.3005395 0.5586122 -0.1359143 -0.8182174 3420972 female
-0.6057665 0.06373783 -0.01522231 -0.86667 -0.4681008 -0.1725247 9140598 female
-0.8658281 -0.02364306 -0.2000635 0.4525291 -0.393757 -0.800108 2697257 female
-0.8678994 0.09911507 -0.2906141 -0.08367061 -0.1863924 -0.9789062 5263457 female
-0.9838945 -0.1705532 -0.03938897 -0.6363893 -0.0472034 0.7699224 2170657 female
-0.9503716 0.2756359 -0.2010874 -0.8352945 0.4038582 -0.3730704 7698044 female
-0.7632657 -0.1488848 -0.1866937 -0.9466868 -0.1604398 -0.2793621 2170913 female
-0.6623521 0.2814311 -0.2117866 0.9189265 0.1607737 -0.3601747 4343106 female
-0.7323369 -0.3354757 -0.2195527 -0.9501853 0.1356729 -0.280608 2039329 female
-0.7719789 0.4847078 -0.0691772 0.0317691 0.2039423 0.9784673 15396603 female
-0.8197951 0.02886475 -0.1816679 0.8033269 -0.5159196 -0.2974775 2170913 female
-0.9522583 0.6286377 -0.175816 -0.15631 0.8994622 0.4080868 12894660 female
-0.6244445 -0.06317127 -0.1139758 0.9140912 -0.08326644 0.3968678 1973537 female
-0.6434155 -0.6611162 -0.2306561 0.9521736 0.06047349 -0.2995136 2105376 female
-1.009917 -0.5649885 -0.1739133 -0.9931731 -0.1050981 -0.05061145 1579291 female
-0.6791911 0.6053014 -0.190369 0.3059657 0.6273673 0.7160972 10264740 female
-0.9409493 -0.2217175 -0.1504673 0.1092272 -0.06451306 -0.9919211 2500140 female
-1.016961 0.2391892 -0.1132959 0.6522858 -0.6458337 -0.3967646 13816027 female
-0.5868279 0.469967 -0.2542694 0.9705955 0.02634837 -0.2392701 7171191 female
-1.007433 -0.6530061 -0.1248428 -0.6689408 0.6783984 0.303799 15785175 female
-0.7588525 -0.1953105 -0.1637577 -0.9867719 -0.1113487 0.1178244 1579291 female
-0.7211692 0.009064153 -0.05855038 -0.1053036 -0.02843977 0.9940333 2171945 female
-0.7601051 0.4405561 -0.3117239 -0.01305536 -0.2721267 -0.9621729 12237251 female
-0.7902831 0.7686103 -0.1067435 -0.1478184 -0.188915 0.9708042 14664126 female
-0.7392498 0.1993352 -0.2945199 0.08739747 0.2800563 -0.9559969 15200255 female
-1.026726 -0.6843932 -0.1584476 -0.9176443 -0.02720528 -0.3964704 13414826 female
-0.7578663 0.6442475 -0.1831228 0.6114532 0.3158997 0.7254877 13751003 female
-0.6175261 0.5816798 -0.263037 0.6323282 0.5044994 -0.5879128 15856379 female
-0.8949087 -0.03253886 -0.2055699 0.1717871 -0.357484 -0.9179839 2105124 female
-0.6911659 0.5850533 -0.3118685 0.3270383 0.2506535 -0.9111634 16185343 female
-0.8081402 0.7609926 -0.116377 -0.402257 0.02305634 0.9152364 11704465 female
-0.8466267 -0.009218082 -0.05486838 0.7301011 -0.1636156 0.6634624 2170913 female
-0.6557574 -0.5551359 -0.2575638 0.6702011 -0.1452922 -0.7278191 1973281 female
-0.8934236 0.5259924 -0.08066034 -0.3110979 0.5948346 0.7412084 5724514 female
-0.9049838 -0.2306719 -0.1367263 0.6941766 -0.1601271 -0.7017678 2236967 female
-0.7832106 0.2991154 -0.04432805 0.1573288 0.1435976 0.9770503 7434876 female
-0.6321095 0.1181198 -0.01226573 -0.4745151 0.8484366 0.2345012 16774119 female
-0.9535168 0.4929636 -0.1555607 0.8176221 -0.3137423 0.4827628 9277338 female
-0.7410936 0.2509655 -0.04591064 0.4605866 0.1610938 0.8728738 5130576 female
-0.6674821 0.5330887 -0.1582861 0.7251188 0.1172719 0.6785647 9343641 female
-0.9637618 -0.6829203 -0.09293066 0.9532639 0.2412431 0.1819055 10850699 female
-0.7532052 0.449573 -0.3149972 0.003267505 -0.2690873 -0.9631103 15462391 female
-0.77113 0.5436952 -0.1072974 0.0217585 0.6539444 0.7562296 9145496 female
-0.7090673 0.5554586 -0.1313818 0.3350945 0.6227233 0.7070554 2697265 female
-0.7813565 -0.01877013 -0.220697 -0.7081873 -0.2997004 -0.6392577 2302243 female
-0.8153119 0.507121 -0.311487 -0.2309989 0.2628994 -0.9367622 15396607 female
-0.6487083 -0.5788978 -0.2050063 0.7909253 -0.104828 0.6028666 2434085 female
-0.7526024 0.7175714 -0.1972011 0.9333746 -0.246883 0.2605007 12429467 female
-0.6473537 -0.497229 -0.188521 0.5466849 -0.1837082 0.8169374 2171428 female
-0.729226 0.2743692 -0.05879785 0.5673003 0.1799526 0.803609 14342371 female
-0.6844 0.596699 -0.180286 0.3186443 0.5718982 0.755909 10987956 female
-0.7908021 -0.02431984 -0.1194166 -0.9262196 -0.1919567 0.3244531 1907741 female
-0.7282919 0.0361692 -0.2821284 0.07247534 -0.5630583 -0.8232331 2171945 female
-0.6193371 -0.005075135 -0.1258769 0.9460309 -0.01216687 0.323848 1973537 female
-0.6347761 0.2754274 -0.1994038 -0.8813121 0.1315158 0.4538641 9147032 female
-0.7226113 0.8729358 -0.2354105 0.9221304 0.3499499 -0.1649563 2039327 female
-0.6333771 0.4491608 -0.2922778 0.08024914 -0.09376562 -0.9923548 6710639 female
-0.9292628 0.2847233 -0.09756123 -0.7319081 0.289841 0.6166869 9145493 female
-0.9675444 -0.3062036 -0.06360347 0.05507663 -0.4546827 0.8889489 1776669 female
-1.046967 -0.6916729 -0.09677102 -0.8147417 0.5623001 -0.1414725 14598074 female
-0.6503553 0.119135 -0.1015586 0.6953264 0.228176 0.6815108 15330809 female
-0.5886028 0.03488026 -0.06418908 -0.6374842 -0.3431051 -0.6898499 8284775 female
-0.6059776 0.5857089 -0.2343872 0.7422979 0.6674321 -0.05939859 8619406 female
-0.9580369 -0.5983993 -0.1910779 0.9611494 -0.03054309 -0.2743337 1908771 female
-0.6632267 -0.3787123 -0.1585243 0.145723 -0.1900926 0.9708911 2170403 female
-0.9235003 0.408327 -0.1179579 -0.7874641 -0.2583943 0.5595827 14343396 female
-0.7891204 0.6251592 -0.1590994 0.09155931 0.5073348 0.8568712 16120317 female
-0.998265 -0.6209858 -0.1452419 -0.7880981 0.2611719 0.5573964 2236968 female
-0.9839575 0.6127016 -0.2044814 -0.7117183 0.6607087 -0.2385815 11711421 female
-0.7989673 0.2506216 -0.2768001 -0.1047593 0.3090658 -0.9452533 13948650 female
-0.6223877 0.5769557 -0.1913095 0.4034593 0.3536251 0.8439016 8947088 female
-1.022894 0.4066523 -0.2102237 -0.5386808 -0.09650972 -0.8369641 5589847 female
-0.9241548 -0.4303381 -0.1576819 0.9828202 -0.1833394 -0.02124245 1842720 female
-0.9368601 -0.0189112 -0.2093187 -0.2264332 -0.3583214 -0.9057228 2763826 female
-0.7468619 0.5338492 -0.09928698 0.1095714 0.6551545 0.747507 15659774 female
-0.6493732 -0.6192121 -0.2051819 0.8801019 0.08270496 0.4675258 2829616 female
-0.6662138 -0.06097734 -0.2362105 0.3866497 -0.1329902 -0.9125873 2303275 female
-1.029667 -0.6822398 -0.09264231 -0.4023868 0.8990121 0.1728069 16242386 female
-0.9003493 0.3492962 -0.2538455 -0.5661398 -0.1892579 -0.8022888 10330288 female
-0.9938572 -0.6512771 -0.1114776 -0.2957499 0.8202215 0.4896617 16774119 female
-0.679517 -0.09490281 -0.2384521 0.2349155 -0.05427619 -0.9704992 2171945 female
-0.6456902 -0.3271023 -0.1538617 0.61119 -0.1785177 0.7710891 1777187 female
