# .PCD v0.7 - Point Cloud Data file format
VERSION 0.7
FIELDS x y z normal_x normal_y normal_z rgb label
SIZE 4 4 4 4 4 4 4 4
TYPE F F F F F F U U
COUNT 1 1 1 1 1 1 1 1
WIDTH 170
HEIGHT 1
VIEWPOINT 0 0 0 1 0 0 0
POINTS 170
DATA ascii
-0.9348113 0.09511357 0.5223691 -0.8926887 0.07930826 -0.4436407 14079973 female
-0.6009848 0.1076116 0.4898337 0.8175908 -0.06014458 -0.5726498 12040900 female
-0.9044925 -0.4659601 0.4093091 -0.9379445 0.04235081 -0.3441897 1908253 female
-0.6387953 0.2397833 0.8883987 -0.8809101 -0.006798903 -0.4732348 13020070 female
-0.6070033 -0.5157872 0.7495753 0.863352 -0.06149406 0.5008411 1972766 female
-0.6901491 -0.1804723 0.7495881 -0.6119193 0.05812357 0.7887816 2170401 female
-0.8876815 0.2851089 0.5141329 -0.9057708 0.1829475 -0.3822426 4077368 female
-0.9280363 -0.6349053 0.3986918 -0.9708472 0.05547575 -0.2331914 12823204 female
-0.8377772 -0.4151282 0.491722 0.9606604 -0.2642404 0.08549042 1710362 female
-0.8861814 0.2203757 0.6952863 0.9795023 -0.02131062 -0.2003024 14015206 female
-0.923274 0.4327385 0.5962452 -0.2159512 0.07915176 0.9731907 7894139 female
-0.8578693 0.2774755 0.4733757 -0.5860978 -0.01566704 -0.8100889 11382208 female
-0.8893196 -0.4504627 0.3937006 -0.5329573 0.4613215 -0.709323 2104869 female
-0.9538674 0.4456489 0.554782 -0.983594 0.1672944 0.06749404 15725567 female
-0.5047662 0.4771984 0.520232 0.9563823 0.2221092 -0.1897377 7698310 female
-0.5875462 0.01134755 0.6643046 0.846948 0.2132121 0.487052 1973536 female
-0.82202 0.1526913 0.8741131 0.8787053 0.2951145 -0.3752124 6313552 female
-0.7777287 0.01477 0.6690266 0.8601171 0.2031502 0.467898 1908000 female
-0.8087566 -0.2152094 0.6607484 0.9942651 -0.1068652 -0.004092052 1973534 female
-0.635377 -0.6168843 0.7859401 0.4751112 0.3602872 0.8027842 2434343 female
-0.9297691 0.3332727 0.5902984 0.3802721 0.1540273 0.9119587 8291465 female
-0.888088 0.4154929 0.5609716 -0.9875221 -0.09764476 0.1235541 11909571 female
-0.9308322 0.2438231 0.7075766 -0.6692472 0.4339995 0.603119 10199721 female
-0.6202923 0.2932426 0.5814276 0.8757668 -0.01472176 0.4825099 14080990 female
-0.8798353 0.3865067 0.5180581 -0.9611582 -0.1817486 -0.2077075 12962002 female
-0.5711759 0.4030037 0.5821653 -0.5017031 0.1258186 0.8558409 10461612 female
-0.6697012 0.2407131 0.6490389 0.6538618 0.160735 0.7393436 9869729 female
-0.6707643 0.1733625 0.44546 0.2288272 0.2166833 -0.949045 9079706 female
-0.6124418 0.8196679 0.4933757 0.859944 0.2352144 -0.4529575 2763817 female
-0.6676472 0.451774 0.6511976 0.1184789 0.514136 0.8494863 14671854 female
-0.5294769 0.2184359 0.6252822 0.2818821 -0.9222499 -0.2645705 11909053 female
-0.6016338 -0.5156237 0.7282269 0.9854513 -0.1695103 0.01232793 1973534 female
-0.9225885 -0.1286803 0.5819308 -0.6898125 -0.1921728 -0.6980174 2170916 female
-0.8217766 -0.1886894 0.6089497 0.7633211 -0.1812529 -0.6200711 2170913 female
-0.6070914 -0.6960945 0.7871028 0.8837847 0.165464 -0.4376601 12493981 female
-0.7129783 0.7939175 0.449875 -0.3388777 0.001796038 -0.9408287 14338761 female
-0.5858373 0.3891971 0.5108183 -0.8934422 -0.3196896 -0.3155305 10526376 female
-0.7676339 0.6413323 0.4902744 -0.3186943 0.7969917 -0.5130674 16704980 female
-0.9212527 0.1244913 0.6499252 -0.7204408 0.3020455 0.6242864 6580853 female
-0.7227972 0.5799156 0.4442408 -0.07487161 0.2667488 -0.9608535 13818860 female
-0.6400376 -0.1406561 0.753235 0.2298771 0.1388278 0.963267 1842723 female
-0.7091841 0.2927122 0.6665681 0.3283413 0.1409791 0.9339791 9802913 female
-0.8022271 0.005047819 0.4704376 0.1310874 -0.6934018 -0.7085266 2171688 female
-0.6997941 0.1536761 0.6827319 0.4294598 -0.09138712 0.8984502 4013643 female
-0.9103948 0.5165818 0.4972792 -0.4027117 -0.03139952 -0.9147881 14608375 female
-0.8818027 0.377528 0.5607501 -0.9805053 -0.0672356 0.1846311 12303556 female
-0.6708142 0.2435654 0.4530226 0.2981014 -0.1124206 -0.9478909 15199231 female
-0.7289599 -0.161331 0.6659105 -0.9826199 -0.1844621 -0.02077863 1710620 female
-0.5818562 -0.1052312 0.6267953 0.9498226 -0.2457953 -0.1934468 2170403 female
-0.5300822 0.5402135 0.5264704 0.6939398 0.7176023 0.05911445 8685188 female
-0.8747714 0.1348195 0.6729248 -0.406123 0.1679921 0.8982442 9343646 female
-0.6302371 0.7264112 0.5060134 0.7399187 -0.5180557 -0.4291137 2499619 female
-0.588778 0.3991011 0.4753074 0.8265049 -0.4415396 -0.3491881 11118507 female
-0.8412087 -0.2828022 0.6263787 0.7477822 0.2735987 -0.6049508 2171169 female
-0.9385282 0.4895134 0.5847707 -0.7310087 0.1171559 0.6722357 13160911 female
-0.7421392 0.6778564 0.5135822 -0.8508011 0.316787 -0.4192654 10981510 female
-0.871025 -0.1447621 0.7291134 0.0191305 -0.06320326 0.9978173 2171944 female
-0.6052186 0.5230064 0.576395 0.2993578 0.3979094 0.8672099 12962776 female
-0.8260605 0.4301586 0.6763172 -0.3715229 0.0181514 0.9282463 7170931 female
-0.8488176 -0.08265083 0.5432464 0.1268128 -0.3813382 -0.9156963 2500651 female
-0.6531765 0.6755025 0.6130849 0.6833238 -0.6256247 0.3763807 16244942 female
-0.5896377 -0.2174394 0.7012247 0.9988816 -0.03134377 0.03539934 1777185 female
-0.8344758 0.368008 0.4545741 -0.5034866 -0.1394968 -0.8526675 6446184 female
-0.8145051 -0.05896455 0.7068987 0.5789307 -0.0588888 0.8132474 1973536 female
-0.6481186 -0.258123 0.7756878 -0.06757591 -0.123701 0.990016 2170921 female
-0.9501245 -0.07449823 0.6156468 -0.9765469 -0.1711387 -0.1306436 1908257 female
-0.6230509 0.3838599 0.4409528 0.5407628 -0.4007238 -0.7395918 14078942 female
-0.6099997 0.292284 0.5148989 0.9638094 -0.1661057 -0.2085194 13158865 female
-0.938623 -0.2980706 0.5835461 -0.8901064 0.3857107 -0.242771 1973281 female
-0.6445252 -0.1637753 0.7582554 0.1533424 0.1332647 0.9791459 2171174 female
-0.7175901 0.2085055 0.6886013 0.2867243 0.2124731 0.9341543 13818349 female
-0.8367324 -0.2384297 0.624002 0.5817747 0.03698282 -0.8125088 2171945 female
-0.8543434 -0.5654888 0.3209348 0.3476051 -0.7209021 -0.5995588 526344 female
-0.810296 -0.224274 0.6623281 0.9937147 -0.1112162 0.01272272 1710362 female
-0.925378 0.04422974 0.505909 -0.7794445 -0.09310786 -0.6195136 2434093 female
-0.8367909 0.1063869 0.8917707 -0.8303839 -0.5475546 0.1031826 16508898 female
-0.8723264 -0.06183717 0.5339928 -0.1008709 -0.4313202 -0.8965422 2697516 female
-0.8879611 -0.4915509 0.3663545 -0.7257483 0.4605692 -0.5110434 2171687 female
-0.5770629 0.235004 0.7921717 -0.5833908 0.8110173 0.0436592 12567244 female
-0.7281238 -0.06189319 0.7006533 -0.7655033 0.009070436 0.643368 1973534 female
-0.8726674 0.207005 0.7605809 0.7832164 0.6143306 -0.09575977 6447204 female
-0.5974345 0.4086334 0.452142 0.6913066 -0.408379 -0.5960887 13423068 female
-0.9424217 0.4219696 0.5179652 -0.7025567 0.03729399 -0.71065 14082038 female
-0.9091527 -0.3797585 0.607173 -0.2990306 -0.7459278 0.5951239 2434085 female
-0.8394836 -0.2807248 0.6313326 0.7412048 0.2074011 -0.6384357 2236706 female
-0.8574788 0.3334205 0.4761377 -0.7162754 -0.1315045 -0.6853145 15658750 female
-0.7199722 -0.2333439 0.6822834 -0.9700291 -0.1117155 -0.215785 1907742 female
-0.5759382 0.08599242 0.5610237 0.9907044 0.1318627 -0.03342208 13553622 female
-0.6476741 0.7925843 0.4546558 0.4890078 -0.02805664 -0.8718281 2696225 female
-0.6090428 0.2139412 0.9186979 -0.637104 0.7596462 -0.1305227 14793397 female
-0.8111203 -0.0849753 0.5585324 0.5606014 -0.371799 -0.7399268 2498854 female
-0.8445886 0.1029715 0.4435326 -0.2470236 0.02800521 -0.9686047 14343410 female
-0.9211375 -0.2680083 0.6200513 -0.6137115 0.590161 -0.5244693 2565673 female
-0.9088402 0.2233731 0.5164449 -0.8046959 0.4244135 -0.4151358 9934493 female
-0.7089439 -0.2240563 0.6542777 -0.757724 -0.2494582 -0.6030132 2499110 female
-0.5961707 0.2043525 0.5425165 0.9419634 0.3336474 -0.03720645 13553879 female
-0.6822449 -0.2552235 0.6527168 -0.2807084 -0.347979 -0.8944906 2172201 female
-0.7365839 0.3817732 0.6555295 0.07851067 -0.2496508 0.9651479 14344168 female
-0.780691 -0.07870051 0.6406571 0.9724854 -0.2050608 0.1105547 2499627 female
-0.8497603 0.6174017 0.5343076 -0.3231996 0.9244923 0.2021285 14607326 female
-0.5826991 -0.03986066 0.6715982 0.9164959 0.08397662 0.3911307 1645857 female
-0.6268095 -0.6769239 0.7427628 0.8137879 -0.1456651 -0.5626108 2303011 female
-0.8639548 -0.4227535 0.5308152 0.4730496 -0.7027954 0.5313215 2105377 female
-0.5326501 0.5372624 0.5483961 0.5563152 0.6515635 0.5157309 13026246 female
-0.8337315 -0.2413126 0.6274103 0.6530704 0.0353565 -0.7564713 2171688 female
-0.9102569 0.2726958 0.5615095 0.797504 -0.4515345 -0.4001299 12501708 female
-0.5064158 0.4309328 0.5528172 0.9247288 0.07562117 0.3730389 10725291 female
-0.9183856 -0.6531013 0.4391518 -0.4262038 0.7143137 0.5550731 14929609 female
-0.7208558 -0.2596759 0.6985194 -0.9877885 -0.1513647 -0.03691334 1776155 female
-0.6709936 0.02902479 0.7064605 -0.02566857 0.4029132 0.9148782 2237481 female
-0.6635496 0.4262002 0.4129176 0.08082022 -0.2033868 -0.9757571 15658230 female
-0.6663471 0.7846707 0.6391156 0.2266919 -0.01051374 0.9739098 16774375 female
-0.699891 0.1728891 0.4422661 0.06727295 0.2155644 -0.9741696 11056320 female
-0.8994232 -0.5590705 0.3200957 -0.7102529 -0.3803739 -0.5923314 1775383 female
-0.7369599 0.5711296 0.5934825 0.07761927 0.4553876 0.8869032 11907773 female
-0.5413827 0.4687745 0.4668751 0.4094447 -0.2171723 -0.8861101 15791352 female
-0.8501423 -0.08463211 0.5437959 0.1175158 -0.3767067 -0.9188483 2500652 female
-0.5765225 0.4907797 0.4436779 0.4734212 -0.1355663 -0.8703414 3882563 female
-0.657236 0.6757506 0.6187505 0.7113361 -0.5446952 0.4441937 16047566 female
-0.8623482 -0.009829807 0.7212541 0.006211137 0.1446201 0.9894677 2369065 female
-0.6401355 -0.5477719 0.6914251 0.1513728 -0.3293798 -0.9319846 2499886 female
-0.7276991 0.4793427 0.6433086 0.2287118 0.5821026 0.7802868 14607343 female
-0.8099725 -0.2005309 0.6379867 0.9528688 -0.1193946 -0.2789017 1777187 female
-0.697704 0.2825642 0.6634185 0.4418245 0.1071479 0.8906797 14343914 female
-0.5924277 0.2320044 0.840013 0.1147574 0.9760495 -0.1848189 12492693 female
-0.9060423 0.5107633 0.602055 -0.07076537 -0.01053099 0.9974374 13487317 female
-0.7213867 0.2483504 0.6756024 0.2195393 0.164469 0.9616405 13620448 female
-0.5812479 0.4255368 0.5545644 0.9648482 -0.2092754 0.1589713 9671065 female
-0.8515025 -0.6499285 0.4101103 0.4989936 -0.6769595 -0.5410465 592137 female
-0.688046 0.4749052 0.4085371 -0.1598199 0.1087151 -0.9811415 12567247 female
-0.7493688 0.4713042 0.6545126 0.2536768 0.4905929 0.8336466 15987707 female
-0.6589159 0.3693861 0.6449712 0.1175948 -0.6679297 0.734875 11053748 female
-0.7084846 -0.1311364 0.588302 -0.5308679 -0.458183 -0.7129148 2170914 female
-0.6823493 0.4310414 0.4114122 -0.03286164 -0.16249 -0.9861628 15066610 female
-0.6341319 -0.3734631 0.6524335 0.162107 0.001884339 -0.9867713 2237738 female
-0.6510288 0.6427035 0.5381726 0.978575 -0.1705212 0.115384 13415593 female
-0.6217207 -0.4516957 0.7625368 0.3543572 0.01197876 0.9350334 2499878 female
-0.7008719 0.2237074 0.6754456 0.4140033 0.2096477 0.8858043 14673143 female
-0.5655441 0.5313436 0.5672071 0.1121034 0.4407677 0.8905935 12105920 female
-0.7441267 -0.09063972 0.6601756 -0.9631434 -0.1728824 0.2060739 2434597 female
-0.7215768 0.03315724 0.4423892 -0.07936804 -0.3454207 -0.9350857 2960181 female
-0.5863088 -0.154419 0.6760481 0.9940074 -0.09810319 0.04821808 1579808 female
-0.557143 0.2108482 0.6470404 -0.2882378 -0.9100211 -0.2979606 4540236 female
-0.6007053 0.8098053 0.5252181 0.9838396 0.1146569 -0.1375258 2171169 female
-0.5703648 0.4467847 0.467264 0.04368367 -0.5532642 -0.8318596 11447733 female
-0.8915357 0.2780984 0.5852953 -0.9044577 0.2748482 0.3262125 9147033 female
-0.8692306 -0.3253491 0.6911159 0.4410445 -0.7854831 0.4341613 2367780 female
-0.9036767 -0.55523 0.3639207 -0.9701582 0.1915518 0.1486639 15059908 female
-0.5794279 0.003095795 0.6488816 0.9160339 0.1428842 0.3747881 1908001 female
-0.5872363 0.2303806 0.8347644 0.01999836 0.9950343 -0.09750224 14078933 female
-0.5197576 0.5066851 0.4983398 0.7654871 0.3734094 -0.524018 15725559 female
-0.8690104 -0.4764815 0.3605805 -0.001631063 0.7338529 -0.6793065 2566703 female
-0.6399809 -0.4845278 0.7664464 0.0005942612 0.04776132 0.9988586 2170406 female
-0.8850815 0.3419261 0.5455185 -0.9987345 0.04897483 0.01143719 12040127 female
-0.7898276 0.5069883 0.636112 0.002166592 0.6014851 0.7988811 11710135 female
-0.9008193 -0.5091774 0.3757557 -0.9882232 0.1146207 -0.1013758 1907741 female
-0.8711933 0.607949 0.5377753 -0.4537127 0.8867709 0.08821616 11252148 female
-0.727671 0.2723756 0.447947 -0.2454609 -0.1666707 -0.9549711 11975632 female
-0.5286077 0.5330372 0.5465578 0.6138094 0.6305806 0.4749801 10724267 female
-0.9632072 0.3610112 0.5367837 -0.8699135 0.03078235 -0.4922429 10198185 female
-0.8311782 -0.3546474 0.5314019 0.9805366 0.123887 -0.1523154 1776673 female
-0.8735777 -0.03508247 0.5214309 -0.1293403 -0.5707743 -0.8108563 2895412 female
-0.8045596 0.4035375 0.6745263 -0.07477062 -0.480281 0.8739219 14278896 female
-0.6148856 -0.5063591 0.6903529 0.6900013 -0.2908641 -0.6627943 2170913 female
-0.6063308 -0.08548118 0.5656907 0.5848621 -0.4876644 -0.6481664 2565678 female
-0.9029665 -0.5721204 0.3815284 -0.8873234 0.3137544 0.3379576 13086637 female
-0.8536872 0.2769727 0.4712068 -0.5433465 -0.03470835 -0.8387907 14671599 female
-0.8976411 -0.6141438 0.4141849 -0.5249266 0.5408038 0.6572543 15648453 female
-0.5925642 -0.09444041 0.5876644 0.7686834 -0.3930594 -0.5046089 2171937 female
-0.6384283 -0.296365 0.7715477 0.08017811 -0.2479449 0.9654506 2106152 female
