# .PCD v0.7 - Point Cloud Data file format
VERSION 0.7
FIELDS x y z normal_x normal_y normal_z rgb label
SIZE 4 4 4 4 4 4 4 4
TYPE F F F F F F U U
COUNT 1 1 1 1 1 1 1 1
WIDTH 170
HEIGHT 1
VIEWPOINT 0 0 0 1 0 0 0
POINTS 170
DATA ascii
-0.951719 0.1511506 -0.2503983 -0.7413241 0.05825993 -0.6686137 14936567 female
-0.6784192 0.1669454 -0.2809243 0.5720781 0.07207082 -0.8170266 9803174 female
-0.9568797 -0.4222403 -0.1091151 0.3390632 -0.2740555 0.8999609 2170913 female
-0.6192702 0.120777 -0.06689168 -0.8605972 0.2694769 -0.4321512 13354698 female
-0.6736133 -0.3000137 -0.2466341 -0.05007785 0.3651702 -0.9295928 2698289 female
-0.645359 -0.1917647 -0.1071889 0.6653413 -0.1767308 0.7253187 2170145 female
-0.9151928 0.3519248 -0.2371785 -0.7579567 -0.1678782 -0.630332 6251625 female
-0.9776823 -0.6976926 -0.13147 0.2475339 -0.9598219 -0.1321702 3946293 female
-0.9410326 -0.5339592 -0.1768587 0.9837193 -0.1794987 -0.008747633 1776929 female
-1.023832 0.1910869 -0.03589253 0.9267547 -0.3687876 -0.07156508 12764108 female
-1.03097 0.4822861 -0.1703983 -0.977836 0.1307984 0.1634889 7829376 female
-0.9029327 0.3312692 -0.2482567 -0.6095106 -0.08070436 -0.7886594 7566207 female
-0.994947 -0.463328 -0.2043129 -0.4205889 -0.01388167 -0.9071451 1973537 female
-0.9798017 0.3801782 -0.1391585 0.7029385 -0.05920139 0.7087826 14213617 female
-0.5877415 0.5562343 -0.2386073 0.9077283 0.4027498 -0.1175673 13620701 female
-0.6266801 0.02394109 -0.104734 0.8582267 0.05445999 0.5103735 1973536 female
-0.9885622 0.1433639 0.1167869 0.3317625 -0.9424744 0.04093388 6245446 female
-0.941518 0.04568255 -0.03267686 -0.3954152 0.1886275 0.8989252 2500651 female
-0.8955483 -0.2345847 -0.08032401 0.8484834 -0.2940925 0.4399833 2105120 female
-0.6672023 -0.5603942 -0.1899319 0.004568221 -0.04052836 0.9991679 2171937 female
-0.9878927 0.4194049 -0.1307824 0.3228081 0.04601167 0.9453454 13288397 female
-0.9366531 0.4238049 -0.13566 -0.8566934 -0.3543718 0.3748293 14082023 female
-1.071181 0.2280263 -0.05789303 -0.9979793 -0.06224351 -0.01277059 5397866 female
-0.7265196 0.344429 -0.07251948 0.6243417 0.1493315 0.7667447 15200255 female
-0.9413407 0.4090853 -0.1655073 -0.9632603 -0.2118593 0.1650611 3553086 female
-0.6242682 0.3700711 -0.2025625 -0.2904108 -0.04311426 0.9559304 7829371 female
-0.7117228 0.2677718 -0.06860261 0.6462084 0.1762549 0.7425287 6184287 female
-0.726577 0.2240568 -0.2863457 0.1370837 0.3083123 -0.9413562 11844804 female
-0.7298204 0.878631 -0.2596318 0.812818 0.4271096 -0.3961115 2631463 female
-0.7163156 0.4994397 -0.07507391 0.1570527 0.4931206 0.8556673 15593213 female
-0.5862834 0.2558277 -0.2381148 0.2871921 -0.5334002 -0.795616 12237763 female
-0.6226543 -0.41862 -0.2343758 0.9434556 -0.04079925 -0.3289788 1579808 female
-0.968419 -0.03668388 -0.1894694 -0.5605538 -0.2250095 -0.7969631 2631470 female
-0.9002591 -0.2014309 -0.1489764 0.6191669 -0.1270477 -0.7749137 2171688 female
-0.6382493 -0.6736854 -0.2174821 0.9441758 0.1604872 -0.2877081 13087919 female
-0.8261172 0.829299 -0.3079501 -0.3398477 -0.1136063 -0.9335936 14338761 female
-0.726264 0.7702242 -0.2153385 0.7677809 -0.1642543 0.6193004 16442065 female
-0.9164954 0.6499476 -0.2492088 -0.5298533 0.6872515 -0.4969314 12437462 female
-0.9537768 0.1808071 -0.08956488 -0.6877707 0.2051637 0.6963328 7039086 female
-0.7787237 0.5990379 -0.3073763 -0.2353391 0.2296028 -0.9444035 13094624 female
-0.6266514 -0.1790296 -0.135322 0.9496314 -0.102412 0.296162 2105377 female
-0.7931517 0.350366 -0.04977317 0.08425716 0.2281293 0.9699782 15067640 female
-0.8592452 0.06167429 -0.2784038 0.001160514 -0.4837875 -0.8751847 2566703 female
-0.7480607 0.2381033 -0.03844459 0.3843971 0.127564 0.9143119 12502226 female
-1.018356 0.5706251 -0.1812085 -0.8463162 0.5288118 -0.06408637 4934995 female
-0.9308451 0.4091511 -0.1335463 -0.8729435 -0.2104421 0.4400953 13620448 female
-0.7115542 0.2889746 -0.2672306 0.3704694 -0.02305823 -0.9285583 13488354 female
-0.7853593 -0.06356145 -0.1570607 -0.9684997 -0.2452308 0.04324552 2433573 female
-0.6131211 -0.03510126 -0.1831882 0.9675891 -0.1225668 -0.2207914 2105122 female
-0.6512989 0.6143011 -0.2084356 0.2054063 0.8198916 0.5344024 13422293 female
-0.8638601 0.1098952 -0.04749527 0.1328305 0.082335 0.987713 2566703 female
-0.7552781 0.7255463 -0.239697 0.7853662 -0.137209 -0.6036337 4866113 female
-0.6463744 0.4550801 -0.1770254 0.9851072 -0.1578842 0.06809182 6973546 female
-0.9338993 -0.2896523 -0.159519 0.5921934 0.2941659 -0.7501822 2697257 female
-0.9811333 0.5231345 -0.236857 -0.2276616 -0.1564671 -0.961087 11053749 female
-0.8401036 0.7242458 -0.2399276 -0.8600547 0.07253543 -0.5050194 5984074 female
-0.9325586 -0.1108115 -0.0249179 0.002955709 -0.1097612 0.9939536 2171944 female
-0.658355 0.6021276 -0.192826 0.1857958 0.6579032 0.7298242 16251135 female
-0.7854962 0.5322678 -0.08996621 0.1392221 0.6660767 0.732775 14146792 female
-0.900978 -0.04233717 -0.2042427 0.1028882 -0.3217414 -0.9412208 2500651 female
-0.7937024 0.7985993 -0.1035335 -0.8345135 0.2742908 0.4778616 13872292 female
-0.7232764 -0.1910047 -0.1066857 -0.603784 -0.2505029 0.7567649 2170913 female
-0.8987218 0.4146713 -0.2692438 -0.5156306 -0.3328656 -0.7895097 2698546 female
-0.950247 -0.01352466 -0.02663338 -0.4063354 0.0654561 0.9113765 2368809 female
-0.6343296 -0.2717692 -0.1416959 0.8764548 -0.1523797 0.4567356 2039075 female
-0.9791409 -0.00613093 -0.1899495 -0.7003239 -0.2561291 -0.6662914 2500907 female
-0.7311242 0.4062665 -0.08620927 0.4738407 0.1300315 0.8709574 15200255 female
-0.6709446 0.3253851 -0.1347577 0.8570161 0.1759834 0.4843071 6183780 female
-0.9912161 -0.2822272 -0.1666202 -0.3753303 0.4133356 -0.829627 2303275 female
-0.7011276 -0.19753 -0.09634379 -0.2959222 -0.2362401 0.925538 2170401 female
-0.7551619 0.1698588 -0.03991158 0.4025684 -0.2120557 0.8904892 15133177 female
-0.9366608 -0.215753 -0.1550147 0.09625338 -0.06800764 -0.9930308 2565419 female
-0.9817737 -0.6929057 -0.1786098 0.008512851 -0.9967384 -0.08025093 593934 female
-0.8940078 -0.233052 -0.08284903 0.8673961 -0.2859345 0.4072659 1973534 female
-0.9644254 0.09430662 -0.237426 -0.7589352 0.01507892 -0.6509916 3025454 female
-1.063962 0.1268649 0.01982247 -0.8044978 -0.3394986 -0.4873643 7171965 female
-0.9224517 -0.01932737 -0.2128458 -0.1260195 -0.3579312 -0.925205 2697516 female
-0.9953361 -0.643792 -0.2133684 -0.819967 0.3234099 -0.4722923 15716301 female
-0.6099007 0.2009619 -0.1324017 -0.8374957 0.2395915 0.491118 11381437 female
-0.6903113 -0.08361716 -0.06990791 0.02488405 -0.1837171 0.9826641 2171944 female
-1.049087 0.2722434 -0.05500299 -0.2103316 0.6135031 0.7611666 14872823 female
-0.6486959 0.4831077 -0.206901 0.9777781 -0.1852841 0.09808067 14079966 female
-1.031555 0.3904763 -0.1337932 -0.520216 0.2928227 0.8022656 14016221 female
-0.9715202 -0.3965909 -0.095924 0.1330873 -0.2728916 0.9527948 2169889 female
-0.9685745 -0.309155 -0.1848163 0.05364776 0.3677107 -0.9283915 2697516 female
-0.9244893 0.3891355 -0.2367164 -0.8307097 -0.1316045 -0.5409266 6710377 female
-0.7596815 -0.1626322 -0.1680741 -0.9881178 -0.1513499 -0.02676791 1841436 female
-0.6107576 0.06672578 -0.1595568 0.9887261 0.08288249 0.1247044 1908257 female
-0.7564357 0.8252264 -0.2995097 0.563579 -0.1327123 -0.8153319 3420972 female
-0.6003065 0.06358696 -0.02731718 -0.8915796 -0.3595392 -0.2753497 7563873 female
-0.8616307 -0.02233967 -0.2017036 0.4600383 -0.3890651 -0.7981185 2697257 female
-0.863458 0.1004487 -0.2918197 -0.07619224 -0.184809 -0.9798166 5263457 female
-0.9802158 -0.1702215 -0.04289161 -0.6417383 -0.05101527 0.7652251 2170657 female
-0.9467682 0.2767388 -0.2025225 -0.8331829 0.4036773 -0.3779562 7698044 female
-0.7599354 -0.1476954 -0.1861435 -0.9448511 -0.1599138 -0.2858041 2170913 female
-0.6586841 0.2828212 -0.211336 0.9210634 0.1622173 -0.3540166 4343106 female
-0.7293447 -0.3342648 -0.2179113 -0.9481475 0.1383544 -0.286137 2039329 female
-0.76923 0.4856611 -0.06900788 0.02706297 0.2012025 0.9791758 15396603 female
-0.8159792 0.03019373 -0.1826563 0.8065898 -0.5136492 -0.292536 2170913 female
-0.952125 0.6358896 -0.2008834 -0.4923307 0.8614876 0.1242967 12370114 female
-0.6215457 -0.06191257 -0.1127511 0.9109298 -0.08323811 0.4040771 1973537 female
-0.6416863 -0.6602989 -0.2275818 0.9537545 0.05536252 -0.2954443 2105376 female
-1.005401 -0.5657021 -0.173802 -0.992986 -0.1046455 -0.05502973 1579291 female
-0.6762219 0.6068015 -0.1894442 0.3012435 0.6253414 0.7198615 10264740 female
-0.9362291 -0.2214059 -0.1540817 0.1164121 -0.06715208 -0.9909282 2500140 female
-1.015217 0.2217647 -0.08716156 0.7778646 -0.5731938 -0.2576344 9474457 female
-0.5832109 0.4721042 -0.2538905 0.9712837 0.03102274 -0.2358934 7171191 female
-1.003384 -0.6531021 -0.1236902 -0.6699955 0.6828933 0.2911405 15785175 female
-0.7557546 -0.1940114 -0.1629369 -0.9878185 -0.1088914 0.1111629 1579291 female
-0.7185611 0.01068237 -0.05836525 -0.1127063 -0.02443873 0.9933278 2171945 female
-0.7154876 0.4295925 -0.3018412 0.2990762 -0.3618324 -0.882967 9606042 female
-0.7853996 0.7726849 -0.1055937 0.07032496 0.0372183 0.9968296 15324104 female
-0.7349006 0.2007679 -0.2946351 0.09421557 0.2815415 -0.9549124 15200255 female
-1.022498 -0.6848636 -0.1570432 -0.9147156 -0.03051389 -0.4029444 13414826 female
-0.7549852 0.6455976 -0.1824024 0.6075248 0.3156613 0.7288838 13751003 female
-0.614189 0.5837175 -0.2619387 0.6327603 0.5094655 -0.583146 15856379 female
-0.8906217 -0.03130199 -0.207502 0.1802175 -0.3529864 -0.918108 2105124 female
-0.6876185 0.5870164 -0.3110679 0.3300032 0.2554822 -0.9087501 16185343 female
-0.8029827 0.7612047 -0.1139866 -0.5020435 0.1520903 0.8513641 11177865 female
-0.8787531 0.009625545 -0.03108586 0.3630408 -0.007615892 0.9317421 2171171 female
-0.653464 -0.5543302 -0.2548408 0.6732214 -0.1501812 -0.7240294 1973281 female
-0.8845319 0.5186805 -0.07102204 -0.2735378 0.5993753 0.7522808 15133430 female
-0.9003391 -0.2302091 -0.1400526 0.6989046 -0.1601185 -0.6970612 2236967 female
-0.7805583 0.3000577 -0.0446347 0.1514295 0.141819 0.9782415 7434876 female
-0.6286119 0.1130314 -0.01079103 -0.3827662 0.8923594 0.2391331 16773092 female
-0.9517097 0.5025184 -0.1481487 0.6989889 -0.3296699 0.634612 15725559 female
-0.7384855 0.2519907 -0.04600542 0.4546593 0.1601635 0.8761464 5130576 female
-0.664441 0.5344906 -0.1575857 0.7223257 0.1166114 0.6816504 9343641 female
-0.9599967 -0.6827105 -0.09113581 0.9523802 0.2418279 0.1857181 10850699 female
-0.7493055 0.4512192 -0.314848 0.007990451 -0.266489 -0.9638048 15462391 female
-0.7683318 0.5447412 -0.1069495 0.01731437 0.6518037 0.75819 9145496 female
-0.7061961 0.5567035 -0.1307578 0.3308442 0.6213706 0.7102398 2697265 female
-0.7626162 -0.05064795 -0.2220813 -0.6306332 -0.2372557 -0.738926 2237481 female
-0.8115935 0.5086753 -0.3114342 -0.2278658 0.2651235 -0.9369027 15396607 female
-0.6467703 -0.5779648 -0.2021791 0.787469 -0.1062884 0.6071205 2434085 female
-0.749956 0.719055 -0.1962804 0.933025 -0.2435209 0.264881 12429467 female
-0.6451857 -0.496247 -0.1859319 0.5417795 -0.1833915 0.8202697 2171428 female
-0.7265113 0.2754107 -0.05880269 0.5620267 0.1791026 0.8074949 14342371 female
-0.6814421 0.5981445 -0.1794234 0.3141194 0.5698411 0.7593485 10987956 female
-0.7877747 -0.02285548 -0.1196389 -0.9289035 -0.1893833 0.3182331 1907741 female
-0.7238764 0.03736042 -0.2822939 0.07865251 -0.5632455 -0.8225377 2171945 female
-0.6162294 -0.003877093 -0.1248954 0.9435655 -0.01242373 0.3309527 1973537 female
-0.6306188 0.2764467 -0.2010583 -0.8819253 0.1194539 0.4560027 9147032 female
-0.7203459 0.8745578 -0.2341207 0.9217188 0.3535676 -0.1594502 2039327 female
-0.6295792 0.4514772 -0.2922245 0.08358768 -0.08544709 -0.9928302 6710639 female
-0.9249048 0.3015175 -0.1037788 -0.7596207 0.2364646 0.6058555 14146793 female
-0.9633859 -0.305649 -0.06668736 0.04948057 -0.445435 0.8939459 1776669 female
-1.043228 -0.6913627 -0.09542709 -0.8128136 0.5620083 -0.1532343 14598074 female
-0.6472358 0.1204037 -0.1012126 0.6905327 0.228751 0.686176 15330809 female
-0.5859356 0.03786223 -0.06880781 -0.8421628 -0.3789488 -0.3836139 8022116 female
-0.5985309 0.5781875 -0.2409184 0.7802895 0.5836977 -0.2246004 13883363 female
-0.9534516 -0.5993816 -0.1902139 0.9627813 -0.03523967 -0.2679747 1908771 female
-0.6607412 -0.3775847 -0.1563793 0.139912 -0.1876341 0.9722233 2170403 female
-0.920424 0.4091967 -0.1186994 -0.7897304 -0.2610391 0.5551437 14343396 female
-0.7881949 0.6201681 -0.1545423 0.1219615 0.5594314 0.8198549 11974596 female
-0.9940068 -0.6213398 -0.1443656 -0.7913685 0.2691095 0.5489226 2236968 female
-0.9808919 0.6136954 -0.2044791 -0.712177 0.6606426 -0.2373926 11711421 female
-0.7948233 0.2519905 -0.277266 -0.09860985 0.3105473 -0.9454293 13948650 female
-0.6193176 0.5785873 -0.1902587 0.3992574 0.350191 0.8473251 8947088 female
-1.019646 0.4075781 -0.2103402 -0.5421274 -0.09614028 -0.8347784 5589847 female
-0.9195891 -0.4309322 -0.1588836 0.9827778 -0.1843012 -0.01344334 1842720 female
-0.9325921 -0.01782487 -0.2115408 -0.2181022 -0.3553785 -0.9089211 2763826 female
-0.744074 0.5349268 -0.09887127 0.1051601 0.6532392 0.7498133 15659774 female
-0.6475864 -0.6182845 -0.2022431 0.8782201 0.08014164 0.4714941 2829616 female
-0.6994724 -0.1078933 -0.2387679 -0.05468111 -0.07918223 -0.9953593 2106409 female
-1.02593 -0.6819127 -0.09128876 -0.4021483 0.9014557 0.1601698 16242386 female
-0.896539 0.3505512 -0.2546825 -0.5615726 -0.1880079 -0.8057849 10330288 female
-0.9899025 -0.6512342 -0.1102617 -0.2979095 0.8262508 0.4780791 16774119 female
-0.6757171 -0.09405577 -0.2375312 0.2421201 -0.05849142 -0.9684816 2171945 female
-0.6430203 -0.3260252 -0.1517788 0.6063632 -0.1781768 0.7749689 1777187 female
