# .PCD v0.7 - Point Cloud Data file format
VERSION 0.7
FIELDS x y z normal_x normal_y normal_z rgb label
SIZE 4 4 4 4 4 4 4 4
TYPE F F F F F F U U
COUNT 1 1 1 1 1 1 1 1
WIDTH 170
HEIGHT 1
VIEWPOINT 0 0 0 1 0 0 0
POINTS 170
DATA ascii
-0.9095188 0.1125789 0.8145548 -0.9180422 0.1338657 -0.3732003 14606822 female
-0.596311 0.1563732 0.7459766 0.6211818 0.04537438 -0.7823517 9803174 female
-0.8656328 -0.4290195 0.9072585 0.4259062 -0.2545651 0.8682169 2170913 female
-0.6062039 0.1350457 1.033508 -0.67134 -0.6686181 -0.3197693 6904923 female
-0.6129697 -0.302839 0.7943339 0.0266103 0.4304864 -0.9022048 2698289 female
-0.5883211 -0.2014719 0.9354576 0.6030889 -0.1933132 0.7738951 2170145 female
-0.8227587 0.3503261 0.7593117 -0.6077236 -0.2205663 -0.762904 15726591 female
-0.9259467 -0.7136359 0.9992634 -0.3595904 -0.9329894 -0.0150198 526344 female
-0.8443188 -0.4807467 0.8660504 0.9329611 -0.2420499 0.2664497 1710362 female
-0.919664 0.242716 0.9501653 0.114704 -0.9209332 -0.372458 4736584 female
-0.9340359 0.5066926 0.8578275 -0.8102297 0.1331771 0.5707817 11251886 female
-0.8852572 0.257188 0.8611091 -0.8855733 0.4489526 0.1191702 6119008 female
-0.9024851 -0.5193389 0.8129532 -0.3043014 -0.03452933 -0.9519498 2301987 female
-0.931265 0.440179 0.8748162 -0.6063573 0.2581267 0.7521313 6777706 female
-0.5187481 0.4768375 0.7568626 0.5648378 -0.02769062 -0.8247373 8421263 female
-0.5597616 0.01461082 0.9308109 0.8203812 0.03788719 0.5705605 1973536 female
-0.8837267 0.2393762 1.139388 -0.4774179 0.6345134 0.6078364 16638683 female
-0.8182835 0.04858364 0.9862899 0.1287687 0.1721963 0.9766099 2171945 female
-0.8031536 -0.24229 0.9008515 0.9679688 -0.2059145 -0.1436513 1842208 female
-0.6386582 -0.6033596 0.8213513 -0.4907482 0.1352552 0.8607394 2499110 female
-0.8831969 0.4307359 0.877341 0.5906618 0.02551685 0.8065156 11383226 female
-0.8614821 0.39331 0.8206753 -0.9949537 -0.05150355 -0.08610807 14148334 female
-0.9541237 0.2614198 0.9907786 -0.9816206 -0.1392065 0.1305473 5397866 female
-0.6041517 0.3397399 0.8926364 0.7992932 0.1182079 0.5892006 9671578 female
-0.8603395 0.3893651 0.81182 -0.9828556 -0.04850532 -0.1778821 14606311 female
-0.5671642 0.3662593 0.8344175 -0.8033801 -0.006556004 0.5954305 13224659 female
-0.6402999 0.2247113 0.9615958 0.5882236 0.09918398 0.8025929 5461599 female
-0.6280643 0.2316974 0.747502 0.3409857 0.3047941 -0.8892859 5327965 female
-0.6246952 0.8697465 0.779507 0.8649195 0.4076994 -0.2927378 2631463 female
-0.6660891 0.475405 0.9513348 -0.08654138 0.2456881 0.9654781 9343643 female
-0.5253345 0.2568633 0.819237 0.2496319 -0.732509 -0.633336 14344168 female
-0.5699409 -0.4236937 0.7985308 0.9567478 -0.0720142 -0.2818646 1579808 female
-0.8566213 -0.103075 0.8257288 -0.1313857 -0.1785026 -0.9751279 2500910 female
-0.8236609 -0.2287744 0.8661097 0.4920613 -0.1076224 -0.8638825 2303014 female
-0.6007941 -0.6767859 0.7915381 0.9641871 0.1377415 -0.2266505 13087919 female
-0.7291242 0.8637878 0.7318854 -0.4940806 0.3694937 -0.7869935 9473672 female
-0.6341982 0.7571258 0.8196595 0.7954168 -0.5485882 0.2576103 16768982 female
-0.8260164 0.6519372 0.7715331 -0.4847088 0.8264112 -0.2865343 10002856 female
-0.8995404 0.1897241 0.8911474 -0.9054766 0.2229215 0.3611344 3683642 female
-0.6860294 0.55019 0.7033898 -0.2498103 0.1744861 -0.952444 13554663 female
-0.567085 -0.1900218 0.9083298 0.9201831 -0.1388222 0.3660484 2105377 female
-0.7089933 0.350958 0.9625477 0.1091419 0.2575306 0.9600865 16120319 female
-0.8190627 0.09781571 0.7296392 -0.2957323 -0.1508486 -0.9432852 13357531 female
-0.6824776 0.2148138 0.9853435 0.3143003 0.01467286 0.9492102 12700887 female
-0.9323115 0.5560277 0.8482378 -0.8196946 0.3878624 0.4215014 7304056 female
-0.8571315 0.4360555 0.8948342 -0.8579119 -0.3788343 0.3470902 14079966 female
-0.6289278 0.2785999 0.7551198 0.4296161 -0.04902663 -0.9016798 13488354 female
-0.7180806 -0.06814592 0.8696864 -0.9790447 -0.2024674 -0.02186983 2433573 female
-0.543226 -0.0477749 0.8559992 0.9749259 -0.1694542 -0.1442384 2105122 female
-0.5833536 0.60332 0.8313688 0.1699872 0.7032611 0.6903102 13356499 female
-0.8052997 0.1164825 0.9687337 0.001436162 0.1725219 0.9850046 2500655 female
-0.6589586 0.7171093 0.786963 0.8311121 -0.1416309 -0.5377669 4866113 female
-0.5649734 0.4518323 0.8383252 0.9844587 -0.1333415 0.1142846 14343651 female
-0.8624195 -0.3014876 0.8455918 0.4057516 0.3465497 -0.8457358 2500142 female
-0.9122809 0.531179 0.7774172 -0.4195071 -0.0386027 -0.9069309 10725043 female
-0.7432982 0.7200186 0.7789063 -0.8046895 0.1421984 -0.5764151 5984074 female
-0.8520913 -0.118475 0.9904195 0.0009053013 -0.111145 0.9938038 2171944 female
-0.5284061 0.5891052 0.8221639 0.5546818 0.7490958 0.3621926 6909042 female
-0.6964046 0.5234309 0.9238592 0.0458 0.6529761 0.7559925 14278121 female
-0.8223754 -0.04887903 0.8121545 0.1247825 -0.3196716 -0.939276 2500651 female
-0.6952885 0.7984018 0.9248475 -0.2772078 0.6094682 0.7427681 14401976 female
-0.665912 -0.197153 0.9303834 -0.6689441 -0.2073748 0.7137994 2170913 female
-0.8211192 0.4218482 0.7376878 -0.5052552 -0.3469714 -0.7901443 15198199 female
-0.8202585 -0.02402546 0.9909275 0.2452462 -0.02930318 0.9690179 2170916 female
-0.6478759 -0.2888212 0.9105228 -0.5833676 -0.4336594 0.6867473 2170913 female
-0.9134895 -0.04686631 0.8500342 -0.8373508 -0.1749099 -0.5179287 2170917 female
-0.6418673 0.3934414 0.9229157 0.5515559 0.04443112 0.8329538 14410225 female
-0.5967787 0.3168124 0.889416 0.8243346 0.1700723 0.5399518 6183780 female
-0.9181472 -0.3030915 0.8492019 -0.5949479 0.3564509 -0.7204025 2171945 female
-0.6448872 -0.2045961 0.9425473 -0.3736818 -0.2059011 0.904415 2170401 female
-0.6932002 0.1426987 0.979039 0.3367968 -0.2241112 0.9145174 14541297 female
-0.8777439 -0.2079021 0.8563623 -0.1548501 -0.04331015 -0.9869882 2698289 female
-0.8884594 -0.7033874 0.8613027 0.1989863 -0.9799573 0.009380366 986381 female
-0.8157292 -0.2751145 0.8925196 0.9124142 -0.2423338 -0.32981 1973278 female
-0.8659814 0.08563743 0.7567295 -0.5952559 -0.07274264 -0.8002368 2698283 female
-0.9214926 0.1800282 1.09385 -0.4636363 -0.7443306 -0.4806385 15200255 female
-0.8444235 -0.02645958 0.8032148 -0.1012573 -0.3634551 -0.9260925 2697516 female
-0.9225019 -0.6818945 0.8126239 -0.9343887 0.03457252 -0.3545737 14269620 female
-0.5721447 0.2117501 0.9738293 -0.5206662 0.7430197 0.4205099 15529983 female
-0.6311182 -0.08911312 0.9645154 -0.05734801 -0.1500313 0.9870167 2171944 female
-0.9369691 0.3058999 0.9779871 -0.2019913 0.7905524 0.5781232 14872823 female
-0.5637884 0.4657431 0.7844583 0.8995978 -0.4364137 0.01633727 15198183 female
-0.9405959 0.3995396 0.8793688 -0.6254503 0.3243129 0.7096711 9473686 female
-0.9081316 -0.3745451 0.9294429 -0.3448623 -0.1807011 0.9210956 2434085 female
-0.8477494 -0.2994774 0.8568299 0.5992787 0.2761758 -0.7513933 2631464 female
-0.863521 0.3140618 0.8201041 -0.9562476 0.1503174 -0.2509882 6908269 female
-0.6963909 -0.1684263 0.8652781 -0.9896118 -0.1071669 -0.09583167 1841436 female
-0.5378646 0.05554542 0.8762464 0.9801015 0.0525296 0.1914203 1908257 female
-0.649896 0.8202617 0.7340036 0.6298667 -0.1116066 -0.7686429 3420972 female
-0.6089466 0.1130044 1.102226 0.8150529 -0.5431858 0.2015885 8613735 female
-0.7851551 -0.05356615 0.8272573 0.5491873 -0.3403716 -0.7632434 2498854 female
-0.7875124 0.1755216 0.7292438 -0.1127129 0.2291767 -0.966837 11580614 female
-0.9104875 -0.2682328 0.8636157 -0.5688252 0.3156317 -0.759483 2565930 female
-0.8764265 0.2555052 0.8058178 -0.7929475 0.4450121 -0.4161713 9934493 female
-0.6946251 -0.1540724 0.8464419 -0.9279263 -0.1260998 -0.3507872 2170913 female
-0.5883413 0.2898712 0.7935122 0.8739268 0.007169956 -0.4860046 13620190 female
-0.6721435 -0.3352113 0.8172495 -0.9209858 0.2162185 -0.3240907 2039329 female
-0.7277254 0.4678442 0.9509995 0.1977689 0.05309032 0.9788099 7171962 female
-0.738776 0.03261002 0.8164252 0.264593 -0.9386448 -0.2212159 1842204 female
-0.863336 0.5767637 0.874899 0.02029543 0.242465 0.9699479 15200247 female
-0.5628334 -0.128948 0.9163994 0.9055491 -0.138316 0.4010603 1973793 female
-0.6032017 -0.6627187 0.7821937 0.9701577 0.03062823 -0.2405326 2105376 female
-0.8829867 -0.4684783 0.9029802 0.245113 -0.2524795 0.9360415 2105377 female
-0.5427266 0.6016716 0.8188131 0.4306841 0.8401774 0.3295651 13224909 female
-0.8740558 -0.2108113 0.856966 -0.1085448 -0.04697939 -0.9929808 2566703 female
-0.9069635 0.2680553 0.9020894 0.484533 -0.782596 -0.3908596 10263196 female
-0.5064067 0.5169601 0.8356709 0.7168749 0.1100018 0.6884693 11053487 female
-0.9132984 -0.664817 0.9088074 -0.5723214 0.7478372 0.3364339 16311770 female
-0.6942665 -0.1996706 0.8724905 -0.9972795 -0.06040484 0.04224781 1579291 female
-0.6178715 -0.005111099 0.9715294 0.1938947 0.01183206 0.980951 2499878 female
-0.6259929 0.4203461 0.7189541 0.3598702 -0.364696 -0.8587726 9606042 female
-0.686076 0.745532 0.9135931 0.5678012 0.07914085 0.8193524 11896460 female
-0.6686609 0.2039062 0.7311096 0.07034688 0.278189 -0.9579469 11186111 female
-0.898398 -0.7068683 0.879842 0.1352203 -0.9879127 -0.07579018 722698 female
-0.6516828 0.6547656 0.815148 0.8343143 0.3262859 0.4443615 13218216 female
-0.5052714 0.5550331 0.7932574 0.8301312 0.4705583 -0.2990939 12567509 female
-0.8238225 -0.05089517 0.8125458 0.1159563 -0.3149727 -0.9419907 2500652 female
-0.5836568 0.5814862 0.7224339 0.4806562 0.2999281 -0.8240223 14014696 female
-0.7249817 0.7739022 0.9095355 -0.1988337 -0.02302086 0.9797629 16773348 female
-0.7756588 -0.004007902 0.9694657 0.6172426 -0.08593333 0.7820659 2170145 female
-0.6076266 -0.5547801 0.7636937 0.7036135 -0.1300457 -0.6985815 1973281 female
-0.8154148 0.5211366 0.9265686 -0.3537109 0.5917253 0.7243961 5724514 female
-0.8344455 -0.2398785 0.8643811 0.3079486 -0.1206349 -0.9437239 2500137 female
-0.692223 0.2931971 0.9709746 0.2122359 0.1761504 0.9612112 6316394 female
-0.6557723 0.1664724 1.103713 -0.6672096 0.2357438 0.7065806 12689823 female
-0.8844602 0.5874126 0.870654 -0.1134471 0.3655301 0.9238601 12303555 female
-0.6572529 0.2329817 0.9714956 0.497972 0.1323816 0.8570291 13357798 female
-0.5843164 0.5110373 0.8787801 0.7642798 0.1565226 0.6256012 14607854 female
-0.8814774 -0.7209767 0.9496629 0.3790787 -0.9227918 -0.06895321 723723 female
-0.6578002 0.4433006 0.7035317 0.08032612 -0.2581793 -0.9627519 15462391 female
-0.6909255 0.5345162 0.9115573 -0.02495182 0.6359417 0.7713336 9145496 female
-0.6274902 0.5156615 0.9195866 0.2916694 0.6266682 0.7226451 15198199 female
-0.7029247 -0.02476595 0.8042763 -0.6683411 -0.2963255 -0.6822839 2302243 female
-0.7068685 0.4843703 0.6979842 -0.1287911 -0.03261872 -0.9911351 13683420 female
-0.6077384 -0.59399 0.8135332 0.7493229 -0.1594119 0.642731 1907998 female
-0.6578895 0.7079364 0.830324 0.8921599 -0.3053732 0.3328632 12429467 female
-0.6160437 -0.4669334 0.8535614 0.003726541 -0.2905453 0.9568539 2105379 female
-0.6563835 0.251148 0.9665686 0.5083856 0.1765833 0.8428299 12895958 female
-0.5647824 0.583717 0.8469291 0.0647366 0.5265287 0.8476891 13620191 female
-0.7213236 -0.02605203 0.9051231 -0.9570834 -0.1396432 0.2539512 1907741 female
-0.7105305 0.06873104 0.7279771 -0.2280371 -0.3279682 -0.9167529 2764858 female
-0.5491592 -0.01442466 0.9127805 0.9155971 -0.03951864 0.4001502 1973537 female
-0.5719016 0.2259692 0.8749874 -0.8179915 -0.4096506 -0.4038271 10395046 female
-0.6153219 0.8508139 0.8212998 0.9876562 0.1238317 0.09592127 2368292 female
-0.5569748 0.4277036 0.753713 -0.194581 -0.2236442 -0.9550506 12106177 female
-0.8654124 0.2850702 0.8870583 -0.8753308 0.3138059 0.3678612 10988207 female
-0.8609644 -0.2903475 0.9618373 0.3426403 -0.5339803 0.7729571 2367780 female
-0.957489 -0.6995735 0.9475904 -0.833113 0.5479106 -0.07560959 11112842 female
-0.5762908 0.1123528 0.930213 0.6492778 0.2269852 0.7258899 15330809 female
-0.6031575 0.04107515 1.067936 -0.969703 0.2045814 -0.1335009 12888993 female
-0.5121786 0.5663645 0.8252693 0.7272696 0.5281606 0.4383208 11779772 female
-0.8688728 -0.5807647 0.8192788 0.8203678 -0.05780047 -0.5689076 2564904 female
-0.609953 -0.3871079 0.8778963 0.07246415 -0.2761262 0.9583858 2170403 female
-0.8524127 0.4238193 0.890973 -0.8189004 -0.4138756 0.3976293 14474982 female
-0.7139069 0.6114722 0.8651204 0.1174857 0.5530707 0.8248091 12237763 female
-0.9073059 -0.6310383 0.8782502 -0.768196 0.2846489 0.5734544 2236968 female
-0.8851854 0.6123211 0.7840399 -0.7071955 0.5698181 -0.4185475 12304586 female
-0.6992385 0.2630717 0.7454163 -0.07679302 0.1769147 -0.9812258 15201279 female
-0.5511147 0.5325017 0.8526415 -0.02678152 -0.03317155 0.9990908 13684696 female
-0.8977246 0.3432106 0.8260363 0.5725518 -0.4792147 -0.665235 15461875 female
-0.8305597 -0.4097514 0.8563913 0.9820572 -0.09014242 -0.1656443 1776673 female
-0.8433767 0.0007784702 0.7908621 -0.1371025 -0.5151818 -0.8460441 2895412 female
-0.6757733 0.5168486 0.9272377 0.0243766 0.6038471 0.7967274 10395047 female
-0.6085815 -0.6227012 0.8103568 0.8532172 -0.004172655 0.521539 2829616 female
-0.628606 -0.1188442 0.796613 0.01619265 -0.1102961 -0.9937668 2106409 female
-0.9529916 -0.6954699 0.9406036 -0.5062655 0.8623765 0.001459376 16309463 female
-0.785675 0.2813692 0.7533663 -0.1251713 0.03210336 -0.9916157 12304344 female
-0.8986494 -0.6637077 0.9205021 -0.142862 0.8663613 0.4785483 16443357 female
-0.6043886 -0.1060512 0.799074 0.3110135 -0.102203 -0.9448942 2171945 female
-0.5851303 -0.3544961 0.88113 0.5776409 -0.2047501 0.7901951 2171945 female
