# .PCD v0.7 - Point Cloud Data file format
VERSION 0.7
FIELDS x y z normal_x normal_y normal_z rgb label
SIZE 4 4 4 4 4 4 4 4
TYPE F F F F F F U U
COUNT 1 1 1 1 1 1 1 1
WIDTH 170
HEIGHT 1
VIEWPOINT 0 0 0 1 0 0 0
POINTS 170
DATA ascii
-0.8678151 0.0748916 0.6070005 -0.5531949 -0.1573583 -0.8180549 2566703 female
-0.5716091 0.1352417 0.6347485 0.8445094 -0.05250184 -0.532961 12040900 female
-0.8837353 -0.4277296 0.8607881 0.2450355 -0.1704109 0.9544201 1842467 female
-0.6188047 0.1476074 0.9675611 -0.7622794 -0.5208818 -0.3842033 6115404 female
-0.6228742 -0.5789642 0.7827541 0.7811856 -0.1603408 0.6033572 2171172 female
-0.6613837 -0.1855705 0.8573993 -0.366848 -0.0267968 0.9298949 2170145 female
-0.8837806 0.2638535 0.7018834 -0.8749002 0.4754994 0.09192387 14870257 female
-0.9379044 -0.6817664 0.9465612 -0.6753998 -0.7363705 0.03991771 461319 female
-0.873034 -0.08047362 0.8882035 -0.2787752 0.1311155 0.9513638 2171944 female
-0.897228 0.2336323 0.7941119 0.03584681 -0.9302915 -0.3650654 9802645 female
-0.9169907 0.5170827 0.7191604 -0.7162665 0.06422812 0.6948647 12304322 female
-0.8603773 0.2511642 0.6233203 -0.6071122 0.4114367 -0.6798048 13752041 female
-0.9155237 -0.4935817 0.777044 -0.6835098 -0.1534914 -0.7136208 1776155 female
-0.8811971 0.4062076 0.7256817 0.4533468 -0.05332363 0.8897378 12896464 female
-0.5054291 0.4361643 0.655053 0.6037493 -0.1199591 -0.7880968 15001587 female
-0.6348721 0.09966356 0.8146547 0.1807811 0.3965096 0.9000546 2500910 female
-0.8589668 0.4007967 0.6717095 0.9343433 -0.3099389 -0.1758988 9672091 female
-0.7712197 0.06859463 0.8211466 0.6982803 0.2881883 0.6552497 2171430 female
-0.8047631 -0.2140692 0.8406726 0.975834 -0.1701595 0.1370905 1775899 female
-0.676168 -0.621861 0.7772935 -0.9412978 0.2026993 0.2699472 1775643 female
-0.8621538 0.4212248 0.7103559 0.8146226 -0.1549576 0.558908 15461363 female
-0.8499091 0.4198757 0.6403064 -0.8905886 -0.2536536 -0.3775072 13554390 female
-0.9345478 0.2955209 0.793852 -0.8469867 0.2889599 0.4462238 5660513 female
-0.58696 0.3551869 0.7226222 0.8881686 -0.07458723 0.453424 8026752 female
-0.8365508 0.4144523 0.6191672 -0.783712 -0.2105667 -0.5843433 13685982 female
-0.5620236 0.3772352 0.7206132 -0.9288904 -0.04763816 0.3672781 15725567 female
-0.6405684 0.2720439 0.7890776 0.6427976 0.1524897 0.7507051 11514301 female
-0.6366035 0.2029594 0.5891209 0.2868519 0.2412322 -0.9271046 9079706 female
-0.5975189 0.8597676 0.7072219 0.9001085 0.4070416 -0.1553122 2631463 female
-0.6876951 0.4319316 0.8145174 -0.1783749 -0.2106345 0.9611532 15133438 female
-0.4892952 0.2555127 0.7526373 0.9266222 -0.3637447 -0.09519023 9211548 female
-0.5972719 -0.48888 0.7697154 0.9629665 -0.2019246 0.1786675 1908257 female
-0.8652926 -0.1071255 0.7248036 -0.1820842 -0.3849309 -0.9048058 2500910 female
-0.8081746 -0.1986491 0.8059178 0.8519173 -0.2027209 -0.482847 2170147 female
-0.615091 -0.6933488 0.7850478 0.9200551 0.2234578 -0.3218156 12493981 female
-0.6972484 0.8658093 0.6507969 -0.406356 0.4994006 -0.7651627 9473672 female
-0.6149724 0.7444562 0.7206938 0.02025275 -0.7090665 -0.7048507 9796721 female
-0.7994878 0.6323162 0.6148517 -0.2970912 0.6198019 -0.7263487 13554663 female
-0.8685288 0.2220365 0.6168462 -0.607901 0.331828 -0.7213504 13753066 female
-0.6721916 0.5387104 0.578554 -0.1750452 0.2777514 -0.9445705 2960173 female
-0.6800295 -0.1473785 0.8465173 -0.6004103 -0.04144405 0.7986175 2104865 female
-0.6032026 0.3257006 0.7443727 0.7879062 0.004153864 0.6157813 14080999 female
-0.8603107 0.1834696 0.6011482 -0.5409633 0.1579474 -0.8260819 4932171 female
-0.6917272 0.1361241 0.8244201 0.3695861 -0.2204288 0.9026723 6645624 female
-0.9085507 0.5323855 0.728319 -0.5288218 0.06354636 0.8463506 7631737 female
-0.861746 0.4258409 0.6736269 -0.961336 -0.2462694 -0.1232253 10856363 female
-0.6342176 0.2740465 0.6010421 0.3849876 -0.09634811 -0.9178788 15199231 female
-0.7231207 -0.09951089 0.754182 -0.9742396 -0.2095893 -0.08324385 1973795 female
-0.6033886 -0.2374266 0.7510439 0.6583678 -0.076099 -0.7488396 2565672 female
-0.5110167 0.5719658 0.7143347 0.6141258 0.7065662 0.3515874 10395550 female
-0.9105567 0.1821354 0.7248905 -0.944114 0.2474207 0.2177884 14410987 female
-0.637606 0.709375 0.6880642 0.8700248 -0.1032019 -0.4820853 4866113 female
-0.5534626 0.4470205 0.6676164 0.9160243 -0.3960989 0.06328727 3816514 female
-0.8501763 -0.2900578 0.7935655 0.5897743 0.1981906 -0.7828708 2302499 female
-0.9081758 0.5640347 0.6533939 -0.6430234 0.4127114 -0.6451281 14345971 female
-0.7254213 0.7078588 0.676079 -0.7625145 0.3493885 -0.5445176 10981510 female
-0.8292373 -0.1169536 0.8887048 0.4594167 0.03701388 0.8874493 2169889 female
-0.5581206 0.4724306 0.6976359 0.7695614 -0.5322335 0.3528495 11645366 female
-0.7550276 0.4810219 0.8126844 0.1362243 0.377559 0.9159106 11119026 female
-0.8236955 -0.04794586 0.6900415 0.1566499 -0.5231183 -0.8377398 1841954 female
-0.6671617 0.7613612 0.8213259 0.8318739 0.1022148 0.5454704 14795960 female
-0.6073434 -0.1879023 0.8512354 0.5585126 -0.05478413 0.8276849 2170145 female
-0.7621434 0.3839 0.5810607 -0.09002928 -0.181288 -0.9793004 13289428 female
-0.8392518 0.01683924 0.8695092 0.07651291 0.2449217 0.9665191 2434342 female
-0.6392056 -0.2741596 0.857985 -0.0954781 -0.3534254 0.9305775 1776163 female
-0.910057 -0.02594726 0.7073971 -0.708746 -0.3934725 -0.5855412 1973542 female
-0.578899 0.4107859 0.6163105 0.7475995 -0.3821153 -0.5432153 12040383 female
-0.5933117 0.3124822 0.7312153 0.8643801 0.05607377 0.4997025 12896716 female
-0.9377359 -0.3455677 0.843899 -0.9223449 0.0009538329 0.3863663 2170660 female
-0.5893907 -0.1987538 0.8316832 0.8474317 -0.08200217 0.5245332 2170913 female
-0.697145 0.2092463 0.8350661 0.2330659 0.009240325 0.9724171 4867915 female
-0.8714204 -0.2208057 0.7908118 0.02834178 -0.1669162 -0.9855636 2499625 female
-0.8795729 -0.6855913 0.8142084 0.1551982 -0.9831685 0.09640122 723467 female
-0.8054528 -0.2178552 0.8381122 0.9810544 -0.1832392 0.06289472 1776155 female
-0.8416338 0.08152987 0.5907444 -0.409161 -0.2216364 -0.8851354 3355195 female
-0.8908522 0.1884169 0.9093526 -0.723561 -0.6278405 -0.2868377 15199481 female
-0.8506643 -0.02076051 0.6699323 -0.1197024 -0.6062639 -0.7862032 2763826 female
-0.900898 -0.6217606 0.7748066 -0.7535078 0.2292169 -0.6161863 1448478 female
-0.5666016 0.2428121 0.8240697 -0.8265821 0.5210637 0.2127315 15134462 female
-0.6485638 -0.09362656 0.8570248 -0.1096439 0.03023189 0.9935111 2171687 female
-0.926786 0.2852777 0.8145493 -0.7844948 0.3708725 0.4970126 7698814 female
-0.5714817 0.4901139 0.5956301 0.6314857 -0.1708693 -0.7563263 12829131 female
-0.9340454 0.4412529 0.6920946 -0.9810019 0.1532338 0.1189732 9080731 female
-0.9345669 -0.2778374 0.8124231 -0.9232055 0.2126956 -0.3200816 1973537 female
-0.8392797 -0.2864298 0.8070585 0.7571836 0.0495958 -0.6513166 2368292 female
-0.8665466 0.2927302 0.6587701 -0.9065671 0.2748741 -0.3202815 3419440 female
-0.7047016 -0.1704171 0.7481194 -0.8882075 -0.1575565 -0.4315825 2170913 female
-0.547972 0.04991016 0.7429711 0.9751568 0.05933985 0.2134198 1908257 female
-0.6201768 0.8188208 0.6527922 0.6948096 -0.02613198 -0.7187188 3420972 female
-0.6181836 0.1366692 1.015613 0.7986853 -0.4801866 0.3626603 10454654 female
-0.7938471 -0.03579105 0.6917483 0.456468 -0.5316103 -0.7134616 2697257 female
-0.7465855 0.0633047 0.591059 -0.05232802 -0.4676732 -0.8823512 2698546 female
-0.9320291 -0.2330952 0.8373735 -0.9879584 0.07377581 -0.1359977 1841696 female
-0.8902181 0.2410979 0.7280484 -0.8537791 0.4129927 0.3170145 14738668 female
-0.7056705 -0.2509964 0.7727101 -0.9352599 -0.1347564 -0.3273066 2105120 female
-0.5782486 0.2508708 0.6659835 0.9452487 0.2048917 -0.2540163 14278633 female
-0.6901121 -0.3387359 0.7547922 -0.9143648 0.1738252 -0.3656799 2039329 female
-0.7529345 0.4290816 0.8131759 0.1268802 -0.3686705 0.9208602 3948875 female
-0.7533645 0.008459201 0.7180889 0.9065549 -0.3674632 -0.2076753 1645342 female
-0.8419433 0.6382697 0.6583389 -0.5598816 0.8040234 -0.2001971 14804472 female
-0.5788124 -0.1212023 0.818872 0.8865601 -0.07116511 0.4571069 1973793 female
-0.6309919 -0.6666694 0.7429261 0.8578649 -0.05868267 -0.5105137 2303011 female
-0.9160676 -0.5394431 0.8303542 -0.8552324 -0.1634554 0.4917924 2631464 female
-0.5574443 0.4784359 0.6894026 0.6121712 -0.6836482 0.3973304 15395311 female
-0.8679776 -0.2236255 0.7920123 0.04633934 -0.1790507 -0.9827479 2565161 female
-0.8786935 0.2407899 0.7990181 0.7556552 -0.5909716 -0.2823788 4934484 female
-0.4824401 0.4668204 0.7022498 0.9892908 -0.001728055 0.1459479 6776176 female
-0.9184484 -0.6280756 0.8120134 -0.9909449 0.1330313 0.01819091 1776675 female
-0.7044259 -0.2351259 0.7638379 -0.8755647 -0.07743878 -0.4768539 2170658 female
-0.5810435 -0.09012578 0.8269019 0.8107148 -0.04136524 0.5839781 1973537 female
-0.6115568 0.4195744 0.5846143 0.4096048 -0.2870032 -0.8659406 9606042 female
-0.6987575 0.7529026 0.8160806 -0.7414674 -0.1518277 0.6535859 13148311 female
-0.6560621 0.1984742 0.5839966 0.1630387 0.2364786 -0.9578602 14608375 female
-0.8808723 -0.6854079 0.8195055 0.1634529 -0.9801204 0.11246 657418 female
-0.7084032 0.6266041 0.7405564 -0.1072 -0.03768774 0.9935229 15330806 female
-0.4937232 0.5496156 0.7046964 0.8439618 0.5261393 0.1044316 14015467 female
-0.8226124 -0.04635768 0.6889017 0.167119 -0.526341 -0.8336884 2105124 female
-0.539215 0.5450903 0.6213824 0.619194 0.1205042 -0.7759366 10788781 female
-0.6635258 0.6866126 0.770099 0.4704956 -0.8686172 0.1553643 14338485 female
-0.8564913 0.03506556 0.8636667 -0.1669348 0.3028227 0.9383129 2500137 female
-0.6237371 -0.6163554 0.7559656 0.9759164 -0.09348474 -0.1970985 1776155 female
-0.7737922 0.5005873 0.8030483 -0.02632207 0.534198 0.8449494 11711679 female
-0.8232082 -0.2462304 0.8131357 0.7353865 -0.2981689 -0.6085244 2301475 female
-0.7196362 0.2829598 0.8186712 0.04661516 0.1206598 0.9915988 7434876 female
-0.6067328 0.09668677 1.005848 0.8322759 -0.03304334 0.553376 15056306 female
-0.8560595 0.538096 0.7270992 0.1476639 -0.4965549 0.8553529 7763584 female
-0.6649824 0.226985 0.8193359 0.4720751 0.120384 0.8732999 13357798 female
-0.5648084 0.4521153 0.7463824 0.9533736 -0.07466191 0.2924115 14145760 female
-0.8587334 -0.662751 0.8751109 0.988324 0.02630908 0.150078 9140859 female
-0.6407773 0.4458905 0.5698771 0.1450167 -0.1523198 -0.9776343 15462391 female
-0.6567625 0.5343184 0.7732959 0.08351132 0.5261667 0.8462709 11711420 female
-0.629845 0.4151456 0.8158281 0.1722022 -0.4690037 0.8662459 14082031 female
-0.6789007 -0.1065887 0.6905397 -0.3701794 -0.3176982 -0.8729462 2171943 female
-0.6976579 0.4958237 0.5666109 -0.0236004 0.1738256 -0.9844936 15526648 female
-0.6334018 -0.3052207 0.7306212 -0.01625945 0.303113 -0.9528159 2566703 female
-0.6405972 0.6941258 0.730114 0.8485105 -0.391925 0.3555626 12429467 female
-0.6379255 -0.4708378 0.8072365 -0.04497737 -0.1614057 0.9858627 2105379 female
-0.6610729 0.2637134 0.8067025 0.5122378 0.141219 0.8471538 15528188 female
-0.5602364 0.5424197 0.7455063 -0.02522062 0.1690379 0.9852868 16315898 female
-0.7382289 -0.01543551 0.7283487 -0.9907447 -0.0772217 -0.1116326 5986907 female
-0.6409674 0.006086087 0.6147655 0.189437 -0.6794784 -0.7088179 2302505 female
-0.5633563 -0.02299496 0.7942114 0.9040179 -0.00306385 0.4274838 1908001 female
-0.5666725 0.2554789 0.7753938 -0.9701933 0.2422468 -0.006450646 13553630 female
-0.5931896 0.8496906 0.732398 0.9583883 0.2753838 0.07520401 2039327 female
-0.539353 0.4261872 0.6459862 -0.09792806 -0.2357503 -0.9668671 6843249 female
-0.8166296 0.354744 0.7695258 -0.7107506 0.08376639 0.6984388 14672117 female
-0.8434338 -0.2414013 0.8963393 0.6567611 -0.2943605 0.6942742 1973793 female
-0.9327778 -0.6681068 0.8577231 -0.934613 0.3061447 -0.1810354 13679282 female
-0.5864084 0.1138903 0.7862297 0.6346885 0.3137631 0.7062034 15330809 female
-0.6116234 0.06249746 0.9963055 -0.2168092 0.6143768 0.7586402 12821148 female
-0.526045 0.5519445 0.7434538 0.1946062 0.3119628 0.9299504 8683660 female
-0.8876272 -0.5732008 0.7696369 -0.1502268 -0.005530156 -0.9886361 2302246 female
-0.6397768 -0.4546358 0.8095456 -0.09138869 -0.1656969 0.9819331 2105379 female
-0.8574982 0.3711932 0.6681085 -0.9880281 0.02035585 -0.1529252 15066862 female
-0.7849827 0.5463881 0.7705111 -0.1511548 0.5307723 0.8339263 11907767 female
-0.9122325 -0.6095392 0.8258622 -0.9354257 0.1134656 0.3348199 2170913 female
-0.8495674 0.6214073 0.6383343 -0.5954596 0.6280756 -0.500948 13226721 female
-0.679553 0.306587 0.5896087 -0.0551084 -0.2008145 -0.9780781 15725567 female
-0.560863 0.4957145 0.6986207 0.1909978 -0.8636056 0.4665888 3356223 female
-0.8825708 0.356409 0.657391 0.6060714 -0.3745163 -0.7017229 13488085 female
-0.8111262 -0.123518 0.8756877 0.7194327 -0.03759256 0.693544 2170913 female
-0.8488885 -0.01492488 0.6650952 -0.1149361 -0.645529 -0.7550378 2698289 female
-0.6950986 0.4938855 0.800068 -0.008729856 0.4877584 0.8729351 8619149 female
-0.6135974 -0.5487918 0.7470433 0.9058129 -0.2467975 -0.3443748 1579035 female
-0.6394143 -0.1334778 0.6947739 0.05406463 -0.2948701 -0.9540066 2106409 female
-0.9226663 -0.6540979 0.8514361 -0.8650364 0.5015517 -0.01256698 14335932 female
-0.7706916 0.2591684 0.5935615 -0.01198433 0.1992697 -0.9798713 15791613 female
-0.9050748 -0.642823 0.8799396 -0.5550798 0.7792026 0.2910838 16575452 female
-0.6149954 -0.1209067 0.6958284 0.346143 -0.282663 -0.8945875 2171945 female
-0.5658484 0.4225899 0.720219 -0.9099015 -0.09458146 0.4038979 8028043 female
