# .PCD v0.7 - Point Cloud Data file format
VERSION 0.7
FIELDS x y z normal_x normal_y normal_z rgb label
SIZE 4 4 4 4 4 4 4 4
TYPE F F F F F F U U
COUNT 1 1 1 1 1 1 1 1
WIDTH 170
HEIGHT 1
VIEWPOINT 0 0 0 1 0 0 0
POINTS 170
DATA ascii
-0.9605703 0.1377061 -0.2011055 -0.8878767 0.1256448 -0.4425929 14079973 female
-0.6583613 0.1681866 -0.2609376 0.6020814 0.07740249 -0.7946741 9803174 female
-0.9384306 -0.4255738 -0.1068893 0.3183083 -0.2464214 0.9153995 2170913 female
-0.6115392 0.1176885 -0.04133385 -0.9031894 0.3340689 -0.2695309 12890545 female
-0.655298 -0.3176225 -0.2411909 0.1113955 0.3296422 -0.9375111 2237738 female
-0.6663627 -0.1803187 -0.07687078 0.1579037 -0.2523401 0.9546679 2171688 female
-0.8915048 0.3652351 -0.2344503 -0.6668202 -0.2430628 -0.7044653 12172489 female
-0.9936677 -0.7136195 -0.08935126 0.03092956 -0.9964454 -0.07835841 789772 female
-0.9211883 -0.5393293 -0.1704582 0.98356 -0.1795447 0.0193245 1776929 female
-1.005632 0.1852308 -0.03529347 0.9342264 -0.3529657 -0.05134474 12238536 female
-1.01163 0.4819544 -0.1842054 -0.9840976 0.08255383 -0.1572794 10133932 female
-0.941677 0.2619115 -0.1188624 -0.8577619 0.4124131 0.3068547 13753065 female
-0.9743772 -0.4695896 -0.2014968 -0.3999405 -0.04185552 -0.9155849 1973537 female
-0.9601442 0.3786005 -0.1386255 0.6837021 -0.05986257 0.7273018 15133945 female
-0.5663261 0.5368966 -0.2333393 0.8948119 0.2796323 -0.3480192 7698310 female
-0.6090492 -0.01279166 -0.09200998 0.8858666 -0.02883916 0.4630427 1973536 female
-0.9687975 0.1447136 0.1141683 0.9518203 -0.3063954 0.01265009 8285035 female
-0.9298181 0.04171162 -0.02532908 -0.4301762 0.1560522 0.8891547 2500651 female
-0.8778294 -0.236523 -0.08127736 0.8368434 -0.2896755 0.4645226 2105120 female
-0.6598693 -0.5900631 -0.1786563 0.07428441 0.08698013 0.9934366 2434601 female
-0.9697385 0.4193262 -0.1292977 0.2758923 0.03410537 0.9605833 13288397 female
-0.9202527 0.4310619 -0.1178039 -0.863287 -0.3419446 0.3712271 10987703 female
-1.051608 0.225447 -0.06317355 -0.9955279 -0.07980631 -0.05054972 5397866 female
-0.6536161 0.3450861 -0.1240331 0.8776692 0.1314424 0.4608901 3420469 female
-0.9239141 0.3820411 -0.1694807 -0.9983361 -0.04078981 -0.04075684 15001836 female
-0.59413 0.4296995 -0.180397 0.2340384 0.01709283 0.9720771 6578796 female
-0.7102511 0.2651693 -0.04017345 0.5551025 0.1706507 0.8140882 14541554 female
-0.6858549 0.2260591 -0.2614151 0.3305338 0.3175975 -0.8887515 6514804 female
-0.7081129 0.8782353 -0.24872 0.8293859 0.4189597 -0.3695832 2631463 female
-0.7029877 0.5012689 -0.05819096 0.125032 0.502668 0.8553899 15593213 female
-0.5424543 0.2573617 -0.1942933 0.913003 -0.1812813 -0.3654621 9013397 female
-0.6142005 -0.4398757 -0.2226935 0.9496626 -0.08549178 -0.3013837 1579553 female
-0.9344757 -0.03774234 -0.1920825 -0.3528098 -0.2258969 -0.9080176 2105896 female
-0.883248 -0.2003368 -0.1512255 0.5928254 -0.1046712 -0.7984998 2171944 female
-0.6311365 -0.674782 -0.2049072 0.955344 0.1489257 -0.2552233 13087919 female
-0.8023587 0.8279774 -0.3000359 -0.3007028 -0.1326647 -0.9444458 14338761 female
-0.7121753 0.7793695 -0.1438589 0.938301 -0.1979897 0.2835336 16770774 female
-0.8900285 0.6578016 -0.2345763 -0.5087305 0.7761891 -0.3724562 11582152 female
-0.9233325 0.1668182 -0.06212544 -0.5251499 0.1930946 0.8288137 3552582 female
-0.7569454 0.5860691 -0.2963744 -0.2354351 0.2021535 -0.9506335 14739705 female
-0.658827 -0.1533698 -0.07190242 0.2854213 -0.2516091 0.9247851 1842723 female
-0.7811577 0.3523579 -0.03395129 0.04931376 0.2362904 0.9704304 15067640 female
-0.8212106 0.07398725 -0.2694148 0.02805354 -0.4372985 -0.8988787 2435119 female
-0.7390024 0.218533 -0.01773066 0.3380311 -0.00996894 0.9410821 12700887 female
-1.002526 0.5542585 -0.1568296 -0.8478731 0.3595336 0.3896752 7304056 female
-0.9154299 0.4110886 -0.1236785 -0.8898799 -0.2011261 0.4094655 13620448 female
-0.7207011 0.2726691 -0.2556552 0.1277547 0.1250011 -0.9838971 15200255 female
-0.7793266 -0.03440592 -0.1446765 -0.9845593 -0.1750497 0.0007507477 3290426 female
-0.6005267 -0.05630461 -0.1460625 0.9917948 -0.1258655 -0.02238235 1908509 female
-0.6321713 0.6144107 -0.1905767 0.1915637 0.8224067 0.5356777 13422293 female
-0.8557839 0.140871 -0.03714192 -0.2299167 -0.08096841 0.9698363 15133438 female
-0.7346221 0.7256225 -0.2268329 0.8086923 -0.1483461 -0.5692189 4866113 female
-0.6393855 0.4483247 -0.2427643 0.8527583 -0.3395815 -0.3968471 13619671 female
-0.9479176 -0.3184014 -0.1880135 0.08122224 0.3306809 -0.940241 2697774 female
-0.963935 0.5310435 -0.2323711 -0.2317732 -0.1313763 -0.9638575 9804198 female
-0.8232752 0.715812 -0.225506 -0.8575714 0.1683484 -0.486035 10981510 female
-0.9323453 -0.1084858 -0.02390069 -0.252118 -0.1149557 0.9608443 2171944 female
-0.6250566 0.6034909 -0.1780899 0.1968803 0.6847493 0.7016812 15330803 female
-0.7580186 0.5352989 -0.07934749 0.0605001 0.678025 0.7325447 14278121 female
-0.8821676 -0.04055474 -0.1973588 0.1411846 -0.2924431 -0.9458033 2500651 female
-0.7812185 0.7923304 -0.1014339 -0.7793353 -0.2875883 0.556713 13805473 female
-0.7096815 -0.1872306 -0.08929475 -0.5618578 -0.2589751 0.7856511 2170401 female
-0.8416207 0.3812699 -0.264195 -0.1957318 -0.2739649 -0.9416116 8288646 female
-0.9378364 -0.01791224 -0.02157445 -0.4397693 0.03110335 0.897572 2368809 female
-0.6264341 -0.2635783 -0.1245727 0.8603372 -0.1533452 0.4861123 2171174 female
-0.9613165 -0.005745346 -0.1849845 -0.6725322 -0.2453193 -0.6982256 2500907 female
-0.7052475 0.4019432 -0.07434719 0.5603718 0.1731104 0.8099483 15724543 female
-0.6514907 0.3345769 -0.1256929 0.8902739 0.1610361 0.4260045 13752800 female
-0.9887146 -0.367355 -0.09901009 -0.6715305 -0.1150805 0.7319859 2565671 female
-0.6393995 -0.1981504 -0.09214881 0.5960438 -0.195122 0.7788833 2170403 female
-0.7497548 0.1454969 -0.02623859 0.3611398 -0.2528906 0.8975658 14541297 female
-0.9168074 -0.21743 -0.1571065 0.1279185 -0.05960448 -0.989992 2565419 female
-0.9857242 -0.695959 -0.1704287 -0.3721867 -0.8919656 -0.2566601 789260 female
-0.8742784 -0.250522 -0.09920751 0.9268541 -0.2987914 0.2272998 2038559 female
-0.954819 0.08970906 -0.2188684 -0.8016422 -0.01058036 -0.5977105 2565935 female
-1.021297 0.1137935 0.03420518 0.9541159 -0.296345 0.04292464 6642776 female
-0.9037245 -0.01759549 -0.2059759 -0.08780863 -0.3330477 -0.9388125 2697516 female
-0.9842113 -0.650831 -0.1855337 -0.9277696 0.1461436 -0.3433446 9008758 female
-0.6042347 0.2258333 -0.1413871 -0.8844801 0.1362769 0.4462326 7830410 female
-0.7492433 -0.06237479 -0.08050835 -0.724631 -0.2644587 0.6363736 1973534 female
-1.03975 0.2526783 -0.04938322 -0.5911068 0.5199569 0.616634 13424860 female
-0.6303003 0.4832037 -0.1870455 0.9725575 -0.1878306 0.1373014 14079966 female
-1.012644 0.3896265 -0.1349927 -0.5636538 0.2681827 0.7812634 14016221 female
-0.9798672 -0.3661402 -0.09015385 -0.4703551 -0.1508549 0.8694877 2631464 female
-0.9482123 -0.3144996 -0.1866027 0.07569836 0.3430258 -0.9362708 2697516 female
-0.9081622 0.3773904 -0.2198616 -0.8286946 -0.1937814 -0.5250847 10066337 female
-0.7490233 -0.1578956 -0.1517768 -0.9887123 -0.1497917 0.003239065 1775899 female
-0.5948409 0.03227682 -0.131018 0.9819719 0.00101821 0.189024 1974307 female
-0.7330787 0.824039 -0.2886167 0.596832 -0.1487903 -0.7884496 3420972 female
-0.5913896 0.06419185 -0.01209401 -0.895211 -0.3089446 -0.3211703 8089191 female
-0.845327 -0.04634271 -0.1816186 0.5608192 -0.3255648 -0.761242 2498854 female
-0.8430147 0.1023858 -0.2794213 -0.0389781 -0.1743376 -0.9839141 5263457 female
-0.9647161 -0.1738674 -0.04438434 -0.6658821 -0.07697655 0.7420753 2170657 female
-0.8980917 0.2892905 -0.2234952 -0.6130655 0.1574333 -0.774187 5524558 female
-0.7465943 -0.1754314 -0.1589677 -0.9925607 -0.1078807 -0.05643484 1710363 female
-0.6334081 0.2715185 -0.1659438 0.9618179 0.2695875 -0.04721033 14673128 female
-0.7077874 -0.2755907 -0.2027613 -0.5471312 0.05285162 -0.8353766 2170913 female
-0.7686223 0.482248 -0.05214873 0.08372954 0.1370741 0.9870157 14013410 female
-0.7976052 0.03832614 -0.1822697 0.4764158 -0.8284963 -0.2943158 1315860 female
-0.9316565 0.6307878 -0.1697873 -0.1761867 0.9000847 0.3985043 12894660 female
-0.6111515 -0.09253339 -0.1061956 0.928432 -0.1317062 0.3473721 1841953 female
-0.6370366 -0.6533476 -0.2271858 0.9172002 -0.01717332 -0.3980563 1842207 female
-0.9362202 -0.4047903 -0.1018748 0.327302 -0.2487947 0.9115781 2170913 female
-0.588277 0.5946175 -0.2149486 0.6893544 0.721771 -0.06194533 10132378 female
-0.9163888 -0.2232971 -0.156268 0.1473134 -0.06123004 -0.9871928 2500140 female
-0.9944993 0.2206327 -0.09044364 0.7970704 -0.5553299 -0.23725 9474457 female
-0.5626124 0.4848772 -0.2141837 0.982836 0.01422314 0.1839326 10725291 female
-0.9863383 -0.6210216 -0.1748264 -0.9915895 0.09229609 -0.09072826 2170913 female
-0.7495953 -0.1307165 -0.1771313 -0.9185128 -0.1667305 -0.358518 2170657 female
-0.6913278 0.02008944 -0.04132839 0.03359731 0.01020937 0.9993833 2237481 female
-0.7339695 0.4413141 -0.2953642 0.02755262 -0.2811224 -0.9592764 12237251 female
-0.7677404 0.7388729 -0.09834953 0.1967042 -0.1393103 0.9705154 16247262 female
-0.6797013 0.1509699 -0.276183 0.4534984 0.06006289 -0.889231 12106953 female
-1.005995 -0.7031791 -0.1315902 -0.5450189 -0.7441614 -0.3862361 1051920 female
-0.750712 0.6443946 -0.1578149 0.4879471 0.2677018 0.8308089 14277095 female
-0.6191705 0.5380998 -0.2792132 0.2969192 -0.1413231 -0.944387 5658203 female
-0.8836657 -0.04255691 -0.1970607 0.132749 -0.2876221 -0.9484994 2500652 female
-0.6654373 0.5865627 -0.2940038 0.3576463 0.2491872 -0.8999971 16185343 female
-0.801697 0.7700185 -0.1081776 -0.3773875 -0.1323195 0.9165535 16509912 female
-0.8667046 0.006236523 -0.02242524 0.3291383 -0.03267284 0.9437163 2171171 female
-0.6480238 -0.5422 -0.2484532 0.5123312 -0.1365824 -0.8478572 2302502 female
-0.8769987 0.5289564 -0.07108798 -0.3421078 0.6006522 0.7226197 5724514 female
-0.8797129 -0.2451547 -0.1353396 0.8005496 -0.217432 -0.5584296 2105124 female
-0.7689825 0.301437 -0.0278521 0.1157488 0.1463511 0.9824376 7434876 female
-0.6037266 0.1088335 0.00237692 0.5975801 0.5060681 0.6219269 14727601 female
-0.9546874 0.5859868 -0.1303539 -0.1510646 0.3328071 0.9308162 12303555 female
-0.7304554 0.293565 -0.03501964 0.4030001 0.1669587 0.899842 11053494 female
-0.6475113 0.5350709 -0.1390453 0.6980128 0.1206036 0.7058562 9343641 female
-0.9504711 -0.6717886 -0.07855895 0.5962255 0.6770864 0.4313575 15060420 female
-0.7207356 0.4519294 -0.298305 0.07830865 -0.2879221 -0.9544468 15725567 female
-0.7836618 0.5455264 -0.08863015 0.2116947 0.6609548 0.7199473 3419956 female
-0.6877688 0.5508072 -0.1087114 0.3298878 0.6293983 0.7035849 15724543 female
-0.7612016 -0.01547798 -0.2075029 -0.6831961 -0.2781636 -0.6751801 2302243 female
-0.7787027 0.5051513 -0.3021689 -0.2487514 0.1549223 -0.9560972 13618138 female
-0.637794 -0.5612935 -0.1879953 0.7308534 -0.1515478 0.6654972 2171682 female
-0.7317768 0.7053552 -0.183571 0.9092212 -0.1073429 0.4022366 14993595 female
-0.6549699 -0.4272973 -0.1540553 0.0294404 -0.2076076 0.977769 2171431 female
-0.7267039 0.2726242 -0.0323103 0.4272018 0.1802332 0.8860105 4539471 female
-0.6633446 0.5985439 -0.1622768 0.2913547 0.5748354 0.7646416 10987956 female
-0.786097 0.01769102 -0.1302246 -0.9943334 -0.04233852 0.09751201 1973793 female
-0.7148734 0.05058824 -0.2726098 0.0690831 -0.4465404 -0.8920926 2368300 female
-0.5940632 0.008654699 -0.1559799 0.9956031 -0.07196134 -0.05996617 1776161 female
-0.6093484 0.2323259 -0.1888176 -0.8365566 -0.4185205 -0.3535727 13553880 female
-0.6958342 0.8633277 -0.2060329 0.983996 0.1749172 0.03399657 2368292 female
-0.6220037 0.4865092 -0.276041 -0.09859049 -0.1046377 -0.9896115 12828875 female
-0.9127231 0.2868346 -0.08729745 -0.7566504 0.2923737 0.5848057 9145493 female
-0.956543 -0.3161656 -0.0747986 -0.1895472 -0.2704005 0.9439043 2301987 female
-1.016517 -0.6897804 -0.0780608 -0.4106166 0.9089485 0.07215621 16770014 female
-0.6049044 0.03365453 -0.1030508 0.9109345 0.03587222 0.4109886 1973537 female
-0.5605187 0.03834388 -0.05152646 0.9363114 -0.1437456 -0.3204031 16574943 female
-0.5772812 0.5720515 -0.2290824 0.7699614 0.5233857 -0.3650024 14081007 female
-0.929793 -0.5875853 -0.1741783 0.9937173 -0.08688214 -0.07055201 1973022 female
-0.6551372 -0.5207261 -0.1737191 0.09048916 -0.1573562 0.9833874 2499878 female
-0.9139643 0.3924568 -0.1234501 -0.906399 0.009682504 0.4223115 12369863 female
-0.7583211 0.6238568 -0.1436902 0.139099 0.5487511 0.8243323 15263984 female
-0.966096 -0.6441001 -0.1118166 -0.2670396 0.7397333 0.6176444 5196879 female
-0.9674131 0.6142742 -0.1878414 -0.6685744 0.7279731 -0.1518664 12303039 female
-0.7623844 0.2732625 -0.2557267 -0.1065578 0.1994721 -0.9740925 15201279 female
-0.5972842 0.5804415 -0.174925 0.4449389 0.3963418 0.8030831 9802653 female
-0.9841786 0.3957436 -0.2135637 -0.1463535 -0.2207677 -0.9642833 12897242 female
-0.9000089 -0.4357685 -0.1555548 0.9827926 -0.1841465 0.01445155 1842720 female
-0.9024199 0.009860273 -0.2172733 -0.1312124 -0.4865728 -0.8637304 2895412 female
-0.7370605 0.5295769 -0.07692704 0.0418719 0.6293851 0.7759647 10395047 female
-0.6335824 -0.5866966 -0.2150391 0.9767252 -0.1338585 -0.1676002 1578779 female
-0.6845629 -0.106643 -0.2244195 -0.01928105 -0.05907141 -0.9980675 2106409 female
-1.012948 -0.6945912 -0.04265676 -0.1219279 0.963732 0.2373903 10391435 female
-0.8698949 0.3376797 -0.2448575 -0.4287034 -0.1663591 -0.8879966 15398143 female
-0.990845 -0.6830106 -0.06513721 -0.2934468 0.909359 0.2948815 16506325 female
-0.6606216 -0.09323511 -0.2220251 0.2767289 -0.04389368 -0.959945 2171945 female
-0.6298609 -0.3186096 -0.141115 0.6940196 -0.1728091 0.698909 2040353 female
