# .PCD v0.7 - Point Cloud Data file format
VERSION 0.7
FIELDS x y z normal_x normal_y normal_z rgb label
SIZE 4 4 4 4 4 4 4 4
TYPE F F F F F F U U
COUNT 1 1 1 1 1 1 1 1
WIDTH 170
HEIGHT 1
VIEWPOINT 0 0 0 1 0 0 0
POINTS 170
DATA ascii
-0.9608103 0.137514 -0.2011748 -0.888859 0.1267125 -0.4403108 14079973 female
-0.6587653 0.1678469 -0.2617631 0.6000202 0.07780202 -0.7961926 9803174 female
-0.9390194 -0.4258244 -0.1075507 0.3195493 -0.2469603 0.9148217 2170913 female
-0.6142614 0.1121949 -0.03274943 -0.9701801 0.1550068 -0.1863421 12825516 female
-0.6554278 -0.3180449 -0.242175 0.1085669 0.3290178 -0.9380621 2237738 female
-0.6661143 -0.1806889 -0.07784146 0.1608246 -0.2523837 0.9541687 2171688 female
-0.8917418 0.3650103 -0.2343957 -0.6691695 -0.2420541 -0.7025824 12172489 female
-0.9942913 -0.7138603 -0.09003875 0.03098029 -0.9964129 -0.07875057 789772 female
-0.9219136 -0.5395568 -0.171196 0.9835281 -0.1798784 0.01778084 1776929 female
-1.006662 0.1852605 -0.03424366 0.9327191 -0.3565601 -0.05385148 12238536 female
-1.011949 0.4819708 -0.1833911 -0.9843926 0.08605588 -0.153511 10133932 female
-0.9416354 0.2616177 -0.1188342 -0.8566751 0.4126398 0.3095743 13753065 female
-0.9751208 -0.4697845 -0.2021248 -0.4012963 -0.04129571 -0.9150169 1973537 female
-0.9606785 0.3784934 -0.1378429 0.6862614 -0.06139375 0.7247593 15133945 female
-0.5665056 0.5364432 -0.23435 0.8937235 0.279591 -0.3508376 7698310 female
-0.6089724 -0.01313741 -0.09309442 0.8872044 -0.02842998 0.4604999 1973536 female
-0.9692196 0.1462646 0.1132158 0.9952531 -0.07101058 -0.0665492 10126725 female
-0.9298236 0.04136152 -0.02562652 -0.4285058 0.1557022 0.8900222 2500651 female
-0.8783004 -0.2368518 -0.08194343 0.8372976 -0.2907682 0.463019 2105120 female
-0.6596813 -0.5904482 -0.1793886 0.07698298 0.08775096 0.9931633 2434601 female
-0.9700817 0.4192686 -0.1285495 0.2797924 0.03452942 0.9594394 13288397 female
-0.9200754 0.4307689 -0.117572 -0.8621868 -0.3417005 0.3739981 10987703 female
-1.052559 0.2256525 -0.06200047 -0.9959596 -0.07599342 -0.04784833 5397866 female
-0.6535201 0.3446356 -0.1247435 0.8791745 0.1305442 0.4582689 3420469 female
-0.9239358 0.3817762 -0.1692942 -0.9984845 -0.04020721 -0.03757874 15001836 female
-0.5941555 0.4292178 -0.1813999 0.2372184 0.01625603 0.9713203 6578796 female
-0.7099805 0.2646585 -0.04078055 0.5575081 0.1695601 0.8126709 14541554 female
-0.6862243 0.2257419 -0.2621128 0.3283515 0.3182261 -0.8893354 6514804 female
-0.7083357 0.8778794 -0.2493493 0.828098 0.418908 -0.3725182 2631463 female
-0.7025654 0.5008813 -0.05869585 0.1282803 0.5025399 0.8549841 15593213 female
-0.5437728 0.2528557 -0.1955457 0.8842723 -0.2250828 -0.4091456 13158615 female
-0.614217 -0.4402683 -0.22369 0.9488494 -0.08526005 -0.3039994 1579553 female
-0.9348536 -0.03792029 -0.1924473 -0.3546362 -0.2245509 -0.9076399 2105896 female
-0.883786 -0.200609 -0.1518501 0.5914109 -0.104591 -0.7995585 2171944 female
-0.6309972 -0.6751857 -0.2056532 0.9546542 0.1489191 -0.2577953 13087919 female
-0.8027312 0.8275658 -0.3003287 -0.3036983 -0.1333675 -0.9433877 14338761 female
-0.7120375 0.7790827 -0.1444098 0.9392509 -0.1975802 0.2806594 16770774 female
-0.8901508 0.657505 -0.2344373 -0.5096193 0.7764933 -0.3706026 11582152 female
-0.9232228 0.1664727 -0.06227547 -0.5231054 0.1927619 0.830183 3552582 female
-0.7573358 0.585703 -0.2967078 -0.2387727 0.2021735 -0.9497965 14739705 female
-0.6585839 -0.1537398 -0.07288401 0.2882532 -0.2516183 0.9239038 1842723 female
-0.7807827 0.3518878 -0.03426333 0.05243287 0.2353448 0.9704967 15067640 female
-0.821676 0.07374604 -0.2698847 0.02549771 -0.436517 -0.8993346 2435119 female
-0.7387165 0.2180246 -0.01829138 0.3405819 -0.01103523 0.9401501 12700887 female
-1.002478 0.5542403 -0.1561519 -0.8451841 0.3627098 0.3925627 7304056 female
-0.915284 0.410792 -0.1234832 -0.8886111 -0.2009236 0.4123106 13620448 female
-0.7210373 0.2723733 -0.2562213 0.1250721 0.1258724 -0.9841307 15200255 female
-0.7793897 -0.03484283 -0.1452785 -0.9844527 -0.1756151 0.003494945 3290426 female
-0.6005688 -0.0566243 -0.1471846 0.9918097 -0.1252065 -0.02523833 1908509 female
-0.6321669 0.6139736 -0.1913464 0.1939531 0.8222281 0.5350918 13422293 female
-0.8556419 0.1404441 -0.0374684 -0.2277854 -0.0816725 0.9702801 15133438 female
-0.7347365 0.725275 -0.2272732 0.8068744 -0.1485354 -0.5717437 4866113 female
-0.6396405 0.4479221 -0.2434995 0.8511872 -0.3399637 -0.3998813 13619671 female
-0.9485875 -0.3186088 -0.1886138 0.07997157 0.3311042 -0.9401992 2697774 female
-0.9642231 0.530796 -0.2318388 -0.2360714 -0.131742 -0.9627639 9804198 female
-0.8233814 0.7154503 -0.225653 -0.8591846 0.167907 -0.4833313 10981510 female
-0.9325509 -0.108831 -0.02434823 -0.2507181 -0.1155835 0.9611352 2171944 female
-0.6396754 0.6019101 -0.1758371 0.1686404 0.6615071 0.7307317 16251135 female
-0.7576509 0.5349489 -0.07966757 0.06342285 0.6780477 0.7322766 14278121 female
-0.8825555 -0.04079325 -0.1978139 0.1391821 -0.2916603 -0.9463418 2500651 female
-0.7822552 0.7951096 -0.1013664 -0.9214119 -0.0293266 0.3874792 13016984 female
-0.6133701 -0.1978274 -0.1662776 0.9807507 -0.0167249 -0.1945462 2170921 female
-0.8419458 0.3810366 -0.264277 -0.198866 -0.2731009 -0.9412057 8288646 female
-0.9379199 -0.01825465 -0.02192109 -0.4382813 0.03076688 0.8983111 2368809 female
-0.6262641 -0.2639068 -0.1256747 0.8617798 -0.1526559 0.4837682 2171174 female
-0.961645 -0.005902136 -0.1852661 -0.6740505 -0.2438355 -0.6972806 2500907 female
-0.7049487 0.4015096 -0.07485619 0.5631042 0.1723529 0.8082129 15724543 female
-0.6514082 0.3341234 -0.1264177 0.8916726 0.1601443 0.4234075 13752800 female
-0.9892702 -0.3675893 -0.09957214 -0.670495 -0.1151551 0.7329228 2565671 female
-0.6391823 -0.1984955 -0.09320401 0.5983873 -0.194799 0.7771654 2170403 female
-0.7495509 0.1450059 -0.02684123 0.3634227 -0.2537973 0.8963876 14541297 female
-0.9173787 -0.2176618 -0.1576967 0.1262729 -0.05891706 -0.9902444 2565419 female
-0.9864822 -0.6961768 -0.1711238 -0.3726014 -0.8918945 -0.2563052 789260 female
-0.8747878 -0.2508332 -0.09988782 0.9269521 -0.2997299 0.2256588 2038559 female
-0.955135 0.08953657 -0.219008 -0.8030465 -0.009386057 -0.5958424 2565935 female
-1.046447 0.1233927 0.01444838 -0.7818184 -0.3452491 -0.5191947 7171965 female
-0.9040996 -0.01780345 -0.2063661 -0.08988383 -0.3320056 -0.9389852 2697516 female
-0.9849948 -0.6510403 -0.1862206 -0.9283049 0.146346 -0.3418084 9008758 female
-0.6042554 0.2251976 -0.1426655 -0.8832424 0.1356995 0.4488525 7830410 female
-0.7490909 -0.06281324 -0.08119872 -0.722626 -0.2651293 0.6383715 1973534 female
-1.031222 0.2701188 -0.05770212 -0.2451093 0.5987868 0.7624801 14872823 female
-0.6303467 0.4827892 -0.1878268 0.9729697 -0.1882346 0.1337822 14079966 female
-1.01312 0.3897292 -0.134021 -0.5595678 0.2714556 0.7830682 14016221 female
-0.9804092 -0.3663822 -0.09072849 -0.4691297 -0.1510728 0.8701117 2631464 female
-0.9488789 -0.3147072 -0.187201 0.07445874 0.3434515 -0.9362141 2697516 female
-0.9069192 0.4050414 -0.2250271 -0.819941 -0.2626272 -0.5086489 5460312 female
-0.7490035 -0.1583134 -0.1525043 -0.9885954 -0.1504753 0.006025084 1775899 female
-0.5949085 0.03192828 -0.1321364 0.9825011 0.00139427 0.1862511 1974307 female
-0.733416 0.8236503 -0.2891292 0.5943446 -0.1491718 -0.7902546 3420972 female
-0.5911714 0.06322857 -0.01380578 -0.8961623 -0.3076835 -0.3197249 8089191 female
-0.8456928 -0.04664363 -0.1821421 0.5590915 -0.3254846 -0.7625461 2498854 female
-0.8434954 0.1021805 -0.2798138 -0.04165085 -0.1733948 -0.9839712 5263457 female
-0.9650456 -0.1741515 -0.04484744 -0.6647657 -0.07690199 0.7430832 2170657 female
-0.8983262 0.2890705 -0.2235456 -0.6151538 0.1585416 -0.772302 5524558 female
-0.7465815 -0.1758451 -0.15971 -0.9926437 -0.1085453 -0.0536332 1710363 female
-0.6334924 0.2710867 -0.1667574 0.961838 0.2690759 -0.04965605 14673128 female
-0.7078347 -0.2759964 -0.203632 -0.5494882 0.05216035 -0.8338717 2170913 female
-0.7557127 0.4874283 -0.05438914 -0.006647601 0.2130142 0.9770265 15396603 female
-0.7978562 0.03794222 -0.1827963 0.4745052 -0.8289713 -0.2960599 1315860 female
-0.9315236 0.6305641 -0.1694672 -0.1735115 0.9004917 0.3987586 12894660 female
-0.6110492 -0.09286517 -0.107294 0.9295114 -0.131153 0.3446846 1841953 female
-0.6369568 -0.6537637 -0.2279299 0.9161414 -0.01721423 -0.4004855 1842207 female
-0.9367938 -0.4050443 -0.1025302 0.3285368 -0.249339 0.9109849 2170913 female
-0.58837 0.5941557 -0.2158646 0.6895663 0.7213737 -0.06417447 10132378 female
-0.9169641 -0.2235302 -0.1568636 0.1456765 -0.06057811 -0.9874759 2500140 female
-0.9955431 0.2206187 -0.0894244 0.7942913 -0.5583889 -0.2393807 9474457 female
-0.5627391 0.4844164 -0.215245 0.9834391 0.01388478 0.1807057 10725291 female
-0.9870995 -0.6212306 -0.1755009 -0.9917116 0.09252089 -0.08915156 2170913 female
-0.7496691 -0.1311296 -0.1778471 -0.9194194 -0.1672713 -0.3559329 2170657 female
-0.6911242 0.01967731 -0.0421612 0.0364793 0.009943381 0.9992849 2237481 female
-0.7343948 0.4409907 -0.2957557 0.02413442 -0.280836 -0.9594523 12237251 female
-0.7674485 0.7386026 -0.09869601 0.199853 -0.138621 0.9699706 16247262 female
-0.6801534 0.1506559 -0.276967 0.4511859 0.06063231 -0.8903679 12106953 female
-1.006691 -0.7034082 -0.1322538 -0.5456296 -0.7440751 -0.3855394 1051920 female
-0.7505819 0.6440512 -0.1581744 0.4909323 0.2677566 0.8290307 14277095 female
-0.5974248 0.5719389 -0.2565779 0.6078321 0.3660657 -0.7046531 5922155 female
-0.8840562 -0.04279355 -0.1975155 0.1307521 -0.2868276 -0.9490173 2500652 female
-0.6658068 0.5861573 -0.2946586 0.3546789 0.2489984 -0.9012228 16185343 female
-0.801445 0.7697332 -0.108436 -0.3744028 -0.1318123 0.9178498 16509912 female
-0.8667511 0.005804404 -0.0228611 0.3306158 -0.03404279 0.9431513 2171171 female
-0.6480575 -0.5426319 -0.2492637 0.510016 -0.1370239 -0.8491809 2302502 female
-0.8766012 0.5286587 -0.07097891 -0.3391993 0.6008621 0.7238153 5724514 female
-0.8802744 -0.2454351 -0.1360085 0.799474 -0.2176836 -0.5598707 2105124 female
-0.7686373 0.3009448 -0.02825763 0.1187397 0.1452852 0.9822388 7434876 female
-0.6034479 0.1078393 0.0008119126 0.5993875 0.5041315 0.6217605 14727601 female
-0.9344709 0.5033836 -0.1427404 0.6741973 -0.3283317 0.6615559 15725559 female
-0.7301401 0.2930583 -0.03554544 0.4057293 0.1658333 0.8988231 11053494 female
-0.6473688 0.5346594 -0.1397748 0.7006069 0.1202686 0.7033387 9343641 female
-0.9510849 -0.6720282 -0.07930964 0.5969059 0.6769978 0.4305547 15060420 female
-0.7211732 0.4515889 -0.2987428 0.07485674 -0.2877563 -0.9547737 15725567 female
-0.7833214 0.5451905 -0.08886186 0.2145705 0.6609291 0.7191191 3419956 female
-0.687501 0.5504261 -0.1092924 0.332714 0.6293131 0.7023294 15724543 female
-0.7614699 -0.01587606 -0.208155 -0.6849511 -0.278154 -0.6734036 2302243 female
-0.7791485 0.5047974 -0.3024099 -0.2521426 0.1549567 -0.9552029 13618138 female
-0.6376492 -0.5616726 -0.1888174 0.7327794 -0.1506695 0.663576 2171682 female
-0.7310129 0.7196065 -0.1836157 0.9222633 -0.2381749 0.3044718 12429467 female
-0.6547984 -0.4276548 -0.1549476 0.0323026 -0.2067824 0.9778535 2171431 female
-0.7264031 0.2721142 -0.03286503 0.4298438 0.1791399 0.8849537 4539471 female
-0.6632527 0.5981326 -0.1629466 0.2943716 0.5746339 0.7636369 10987956 female
-0.7861623 0.0172495 -0.1307894 -0.994042 -0.04272752 0.1002736 1973793 female
-0.7153674 0.05028077 -0.2733838 0.0665307 -0.4458433 -0.8926351 2368300 female
-0.594189 0.008318371 -0.1571075 0.9954633 -0.07146707 -0.06281129 1776161 female
-0.6094885 0.2318035 -0.1900665 -0.8376915 -0.4172653 -0.3523672 13553880 female
-0.6959167 0.863003 -0.2066917 0.9840569 0.17518 0.0307246 2368292 female
-0.6153399 0.4795911 -0.2769259 0.02474899 -0.06108486 -0.9978257 14605287 female
-0.9125704 0.2864888 -0.08730553 -0.7547894 0.2922519 0.5872664 9145493 female
-0.9570465 -0.3164242 -0.07538625 -0.1882611 -0.270795 0.9440486 2301987 female
-1.017128 -0.6900291 -0.0786993 -0.4106809 0.9088348 0.07321593 16770014 female
-0.6048927 0.03329623 -0.1041363 0.9120779 0.03617036 0.4084184 1973537 female
-0.5604113 0.03746626 -0.05338084 0.9354357 -0.1433673 -0.3231191 16574943 female
-0.5774347 0.5715923 -0.2300404 0.7689623 0.52316 -0.3674245 14081007 female
-0.931612 -0.606797 -0.1722148 0.9859943 0.02075978 -0.1654817 2105893 female
-0.6549736 -0.5211009 -0.1745277 0.09333052 -0.1565003 0.9832584 2499878 female
-0.9138303 0.3921556 -0.1232832 -0.9050131 0.009875239 0.425269 12369863 female
-0.7581462 0.6235078 -0.1440244 0.1422886 0.5488114 0.8237476 15263984 female
-0.9667654 -0.6443333 -0.1125314 -0.2660171 0.7395158 0.6183456 5196879 female
-0.9673676 0.6140953 -0.1873624 -0.6682143 0.7288124 -0.1494058 12303039 female
-0.7627219 0.2729926 -0.2561749 -0.1091894 0.2004839 -0.9735933 15201279 female
-0.5972512 0.579972 -0.1758162 0.4479448 0.3958637 0.8016467 9802653 female
-0.9849415 0.3956137 -0.2127214 -0.1509756 -0.2216747 -0.9633622 12897242 female
-0.9006737 -0.4360119 -0.1562773 0.9827421 -0.1845282 0.01293009 1842720 female
-0.9027884 0.009654135 -0.2176318 -0.1333884 -0.4855854 -0.8639527 2895412 female
-0.7366868 0.5292183 -0.0773218 0.04494584 0.629416 0.7757676 10395047 female
-0.6335003 -0.5870963 -0.2158509 0.9763129 -0.1335605 -0.1702196 1578779 female
-0.6847934 -0.1069983 -0.2253148 -0.02210497 -0.05882434 -0.9980236 2106409 female
-1.013492 -0.6948557 -0.04330068 -0.1216404 0.9635859 0.2381298 10391435 female
-0.8701751 0.3374606 -0.2449168 -0.4314656 -0.1652523 -0.8868647 15398143 female
-0.9914345 -0.6832593 -0.06581969 -0.2931201 0.9091842 0.2957444 16506325 female
-0.6608555 -0.09357431 -0.2229844 0.2739999 -0.04344641 -0.9607478 2171945 female
-0.6297065 -0.3189452 -0.142174 0.6960753 -0.1719448 0.6970755 2040353 female
