# .PCD v0.7 - Point Cloud Data file format
VERSION 0.7
FIELDS x y z normal_x normal_y normal_z rgb label
SIZE 4 4 4 4 4 4 4 4
TYPE F F F F F F U U
COUNT 1 1 1 1 1 1 1 1
WIDTH 170
HEIGHT 1
VIEWPOINT 0 0 0 1 0 0 0
POINTS 170
DATA ascii
-0.9587039 0.1368807 -0.2018884 -0.8784155 0.1227776 -0.4618568 14079973 female
-0.6365374 0.1533706 -0.235165 0.7559868 0.04062817 -0.6533249 11121347 female
-0.9351065 -0.4269525 -0.1052021 0.3097402 -0.2327459 0.921895 2170913 female
-0.6131228 0.1150765 -0.03916438 -0.8968849 0.3372232 -0.2861433 12890545 female
-0.6536697 -0.3179942 -0.2361207 0.1311351 0.3304524 -0.9346682 2237738 female
-0.6678493 -0.1809286 -0.07178523 0.1367559 -0.2549662 0.9572304 2171688 female
-0.8937532 0.3520021 -0.2261832 -0.7175652 -0.1735113 -0.6745324 6251625 female
-0.9890059 -0.7153219 -0.08448648 0.03702597 -0.9969776 -0.06829873 789772 female
-0.9167137 -0.5414683 -0.1669725 0.9841089 -0.1746859 0.03185364 1776929 female
-1.00398 0.1939216 -0.07026006 0.8072815 -0.5493475 -0.215671 5921372 female
-1.009755 0.4818574 -0.1908866 -0.9784355 0.08297615 -0.1891534 10133932 female
-0.881006 0.3312723 -0.2359633 -0.5594018 -0.08744033 -0.8242717 7566207 female
-0.9698695 -0.4723973 -0.1995484 -0.3901563 -0.0559239 -0.9190487 1973537 female
-0.9595622 0.3778645 -0.1454223 0.65949 -0.07030385 0.7484185 15133945 female
-0.5634727 0.5365148 -0.2253101 0.9032339 0.2820257 -0.3234655 7698310 female
-0.6097319 -0.01348849 -0.08520677 0.8756138 -0.03215517 0.4819404 1973536 female
-0.9802566 0.1393678 0.1103023 0.0001159963 -0.8213682 0.5703984 7100499 female
-0.9308121 0.04061191 -0.02526961 -0.4472314 0.1519292 0.8814202 2500651 female
-0.8756623 -0.2372034 -0.08101609 0.83171 -0.2821568 0.4781695 2105120 female
-0.6598051 -0.5905134 -0.1738825 0.05471574 0.08559183 0.9948267 2434601 female
-0.9567888 0.4137056 -0.1421367 0.5718127 -0.07604249 0.8168524 11250613 female
-0.9213057 0.4253622 -0.1280378 -0.8813266 -0.3455544 0.3222662 14082023 female
-1.051683 0.2238896 -0.07436462 -0.9936436 -0.08478136 -0.07405739 5397866 female
-0.6538662 0.344848 -0.1183408 0.86549 0.1335672 0.4827908 3420469 female
-0.9240947 0.4102643 -0.1577963 -0.9730896 -0.2053752 0.1044883 3553086 female
-0.5925952 0.4288194 -0.1741721 0.2099922 0.006877046 0.9776789 6578796 female
-0.7122989 0.2652672 -0.03566454 0.5354388 0.1740686 0.8264414 14541554 female
-0.6826622 0.2255302 -0.2562482 0.3502414 0.3157464 -0.8818362 6514804 female
-0.704534 0.8781741 -0.242147 0.8404083 0.4219498 -0.3401064 2631463 female
-0.7114378 0.4931198 -0.04936408 0.03132912 0.3916732 0.9195709 12369609 female
-0.541735 0.2525979 -0.1887287 0.8945405 -0.2208626 -0.3886089 13158615 female
-0.6131151 -0.4403339 -0.216878 0.9555496 -0.08645958 -0.2818684 1579553 female
-0.9319541 -0.03867618 -0.1921104 -0.3344854 -0.2272837 -0.9145828 2105896 female
-0.8802372 -0.2011684 -0.1509665 0.6061074 -0.1022091 -0.7887884 2171944 female
-0.6306785 -0.6752724 -0.1997154 0.9602622 0.1473164 -0.2370537 13087919 female
-0.7970533 0.8281895 -0.2967689 -0.2703373 -0.1268426 -0.9543734 14338761 female
-0.7120779 0.7599542 -0.1551778 0.9580514 -0.2526967 0.1352106 16311510 female
-0.8866634 0.6578347 -0.2350267 -0.4952593 0.7785637 -0.3854307 11582152 female
-0.9245333 0.1662176 -0.06216308 -0.5429481 0.1917471 0.817582 3552582 female
-0.7520829 0.5860406 -0.2930262 -0.2073799 0.2059249 -0.9563411 14739705 female
-0.6603455 -0.1540185 -0.06658412 0.2648666 -0.2545711 0.9300749 1842723 female
-0.7757743 0.3495937 -0.03122957 0.07138775 0.2296641 0.9706483 12633296 female
-0.8358364 0.06332685 -0.2643934 0.05504723 -0.4723358 -0.879698 2566703 female
-0.7428601 0.2045225 -0.01405109 0.3131855 -0.104925 0.9438779 15133431 female
-1.001757 0.5538245 -0.1620915 -0.8616422 0.3528409 0.364796 7304056 female
-0.9157045 0.410721 -0.1251956 -0.9008116 -0.2003007 0.3852508 13620448 female
-0.7176419 0.272022 -0.2513742 0.1507476 0.1220784 -0.9810056 15200255 female
-0.7788779 -0.03453263 -0.141575 -0.9847487 -0.1727222 -0.02090578 3290426 female
-0.6001875 -0.05691771 -0.1391986 0.9917083 -0.1285006 -0.001501917 1908509 female
-0.6207362 0.6117354 -0.1850083 0.2622067 0.8359323 0.4821462 12699337 female
-0.8539952 0.1079171 -0.0340838 0.07481643 0.0615378 0.9952967 2566703 female
-0.7316296 0.7253991 -0.2221695 0.826115 -0.144222 -0.5447331 4866113 female
-0.636353 0.4478667 -0.2365015 0.8634648 -0.3398002 -0.3727792 13619671 female
-0.9441638 -0.3208337 -0.187929 0.09008445 0.3193607 -0.9433417 2697774 female
-0.9542592 0.5257696 -0.2367331 -0.1300116 -0.1717592 -0.9765223 7236726 female
-0.8202853 0.7155753 -0.2236668 -0.8421079 0.1715895 -0.5112841 10981510 female
-0.9321945 -0.1096182 -0.0241213 -0.2681966 -0.1179232 0.9561197 2171944 female
-0.6235623 0.6027557 -0.1710238 0.1790424 0.680064 0.7109548 15330803 female
-0.7595961 0.5346008 -0.07633092 0.04003383 0.6760072 0.7358068 14278121 female
-0.8795457 -0.04111857 -0.1964156 0.1606725 -0.2904809 -0.9432949 2500651 female
-0.7804314 0.8060777 -0.0989442 -0.7839783 0.340169 0.519291 14926778 female
-0.6130732 -0.1980377 -0.1589798 0.9850649 -0.01946576 -0.1710798 2170921 female
-0.8747097 0.4143457 -0.2586529 -0.4637931 -0.3414366 -0.8175066 2698546 female
-0.9384125 -0.01910481 -0.02174528 -0.4558975 0.02666083 0.8896329 2368809 female
-0.6271364 -0.2641385 -0.1188436 0.8497632 -0.1559348 0.5035741 2171174 female
-0.9591752 -0.006859502 -0.1855033 -0.657868 -0.249208 -0.7107075 2500907 female
-0.7069101 0.4016162 -0.07013069 0.5384614 0.1742456 0.8244378 15724543 female
-0.6516756 0.334363 -0.1199172 0.8790881 0.1631846 0.4478559 13752800 female
-0.9677362 -0.2890622 -0.1704383 -0.3462383 0.3825839 -0.8565912 2303275 female
-0.6406159 -0.1987915 -0.08653444 0.5788925 -0.1984101 0.7908962 2170403 female
-0.751727 0.1454021 -0.0223803 0.3411391 -0.251046 0.9058697 14541297 female
-0.9007244 -0.2601623 -0.1492126 0.4123538 -0.05152573 -0.9095655 2631471 female
-0.9804448 -0.698428 -0.1656583 -0.3645098 -0.8967594 -0.2509087 789260 female
-0.8717906 -0.2513161 -0.098879 0.9253213 -0.2920181 0.24188 2038559 female
-0.9428602 0.08985513 -0.2299006 -0.7065825 -0.003683066 -0.7076211 2696745 female
-1.022473 0.110671 0.01626538 0.9327579 -0.3591229 -0.03152035 6379608 female
-0.9096668 0.00400861 -0.2132838 -0.1880841 -0.4363243 -0.8799121 2566447 female
-0.9790713 -0.6534483 -0.1812079 -0.9253587 0.1370903 -0.3534369 9008758 female
-0.6035348 0.2244029 -0.1376932 -0.8944663 0.1310861 0.4274886 7830410 female
-0.7502999 -0.0627386 -0.07688421 -0.7388119 -0.2640206 0.6200405 1973534 female
-1.040299 0.2510559 -0.06006147 -0.6080166 0.510981 0.6076301 13424860 female
-0.6283053 0.4756618 -0.2161211 0.9213281 -0.3887762 -0.002740937 11777205 female
-1.018037 0.4181594 -0.162849 -0.9242051 0.2343612 0.301529 5001303 female
-0.9769789 -0.3674993 -0.08973067 -0.4789307 -0.1416668 0.8663463 2631464 female
-0.9444875 -0.316909 -0.186577 0.08449402 0.3317907 -0.9395614 2697516 female
-0.9027818 0.3892445 -0.2272568 -0.7946501 -0.1366888 -0.591479 6710377 female
-0.7488444 -0.1580855 -0.1483827 -0.9889578 -0.1470809 -0.01815406 1775899 female
-0.5945503 0.03171423 -0.1237537 0.9776508 -0.001294349 0.2102313 1974307 female
-0.7281635 0.8242185 -0.2831727 0.6217487 -0.1432056 -0.7700135 3420972 female
-0.5936311 0.06125946 -0.01006498 -0.8878475 -0.3049453 -0.3445796 8089191 female
-0.8429553 -0.0466687 -0.1800158 0.5769795 -0.3209096 -0.7510738 2498854 female
-0.8392495 0.1016564 -0.2775391 -0.0165121 -0.1763629 -0.9841867 5263457 female
-0.9636437 -0.1750993 -0.04534394 -0.677511 -0.08130245 0.7310053 2170657 female
-0.9277979 0.2772474 -0.1922982 -0.8080248 0.4045174 -0.428324 7698044 female
-0.7463185 -0.1756173 -0.1555679 -0.9914219 -0.1050624 -0.07774566 1710363 female
-0.632489 0.2712625 -0.1596197 0.9623877 0.2704881 -0.02541892 14673128 female
-0.7068674 -0.2759066 -0.1987288 -0.5297043 0.05483165 -0.8464082 2170913 female
-0.7582097 0.5057508 -0.05822687 -0.008558243 0.4304698 0.9025644 14015206 female
-0.7959985 0.03984632 -0.1874094 0.2735801 -0.9272943 -0.2554979 1842204 female
-0.9304045 0.6305982 -0.171794 -0.1879384 0.8976862 0.3985455 12894660 female
-0.6117765 -0.09323539 -0.09968704 0.920444 -0.1351446 0.366768 1841953 female
-0.6361278 -0.6537784 -0.222054 0.9245913 -0.01828532 -0.3805214 1842207 female
-0.9330402 -0.4060934 -0.1004538 0.3187427 -0.235164 0.9182053 2170913 female
-0.5858341 0.5940719 -0.2069804 0.6916084 0.7211894 -0.03954159 10132378 female
-0.9040815 -0.2565941 -0.1503442 0.3678118 -0.0515553 -0.92847 2698289 female
-0.9947569 0.216435 -0.09323997 0.8472134 -0.5061313 -0.1614325 14606823 female
-0.5602473 0.4843297 -0.2065954 0.9780353 0.01191288 0.2080987 10725291 female
-0.9814558 -0.6235271 -0.1708822 -0.9911187 0.08605289 -0.101384 2170913 female
-0.7487926 -0.1308379 -0.1736578 -0.9110799 -0.1633763 -0.3784726 2170657 female
-0.6930012 0.01947529 -0.03625575 0.01194383 0.007667575 0.9998993 2237481 female
-0.729521 0.4408708 -0.2918788 0.05420654 -0.2809068 -0.958203 12237251 female
-0.7664443 0.7377334 -0.09513271 0.282984 -0.14224 0.9485188 16246750 female
-0.6760725 0.1504704 -0.2706799 0.4733443 0.05863079 -0.8789242 12106953 female
-0.9913573 -0.7087067 -0.1215131 -0.03193676 -0.9807755 -0.1925085 1052688 female
-0.7498172 0.6438151 -0.1542009 0.4631283 0.2635999 0.846184 14277095 female
-0.6151205 0.5380572 -0.272405 0.3212776 -0.1348262 -0.937338 5658203 female
-0.8810319 -0.04313192 -0.1961502 0.1522399 -0.2856947 -0.9461509 2500652 female
-0.6555433 0.5600617 -0.2900675 0.4168615 0.006080887 -0.9089496 11383490 female
-0.8022876 0.7794098 -0.1040422 -0.3281347 -0.04831637 0.9433945 16772574 female
-0.8675069 0.005546378 -0.02123758 0.312392 -0.03159832 0.9494276 2171171 female
-0.6465197 -0.5425915 -0.2433974 0.5292327 -0.1364972 -0.8374254 2302502 female
-0.8788111 0.5283929 -0.07161574 -0.3626489 0.5991415 0.7138034 5724514 female
-0.8767345 -0.2461636 -0.1351226 0.8094401 -0.2155535 -0.5462081 2105124 female
-0.7351608 0.3148536 -0.03366422 0.3823981 0.1582276 0.9103492 13225949 female
-0.6109472 0.104739 0.01034108 0.5033619 0.6729228 0.5420347 15319226 female
-0.9549157 0.5854218 -0.133514 -0.1828683 0.3238806 0.9282567 12303555 female
-0.7327307 0.293709 -0.03107914 0.3808931 0.1708771 0.9086921 11053494 female
-0.6371858 0.5186385 -0.1476519 0.8299851 -0.2528039 0.4972072 14080999 female
-0.9461423 -0.6731256 -0.07377064 0.5886419 0.6847008 0.4297505 15060420 female
-0.716153 0.4515559 -0.2944218 0.1050723 -0.287077 -0.9521275 15725567 female
-0.7849485 0.5448787 -0.08632272 0.1914047 0.6586968 0.7276556 3419956 female
-0.6884699 0.5500591 -0.1035537 0.3099161 0.6268423 0.7148572 15724543 female
-0.7592781 -0.01553076 -0.2039327 -0.6689847 -0.2758146 -0.6902071 2302243 female
-0.773765 0.5050677 -0.2997613 -0.2202312 0.1578137 -0.9625971 13618138 female
-0.6375406 -0.561752 -0.1827562 0.7170283 -0.1531791 0.6800049 2171682 female
-0.7301151 0.7048384 -0.1789658 0.8962985 -0.1099816 0.4295963 14993595 female
-0.6552669 -0.4277533 -0.1490748 0.009148331 -0.2084605 0.9779879 2171431 female
-0.7289629 0.2727492 -0.02821051 0.4057532 0.183881 0.8952945 4539471 female
-0.6569683 0.5997024 -0.1604327 0.2738304 0.578531 0.7683221 11646908 female
-0.78578 0.01755004 -0.1271889 -0.9962547 -0.04135891 0.07593423 1973793 female
-0.7112612 0.05019023 -0.2677498 0.08929799 -0.4476306 -0.8897486 2368300 female
-0.5932846 0.008120785 -0.148738 0.9965121 -0.07401934 -0.03853141 1776161 female
-0.6075581 0.2314809 -0.1851443 -0.8282507 -0.4138602 -0.3777836 13553880 female
-0.6936114 0.8629965 -0.199184 0.9822485 0.175411 0.06647467 2368292 female
-0.618075 0.4865934 -0.2698548 -0.07404078 -0.09482757 -0.9927365 12828875 female
-0.9118685 0.3027461 -0.09276661 -0.7942524 0.2436464 0.5565965 14146793 female
-0.9434344 -0.3089349 -0.0685932 0.01916259 -0.4144626 0.9098646 1776669 female
-1.012086 -0.6914902 -0.07363036 -0.4160842 0.9073489 0.05993258 16770014 female
-0.6052157 0.03304201 -0.09601384 0.9018983 0.03317683 0.4306726 1973537 female
-0.561893 0.03584103 -0.04908801 0.9431982 -0.1405086 -0.3010556 16574943 female
-0.5744995 0.5716124 -0.2209998 0.7793525 0.5251771 -0.3417583 14081007 female
-0.9250724 -0.5897989 -0.1701098 0.9947857 -0.08283408 -0.05949676 1973022 female
-0.6551238 -0.5211704 -0.1688012 0.07022154 -0.158342 0.9848842 2499878 female
-0.9062608 0.4109519 -0.1096818 -0.8255442 -0.2492009 0.5063356 14343396 female
-0.7578645 0.6232973 -0.1403695 0.1153008 0.5458421 0.829917 15263984 female
-0.9616576 -0.6458313 -0.1074425 -0.2767631 0.7446897 0.6073215 5196879 female
-0.9655502 0.6142923 -0.1912007 -0.6614243 0.7305045 -0.1699443 12303039 female
-0.7593038 0.2725659 -0.2524367 -0.08372527 0.1961907 -0.9769848 15201279 female
-0.5958884 0.5796037 -0.167289 0.4246374 0.3898736 0.8171179 9802653 female
-0.981102 0.3962104 -0.2207649 -0.1132889 -0.2048897 -0.9722067 12897242 female
-0.8961244 -0.4376154 -0.1533322 0.9834073 -0.1793597 0.02720821 1842720 female
-0.8998117 0.00917528 -0.2166606 -0.1118126 -0.487094 -0.8661624 2895412 female
-0.7387216 0.5288537 -0.07333048 0.01983918 0.6272606 0.7785567 10395047 female
-0.6359701 -0.6173773 -0.190123 0.9364838 0.009930216 0.3505702 2369581 female
-0.6826783 -0.1068361 -0.2194565 0.001981842 -0.05668632 -0.9983901 2106409 female
-1.012408 -0.6948758 -0.04885089 -0.2232885 0.9607202 0.1647999 16243670 female
-0.8740682 0.3503594 -0.2423927 -0.5106154 -0.1962416 -0.8371148 10330288 female
-0.9865575 -0.6844555 -0.06056745 -0.3007729 0.9105154 0.2837208 16506325 female
-0.6587511 -0.09350014 -0.2165144 0.2971745 -0.04241734 -0.9538805 2171945 female
-0.6303075 -0.3191134 -0.1355306 0.6792177 -0.174632 0.7128584 2040353 female
