# .PCD v0.7 - Point Cloud Data file format
VERSION 0.7
FIELDS x y z normal_x normal_y normal_z rgb label
SIZE 4 4 4 4 4 4 4 4
TYPE F F F F F F U U
COUNT 1 1 1 1 1 1 1 1
WIDTH 170
HEIGHT 1
VIEWPOINT 0 0 0 1 0 0 0
POINTS 170
DATA ascii
-0.9736634 0.1238615 -0.2347385 -0.8525945 0.09163455 -0.5144761 12173512 female
-0.6815703 0.1633688 -0.294058 0.5649145 0.06817801 -0.8223281 9803174 female
-0.9562404 -0.4198684 -0.1161517 0.414167 -0.2873791 0.8636428 2170913 female
-0.621479 0.1245825 -0.07922547 -0.8331635 0.1744438 -0.5247932 15726591 female
-0.6759868 -0.302524 -0.255735 -0.05608324 0.3692839 -0.9276229 2698289 female
-0.6467809 -0.1942652 -0.1171271 0.6703411 -0.1703468 0.7222359 2170145 female
-0.9337438 0.3322957 -0.2191553 -0.91787 0.06995524 -0.3906672 12238278 female
-0.9998841 -0.7045881 -0.1255878 0.05797991 -0.9817979 -0.1808625 657418 female
-0.9431061 -0.5108318 -0.1713293 0.9549468 -0.2341398 0.1823599 1841948 female
-1.026223 0.192215 -0.03584781 0.9229708 -0.3773716 -0.0756025 12238536 female
-1.031617 0.4818558 -0.192749 -0.9877308 0.1110547 -0.1097944 10133932 female
-0.9296095 0.3133614 -0.2320115 -0.8387588 0.08245042 -0.5382246 4342604 female
-0.9840503 -0.5282822 -0.2170868 -0.1136976 0.03337001 -0.9929549 2499883 female
-0.981088 0.3773257 -0.1489214 0.7168519 -0.07339784 0.6933513 15133945 female
-0.6036814 0.4853585 -0.2924013 0.5615951 0.0594531 -0.8252735 12763602 female
-0.6285858 0.02151954 -0.1172978 0.8617527 0.06030612 0.5037316 1973536 female
-0.9866929 0.1551204 0.1163897 0.5246416 -0.8169194 0.2395705 6377033 female
-0.8752976 0.06747447 -0.04785519 0.3153423 0.2130987 0.9247423 2434601 female
-0.9064525 -0.2702747 -0.1272743 0.8998538 -0.2437451 -0.3617339 1973278 female
-0.6783238 -0.5868176 -0.2025883 -0.3192616 0.0767035 0.9445573 2631471 female
-0.9889772 0.4183966 -0.1393977 0.3230205 0.03375088 0.9457899 13288397 female
-0.9389769 0.3950054 -0.1681629 -0.9692334 -0.06471585 0.2374839 14607343 female
-1.072591 0.2320154 -0.06365829 -0.9982846 -0.05854668 -0.0003656356 5397866 female
-0.6700974 0.3400358 -0.1570264 0.8973034 0.1172354 0.4255614 3420469 female
-0.9446549 0.4457482 -0.1441739 -0.9306025 -0.2022053 0.30511 5394262 female
-0.6108912 0.3610781 -0.2116311 0.01788983 -0.003256768 0.9998347 14147815 female
-0.7217171 0.2417563 -0.068359 0.5915447 0.1338194 0.7950894 13620456 female
-0.7132576 0.2387984 -0.288712 0.2762592 0.3287871 -0.9030946 5327965 female
-0.7257933 0.8769758 -0.2564946 0.8167526 0.432834 -0.3815363 2631463 female
-0.7220184 0.4857639 -0.0796645 0.09843898 0.361948 0.9269862 12369609 female
-0.5704013 0.2472107 -0.2310615 0.6596519 -0.4359615 -0.6122066 11317177 female
-0.6253717 -0.4211831 -0.2447615 0.9406694 -0.04167759 -0.3367552 1579808 female
-0.9723237 -0.03889348 -0.1967347 -0.5764193 -0.2329348 -0.783251 2631470 female
-0.9075429 -0.2014166 -0.1557966 0.5514676 -0.1375776 -0.8227733 2171944 female
-0.641721 -0.6762056 -0.2294601 0.9428349 0.1608537 -0.2918707 13087919 female
-0.8227618 0.8306802 -0.3064713 -0.3429686 -0.07274866 -0.9365256 14338761 female
-0.7262887 0.7643834 -0.1920767 0.9671777 -0.2439094 -0.07124164 15260103 female
-0.9148306 0.649739 -0.2544741 -0.5211788 0.7050249 -0.4809495 12437462 female
-0.9609064 0.1600178 -0.09796172 -0.6852185 0.2930285 0.6667907 6580853 female
-0.7844629 0.6097658 -0.3089072 -0.2111053 0.247595 -0.9455851 13950196 female
-0.628283 -0.1817137 -0.1455148 0.951709 -0.09859568 0.2907387 2105377 female
-0.793604 0.3458402 -0.06133833 0.09171262 0.216999 0.9718541 15067640 female
-0.8764278 0.08217641 -0.2987479 -0.1283669 -0.2873607 -0.9491816 2960949 female
-0.7536728 0.125798 -0.06336261 0.4581635 -0.3232302 0.8280148 13686242 female
-1.019142 0.5536386 -0.1662611 -0.816371 0.3822584 0.4329168 7304056 female
-0.9423124 0.3295159 -0.1767799 -0.9889477 0.143423 0.03758051 14607077 female
-0.7138859 0.2859754 -0.2799903 0.3634225 -0.0211212 -0.931385 13488354 female
-0.7874309 -0.06668745 -0.1676259 -0.9677931 -0.2462281 0.05242335 2433573 female
-0.6154407 -0.03822891 -0.1951636 0.9662384 -0.1232723 -0.2262459 2105122 female
-0.6505054 0.6109077 -0.214634 0.2073592 0.8065648 0.5535841 13422293 female
-0.8587555 0.1250061 -0.06027469 -0.07321815 -0.06079826 0.995461 2435117 female
-0.7350835 0.7730258 -0.2472939 0.7962947 -0.4608829 -0.3917928 2499619 female
-0.6603937 0.446276 -0.2729497 0.8341903 -0.3295412 -0.4421867 13619671 female
-0.9391308 -0.2893669 -0.1633352 0.5823922 0.2996915 -0.7556483 2697257 female
-0.992299 0.525066 -0.2413662 -0.3217589 -0.02084413 -0.9465922 9671839 female
-0.8377965 0.7231526 -0.2427062 -0.859623 0.1011413 -0.5008182 5984074 female
-0.9342093 -0.1105629 -0.03108005 0.02039961 -0.09302271 0.995455 2171944 female
-0.643062 0.5996616 -0.2026978 0.2167732 0.6649218 0.7147647 15330803 female
-0.7849825 0.5269819 -0.09818787 0.1466184 0.6477825 0.7475833 14146792 female
-0.8959512 -0.03612605 -0.2156182 0.1523743 -0.3637195 -0.9189615 1841954 female
-0.7717065 0.8139938 -0.1148257 0.8203886 0.3593576 0.444775 14599093 female
-0.7246742 -0.1936033 -0.1160727 -0.5983964 -0.2451509 0.7627731 2170913 female
-0.8793865 0.4019188 -0.2875611 -0.3799294 -0.2610316 -0.8874211 15198199 female
-0.8982196 -0.01734129 -0.03369779 0.2674751 -0.02108573 0.9633341 2170916 female
-0.7042569 -0.2828628 -0.1381145 -0.5083894 -0.4317249 0.7450865 2170913 female
-0.9827371 -0.008243045 -0.1975895 -0.7136296 -0.2599367 -0.6505119 2500907 female
-0.7194118 0.3951247 -0.1036238 0.5941861 0.1472243 0.7907389 15724543 female
-0.6720985 0.3210092 -0.1474092 0.8613623 0.164659 0.4805647 6183780 female
-1.007239 -0.2918499 -0.1701646 -0.5858945 0.3838617 -0.7137071 2171945 female
-0.7024486 -0.2000291 -0.1058188 -0.2892538 -0.229392 0.9293608 2170401 female
-0.7849899 0.1077885 -0.05948303 0.1930884 -0.4538909 0.869885 3422009 female
-0.9285492 -0.2563124 -0.1506557 0.3611677 -0.03999056 -0.9316429 2631471 female
-0.990764 -0.6903338 -0.1994991 -0.03965909 -0.9911397 -0.126765 919562 female
-0.8977905 -0.2340383 -0.08713815 0.8724441 -0.2900313 0.3933486 1973534 female
-0.9717774 0.06277441 -0.2381175 -0.7564535 -0.201936 -0.6220931 2499881 female
-1.064908 0.1337344 0.01763804 -0.8093084 -0.3553439 -0.4677079 7171965 female
-0.921982 -0.005937646 -0.2296675 -0.1306892 -0.4580517 -0.8792661 2763826 female
-1.005973 -0.6590327 -0.230051 -0.8354726 0.2588206 -0.4847653 16770006 female
-0.6071939 0.1991287 -0.1264422 -0.6447268 0.4632744 0.6080331 15068412 female
-0.6917192 -0.08567997 -0.08078066 0.03181947 -0.1737819 0.98427 2171944 female
-1.050321 0.2761918 -0.06267963 -0.200362 0.6415378 0.7404622 14872823 female
-0.650789 0.4732982 -0.2523603 0.9178365 -0.389202 -0.07808957 11777205 female
-1.033004 0.3899909 -0.1429346 -0.5177385 0.2937095 0.8035432 14016221 female
-0.9761041 -0.3968013 -0.1010815 0.146457 -0.287982 0.9463702 2169889 female
-0.9370143 -0.2896171 -0.1618907 0.6073204 0.2864033 -0.7410365 2631464 female
-0.913078 0.3929251 -0.2636877 -0.6937844 -0.1709063 -0.6996101 15133430 female
-0.7665107 -0.1252735 -0.2011482 -0.9148015 -0.2075835 -0.3464785 1972766 female
-0.6131168 0.06362678 -0.1726318 0.9896692 0.08380214 0.1163276 1908257 female
-0.7577278 0.8347705 -0.3019561 0.491408 -0.01899607 -0.8707223 2696225 female
-0.6031523 0.06155354 -0.01264742 0.2941094 -0.9240526 -0.2441853 1576976 female
-0.8655584 -0.02561127 -0.2112271 0.444092 -0.4045188 -0.7994666 2697257 female
-0.8367451 0.08001174 -0.2966723 -0.07870535 -0.3533787 -0.9321636 2171687 female
-0.9975109 -0.2581492 -0.155586 -0.5252039 0.3436082 -0.7785205 2565673 female
-0.9372258 0.2738873 -0.2328522 -0.7351751 0.3602596 -0.5742218 12371154 female
-0.7595441 -0.1749116 -0.1914045 -0.9695473 -0.1138662 -0.2168235 2170913 female
-0.6631964 0.2884744 -0.2300991 0.9096998 0.07556698 -0.4083332 14082023 female
-0.7352712 -0.3679196 -0.2188967 -0.9954793 0.02699315 0.09106214 1776161 female
-0.7692165 0.4987922 -0.08480758 0.05628406 0.4024009 0.9137317 14015206 female
-0.8367289 -0.05258072 -0.1159322 0.9519205 -0.2943262 0.08496705 2499627 female
-0.9504592 0.6351942 -0.2066118 -0.4792848 0.8662146 0.1412744 12370114 female
-0.6233014 -0.06430183 -0.1243196 0.9137427 -0.07762681 0.3988087 1973537 female
-0.6451897 -0.6627706 -0.2394762 0.9521597 0.05540599 -0.3005364 2105376 female
-1.008969 -0.5700792 -0.1921281 -0.9614451 -0.04103181 -0.2719185 1579032 female
-0.607373 0.5919412 -0.2407591 0.6862106 0.7250759 -0.05813744 10132378 female
-0.931926 -0.2527972 -0.15154 0.3148841 -0.0404242 -0.9482688 2698289 female
-1.016961 0.2244563 -0.09326185 0.7731283 -0.5853187 -0.2442839 9474457 female
-0.5872986 0.4603483 -0.2733911 0.8977744 0.03090418 -0.4393701 15461628 female
-1.008971 -0.6527718 -0.1323725 -0.661252 0.6814684 0.3136028 15785175 female
-0.7574938 -0.1543138 -0.2068859 -0.8837981 -0.1479311 -0.4438662 2170914 female
-0.6818883 -0.001483035 -0.07238149 0.2743168 -0.001437948 0.9616383 2499878 female
-0.7164769 0.4281079 -0.3125704 0.2933449 -0.3473399 -0.890676 9606042 female
-0.7903661 0.7771476 -0.1115429 -0.4145512 0.1571971 0.8963461 13611434 female
-0.7380163 0.1974918 -0.3072721 0.08636095 0.2799359 -0.9561264 15200255 female
-1.023946 -0.6913135 -0.1704843 -0.6389544 -0.658778 -0.3971761 526344 female
-0.7535951 0.641852 -0.1879224 0.6115276 0.2888718 0.7366052 13751003 female
-0.6370184 0.5264477 -0.3038944 0.165403 -0.1752502 -0.9705303 9409180 female
-0.8947572 -0.03444184 -0.2163624 0.1619448 -0.3684579 -0.9154302 2105124 female
-0.6816171 0.5596609 -0.3208512 0.3662966 0.02909749 -0.9300431 11383490 female
-0.7909693 0.7552099 -0.1102896 -0.3553984 0.0535254 0.9331812 11173769 female
-0.844925 -0.009496244 -0.06627686 0.7362244 -0.1584467 0.6579273 2170913 female
-0.6568442 -0.5566305 -0.2659887 0.6672871 -0.1474067 -0.730068 1973281 female
-0.8841048 0.514033 -0.07931861 -0.2662037 0.5854697 0.7657421 15133430 female
-0.9037872 -0.2442435 -0.1381241 0.7734499 -0.2313166 -0.5901422 2105124 female
-0.7811982 0.2959155 -0.05682811 0.1592147 0.1332999 0.9782033 7434876 female
-0.6350029 0.1102544 0.008714829 0.5806301 0.7206054 0.3789414 14797496 female
-0.9518291 0.5012057 -0.1558722 0.6949341 -0.3447998 0.6310148 15725559 female
-0.7392497 0.2483003 -0.05880486 0.4626542 0.154046 0.8730526 5130576 female
-0.6548979 0.5143478 -0.1819908 0.8602053 -0.2686551 0.4334413 14080999 female
-0.9660411 -0.6957213 -0.1040254 0.9153836 -0.4018824 -0.02373265 6641752 female
-0.7501177 0.4503595 -0.3250284 0.00288006 -0.2471521 -0.9689724 15462391 female
-0.7677162 0.5396357 -0.1148384 0.02514663 0.6338162 0.7730749 9145496 female
-0.7026904 0.5443724 -0.133603 0.361971 0.6033685 0.7105797 15724543 female
-0.7652432 -0.0543597 -0.2330271 -0.6355394 -0.2450746 -0.7321394 2237481 female
-0.8122029 0.493973 -0.3242829 -0.1972409 0.05321051 -0.97891 15526648 female
-0.6515634 -0.5918007 -0.213128 0.7938415 -0.06958407 0.6041306 1907998 female
-0.7476806 0.7152787 -0.1993257 0.9302384 -0.2650396 0.2537921 12429467 female
-0.6653439 -0.4623049 -0.1834094 0.0787837 -0.2104319 0.9744288 2105379 female
-0.7273246 0.2713684 -0.0715784 0.5693107 0.1706367 0.8042192 14342371 female
-0.6755879 0.596113 -0.1904573 0.3181607 0.5590217 0.7656818 11646908 female
-0.7865654 -0.03404422 -0.1264098 -0.9043065 -0.2125343 0.3702147 1579295 female
-0.7963784 0.07500168 -0.3059418 -0.2904891 -0.3096985 -0.9053745 2764858 female
-0.6182119 -0.006465421 -0.137185 0.9458662 -0.008036303 0.3244573 1973537 female
-0.6343864 0.2708532 -0.2131523 -0.9381957 0.06354813 0.3402212 15198199 female
-0.7163058 0.8718081 -0.2311935 0.9254234 0.348886 -0.1478855 2039327 female
-0.6462789 0.477194 -0.3017524 -0.212652 -0.1336068 -0.9679506 12961486 female
-0.9302184 0.2880889 -0.1162749 -0.7703698 0.2752935 0.5751034 7960958 female
-0.9654273 -0.2928894 -0.0618349 0.04799986 -0.5261059 0.8490634 2630696 female
-1.049083 -0.692692 -0.1054345 -0.8827512 0.434713 -0.1782553 14534080 female
-0.6490782 0.1176343 -0.1144167 0.6962219 0.2328591 0.6790078 15330809 female
-0.5900575 0.03686728 -0.05735395 -0.3261494 -0.01416683 0.9452121 4993586 female
-0.6056444 0.588246 -0.2310969 0.7061053 0.6884512 0.1656813 12369597 female
-0.9578025 -0.5788115 -0.2007745 0.9514298 -0.1059715 -0.2890525 2039327 female
-0.6627055 -0.3805625 -0.1661844 0.1468882 -0.1942502 0.9698921 2170403 female
-0.9142479 0.4185266 -0.1104593 -0.6557353 -0.5133643 0.5535959 14079205 female
-0.7849734 0.6224799 -0.1644878 0.09347264 0.4825561 0.870863 16120317 female
-1.000273 -0.6679363 -0.09574749 -0.2308319 0.8735398 0.4285381 16637655 female
-0.994862 0.603372 -0.1895534 -0.6932673 0.7201969 -0.02639675 14607335 female
-0.7974849 0.2492682 -0.2895028 -0.1050479 0.3130532 -0.9439082 13948650 female
-0.610453 0.5497844 -0.1976058 0.4011931 0.1450196 0.9044409 5789280 female
-1.008192 0.3945828 -0.2225897 -0.1989712 -0.224052 -0.9540499 12897242 female
-0.9204948 -0.3993263 -0.1658818 0.9827745 -0.0953683 -0.158301 1776673 female
-0.9366492 -0.02063623 -0.2198954 -0.2362948 -0.3668146 -0.8997844 2763826 female
-0.7435466 0.5294148 -0.1070612 0.1130361 0.6349405 0.764247 15659774 female
-0.6508285 -0.6209291 -0.2138671 0.881396 0.07527985 0.4663411 2829616 female
-0.6650109 -0.06383787 -0.2468244 0.3871937 -0.1452535 -0.9104847 2303275 female
-1.05359 -0.6972995 -0.08799534 -0.9868481 -0.006251768 -0.1615294 11112072 female
-0.8564461 0.2389274 -0.2845204 -0.1671826 0.3056287 -0.9373586 15201018 female
-1.00792 -0.6462642 -0.1411925 -0.734933 0.6005696 0.314944 11970722 female
-0.6780847 -0.1238246 -0.2474728 0.2227683 -0.07270852 -0.9721562 2171945 female
-0.6447634 -0.3290612 -0.1613311 0.6118571 -0.1836311 0.7693572 1777187 female
