# .PCD v0.7 - Point Cloud Data file format
VERSION 0.7
FIELDS x y z normal_x normal_y normal_z rgb label
SIZE 4 4 4 4 4 4 4 4
TYPE F F F F F F U U
COUNT 1 1 1 1 1 1 1 1
WIDTH 170
HEIGHT 1
VIEWPOINT 0 0 0 1 0 0 0
POINTS 170
DATA ascii
-0.8762494 0.1381969 0.8241187 -0.8268909 0.09884641 -0.5536071 8618891 female
-0.555822 0.1546662 0.8201692 0.8046001 0.0497326 -0.5917309 11121347 female
-0.8952595 -0.4665832 0.9060056 -0.3537224 -0.2421406 0.9034647 2171174 female
-0.5581982 0.1209958 1.048528 -0.9367947 0.1372257 -0.3218459 12825516 female
-0.5521322 -0.5525756 0.8677527 0.8194757 -0.1822697 0.5433576 2171937 female
-0.644972 -0.192367 0.962192 -0.7057159 -0.2471823 0.6639774 2170913 female
-0.8112805 0.3617655 0.8000299 -0.5907692 -0.2624432 -0.7629648 12172489 female
-0.9443056 -0.7142451 0.96946 -0.2166164 -0.9754848 0.03881536 526344 female
-0.833791 -0.166196 0.9958237 0.2278778 -0.2181314 0.9489417 2039072 female
-0.9431765 0.2272455 0.9282591 0.2700725 -0.7927173 -0.546498 10921901 female
-0.9390409 0.4845844 0.8542475 -0.9911089 0.128139 0.03582607 7829376 female
-0.8707747 0.2585807 0.9115915 -0.8904341 0.3998803 0.2173083 13753065 female
-0.8987995 -0.4704094 0.8204554 -0.5280672 -0.04762043 -0.8478663 2170401 female
-0.9177209 0.3773387 0.9038696 0.08529313 0.1108148 0.9901743 8224648 female
-0.4873089 0.5354679 0.8346986 0.9299552 0.2787116 -0.2397979 7698310 female
-0.5404913 -0.01213784 0.9742118 0.8302698 -0.02366969 0.5568589 1973536 female
-0.9222569 0.1579701 1.152172 0.8177287 -0.5753568 -0.01686471 5193276 female
-0.8646565 0.03567124 1.004513 -0.5194429 0.128162 0.8448393 2500651 female
-0.7976272 -0.258025 0.9265302 0.9079078 -0.3090822 0.2831457 2169889 female
-0.5907093 -0.6089116 0.8795813 -0.3937163 0.2214057 0.8921698 2367780 female
-0.8827609 0.4005867 0.8883905 0.7254449 -0.08951864 0.682434 13224148 female
-0.8522189 0.430335 0.9117497 -0.8952226 -0.3396136 0.2885119 10987703 female
-0.9880524 0.2137861 0.9779555 -0.9020365 -0.3009538 -0.3094463 13028569 female
-0.5852053 0.3466144 0.9337299 0.8258872 0.1508336 0.5432858 3420469 female
-0.8526987 0.4089093 0.8737223 -0.9768892 -0.2105029 0.03709539 3553086 female
-0.5207425 0.4303004 0.8885515 0.1059079 0.06445289 0.9922849 6578796 female
-0.6367906 0.2697775 1.004928 0.5355234 0.194527 0.8218114 6184287 female
-0.6013737 0.2262124 0.7953521 0.413251 0.3191953 -0.8528411 6514804 female
-0.6236098 0.8741898 0.7938337 0.8687584 0.3990464 -0.2932931 2631463 female
-0.7108359 0.4054521 0.9938381 0.02071311 0.3539767 0.9350249 6184292 female
-0.4675102 0.2541933 0.8897237 0.9312868 -0.2347451 -0.2785672 13158615 female
-0.5322863 -0.4385651 0.8436006 0.9771819 -0.08413799 -0.1950294 1579553 female
-0.8515311 -0.03963222 0.8366624 -0.256663 -0.2083456 -0.9437777 2105896 female
-0.8018336 -0.2030491 0.8771443 0.6677985 -0.08354954 -0.7396381 2171944 female
-0.5517921 -0.6737053 0.8545102 0.979036 0.1480599 -0.1398815 13087919 female
-0.7130874 0.8241419 0.7344325 -0.2079886 -0.149267 -0.9666747 14338761 female
-0.6395378 0.7671469 0.8908546 0.93156 -0.2270867 0.2839501 16573907 female
-0.7986308 0.6405503 0.7713035 -0.3052652 0.5271999 -0.7930154 12369607 female
-0.8516548 0.1504807 0.9773332 -0.5219439 0.2500844 0.8154951 14015981 female
-0.6782132 0.5913804 0.7501889 -0.1125146 0.1762777 -0.9778889 14541555 female
-0.5926347 -0.1526217 0.9905859 0.1820353 -0.2426549 0.9528807 1842723 female
-0.7209778 0.3534174 1.010618 -0.05025098 0.2509677 0.9666903 15067640 female
-0.7327818 0.07266587 0.7741377 0.1258531 -0.4352554 -0.8914672 2435119 female
-0.6798985 0.2048378 1.032249 0.240296 -0.09804575 0.9657354 15133431 female
-0.9250839 0.5732427 0.842422 -0.8260142 0.5297235 -0.192597 4934995 female
-0.8466861 0.4099402 0.9068218 -0.9252779 -0.2006017 0.3219002 13620448 female
-0.6375102 0.2719598 0.7973804 0.223156 0.1203437 -0.9673256 15200255 female
-0.7039894 -0.03443146 0.9034569 -0.978955 -0.175537 -0.1040855 3290426 female
-0.526264 -0.05630336 0.922058 0.9881135 -0.1264303 0.0874477 1908509 female
-0.5721858 0.6135365 0.8688059 0.1317495 0.7606751 0.6356221 15922171 female
-0.7913809 0.1379002 1.00193 -0.3256249 -0.09363648 0.940851 15133438 female
-0.6410304 0.7547753 0.821065 0.8930047 -0.3796245 -0.2417187 3551790 female
-0.562721 0.4473966 0.8071703 0.8530393 -0.3628618 -0.3750404 13553878 female
-0.8640493 -0.3227133 0.832555 0.1637081 0.3332974 -0.9285001 2697774 female
-0.9191567 0.5455914 0.8120999 -0.6604711 0.23633 -0.7126893 9078681 female
-0.7430061 0.7139155 0.8086765 -0.8021198 0.1678374 -0.573092 10981510 female
-0.8649512 -0.1146498 1.001683 -0.3449836 -0.1437175 0.9275407 2171944 female
-0.5720589 0.5937184 0.8883544 0.07411448 0.5794266 0.8116476 14540519 female
-0.6785721 0.5381244 0.9621906 -0.03380133 0.680881 0.7316136 15660798 female
-0.8272285 0.01528466 0.8120896 -0.161203 -0.4947225 -0.8539691 3157808 female
-0.7125406 0.8066461 0.9306095 -0.6577863 0.3098623 0.6865148 14795706 female
-0.5372894 -0.1977012 0.9037604 0.9964053 -0.01987999 -0.08234882 2170921 female
-0.7962453 0.4115851 0.7767509 -0.4013562 -0.3586588 -0.8427794 2698546 female
-0.8544319 -0.03288419 1.012778 -0.2706143 -0.04509406 0.9616311 2500142 female
-0.5736046 -0.2670596 0.9613511 0.4538324 -0.3042805 0.8375258 2170402 female
-0.8793843 -0.008286308 0.8418565 -0.5956569 -0.2384834 -0.7670193 2500907 female
-0.6423441 0.4031821 0.97701 0.4756535 0.1916928 0.8584915 15724543 female
-0.5881638 0.3278236 0.943822 0.7813535 0.1975417 0.592 6183780 female
-0.9127983 -0.3715472 0.9177458 -0.7313845 -0.1097378 0.6730784 2565671 female
-0.5712146 -0.1978275 0.9732953 0.5068333 -0.1906751 0.8406919 2170403 female
-0.6896192 0.15355 1.025404 0.2515431 -0.2230016 0.9418048 12303563 female
-0.834514 -0.2206768 0.867344 0.2213226 -0.04212675 -0.9742903 2565419 female
-0.8993563 -0.7026616 0.851918 -0.07573926 -0.9873426 -0.1393492 789772 female
-0.79874 -0.214676 0.9521804 0.8253989 -0.2679682 0.4969002 1841436 female
-0.8709973 0.08661759 0.810906 -0.7372342 -0.0173885 -0.6754135 2565935 female
-0.9943087 0.1637189 1.066455 -0.9532048 0.1756713 0.2460491 13885410 female
-0.8278935 0.003251851 0.8187116 -0.1115716 -0.4213262 -0.9000199 2566447 female
-0.911621 -0.6791301 0.8318552 -0.9222052 0.1228332 -0.3666736 11705240 female
-0.5335248 0.2206288 0.9405876 -0.9455531 0.1274993 0.2994548 14608118 female
-0.6813012 -0.06159253 0.970927 -0.7904305 -0.2567162 0.5561622 1973534 female
-0.963348 0.2726113 0.9793858 -0.08628539 0.6527442 0.7526485 10396585 female
-0.5533952 0.4727668 0.8346546 0.9170192 -0.394052 0.06163352 10132382 female
-0.9354957 0.3756426 0.9009767 -0.2672098 0.2629557 0.927067 14740469 female
-0.9047064 -0.3704526 0.9273072 -0.5428097 -0.1480503 0.8267035 2631464 female
-0.8848804 -0.342413 0.8244598 -0.190862 0.2718757 -0.9432154 2302505 female
-0.82951 0.3741167 0.8126149 -0.7704037 -0.2117668 -0.6013592 10066337 female
-0.6734951 -0.1578967 0.9015216 -0.9834132 -0.1488221 -0.1036846 1775899 female
-0.5219007 0.0326742 0.9365592 0.9559215 0.004448778 0.2935884 1974307 female
-0.645349 0.8194768 0.7527637 0.6694763 -0.1738401 -0.7222058 3420972 female
-0.5421855 0.07220692 1.087765 -0.9523177 -0.1990537 -0.231233 8483443 female
-0.7637697 -0.04732399 0.8559251 0.6388435 -0.3000974 -0.7083929 2498854 female
-0.7539359 0.1004761 0.7620159 0.06351045 -0.1747968 -0.9825541 5263457 female
-0.8753812 -0.1530274 0.9922823 -0.4431105 -0.1491722 0.8839688 2172969 female
-0.8174171 0.2859566 0.8115792 -0.5349838 0.1392744 -0.8333037 5524558 female
-0.6703199 -0.1754799 0.8949416 -0.9806101 -0.1072316 -0.1640282 1710363 female
-0.5594949 0.2730356 0.8953447 0.9572491 0.2855998 0.04590203 14673128 female
-0.6188099 -0.247997 0.8524519 -0.2376411 -0.006429459 -0.9713318 2565677 female
-0.7204717 0.5048578 0.984781 0.09953358 0.4058979 0.9084822 15461623 female
-0.7171198 0.03938823 0.8547848 0.2834598 -0.9290765 -0.2376286 1842204 female
-0.8561661 0.6317497 0.8548498 -0.1891525 0.9172947 0.3504164 12894660 female
-0.5413477 -0.09211345 0.9609643 0.8845661 -0.128691 0.4483095 1841953 female
-0.5550122 -0.6518195 0.8320748 0.9569306 -0.01496678 -0.2899309 1842207 female
-0.8606951 -0.4095514 0.9191689 0.2474277 -0.2544943 0.9348862 2170913 female
-0.5223766 0.6026175 0.8425263 0.6327974 0.7729417 -0.0461353 9013393 female
-0.8341755 -0.2266679 0.8680726 0.2396059 -0.04495241 -0.969829 2500140 female
-0.9257128 0.2440928 0.9191637 0.6968975 -0.6460741 -0.3113233 13816027 female
-0.485604 0.4843461 0.8565682 0.9503412 0.03710933 0.3089895 10725291 female
-0.9073222 -0.6263094 0.8502345 -0.9956664 0.09241112 0.01041477 1907741 female
-0.6712179 -0.1309952 0.8758546 -0.874098 -0.169895 -0.4550696 2170657 female
-0.6277846 0.02125879 1.015188 -0.0753879 0.02109299 0.9969311 2237481 female
-0.6490527 0.4381702 0.7537105 0.1246405 -0.2992648 -0.9459944 12237251 female
-0.6887941 0.7388226 0.9366042 0.461431 -0.1244831 0.8783993 15783369 female
-0.5925225 0.1512527 0.7815279 0.5400805 0.06490728 -0.8391067 12106953 female
-0.9330372 -0.7086512 0.8886266 -0.4735222 -0.7766596 -0.4154234 921102 female
-0.6932357 0.647397 0.8887491 0.1359006 0.1455264 0.979976 13357275 female
-0.5154312 0.5698032 0.8071057 0.6912904 0.3499656 -0.6321722 5922155 female
-0.8004166 -0.04369194 0.8368026 0.2313821 -0.263152 -0.9365967 2500652 female
-0.568564 0.5566556 0.7624247 0.5056698 -0.01095275 -0.8626576 11186367 female
-0.7366448 0.7858373 0.9253147 -0.5002483 -0.003697958 0.8658741 16771292 female
-0.8017428 0.0008273385 1.012938 0.2333337 -0.05379774 0.9709074 2171171 female
-0.5639783 -0.5272143 0.8100134 0.5217587 -0.1077474 -0.8462614 2697264 female
-0.8287609 0.5185871 0.9587291 -0.6024997 0.5088966 0.614832 14935794 female
-0.8001409 -0.2351736 0.8863226 0.7803186 -0.1346465 -0.6107153 2236967 female
-0.7085735 0.3024127 1.018803 0.01544895 0.1597345 0.9870391 7434876 female
-0.5620978 0.1237736 1.075335 -0.4346215 0.8775129 0.2026702 16774119 female
-0.8608907 0.4971503 0.8783736 0.7543499 -0.2954175 0.5862463 9277338 female
-0.6661929 0.2533234 1.023795 0.3288801 0.1743608 0.9281358 5130576 female
-0.5795131 0.5270758 0.923731 0.6988426 0.1973526 0.6875107 14015205 female
-0.871846 -0.6914889 0.9410177 0.9267394 0.2429678 0.2865671 12231836 female
-0.63547 0.4485576 0.7519331 0.1747948 -0.3068617 -0.9355654 15725567 female
-0.7346661 0.5392531 0.9641461 0.1082031 0.6758772 0.7290282 15396344 female
-0.61048 0.5170017 0.9697733 0.3838744 0.6134264 0.69018 13357531 female
-0.6789886 -0.01608692 0.8425849 -0.6061866 -0.2845097 -0.7426925 2302243 female
-0.6847114 0.4907833 0.739264 -0.07389056 -0.05747771 -0.9956086 15463935 female
-0.5796868 -0.3100475 0.8239256 0.06221456 0.3605212 -0.9306738 2237738 female
-0.6562872 0.7032607 0.8597757 0.8624071 -0.1092372 0.4942886 14993595 female
-0.5804265 -0.4271791 0.9074733 -0.08100125 -0.2273755 0.9704324 2171431 female
-0.6528506 0.2775602 1.012532 0.4443124 0.1981166 0.8736912 14342371 female
-0.5217666 0.5988897 0.8642684 0.5282928 0.7586519 0.3812533 5724511 female
-0.703861 -0.01099558 0.9554535 -0.9433377 -0.1511783 0.2953963 2434085 female
-0.6262064 0.05024988 0.7820269 0.1658342 -0.4481587 -0.8784377 2368300 female
-0.518435 0.008827744 0.9120354 0.9963276 -0.07059411 0.04845484 1776161 female
-0.536576 0.2372458 0.8890645 -0.8738108 -0.3618622 -0.3248238 11581120 female
-0.6158712 0.8600345 0.8378323 0.9784716 0.1620352 0.1278199 2368292 female
-0.5193553 0.4576581 0.7935584 0.3364397 -0.09617042 -0.9367815 14605295 female
-0.8474901 0.289481 0.9389244 -0.8480967 0.2720429 0.4546699 7960958 female
-0.8821333 -0.3208355 0.9446161 -0.2717272 -0.2731961 0.9227828 2301987 female
-0.9485642 -0.6940989 0.9402814 -0.3886347 0.9193005 0.06204648 16768982 female
-0.5349759 0.0342952 0.9631658 0.8612899 0.04119163 0.5064416 1973537 female
-0.5023632 0.04107263 1.039868 0.9716272 -0.1109215 -0.2088948 16772326 female
-0.4989824 0.5706336 0.8360394 0.8060809 0.5206998 -0.2812566 14081007 female
-0.8495367 -0.5862381 0.8425339 0.9887488 -0.1385234 -0.05645321 1907745 female
-0.5786558 -0.5201758 0.8858526 -0.02083448 -0.1779557 0.9838179 2499878 female
-0.8383878 0.4104319 0.9229743 -0.8586472 -0.2476299 0.4487811 14343396 female
-0.6727114 0.6261925 0.893886 0.2066523 0.6058366 0.7682818 14738414 female
-0.8991102 -0.6736549 0.9417593 -0.1126153 0.887495 0.446845 14596789 female
-0.8905708 0.6153458 0.8344218 -0.6359633 0.735458 -0.2337779 12303039 female
-0.6789433 0.2718697 0.793148 -0.01187395 0.1902035 -0.9816729 15201279 female
-0.5256075 0.5805818 0.8868006 0.3383501 0.4280259 0.8380411 9802653 female
-0.9225212 0.4088983 0.8180315 -0.4338056 -0.1218717 -0.8927261 5589847 female
-0.8203917 -0.442732 0.8619376 0.9816508 -0.1819281 -0.0571307 2040358 female
-0.8506559 0.03751807 0.8094558 -0.4543616 -0.3794504 -0.8059608 2631465 female
-0.6496391 0.5385443 0.9606081 0.08015609 0.6820651 0.7268853 12765138 female
-0.5527816 -0.5853957 0.8458351 0.9889764 -0.135674 -0.05931522 1578779 female
-0.59338 -0.09155626 0.8361381 0.1968564 -0.06465974 -0.9782978 2106409 female
-0.9439745 -0.696991 0.962629 -0.2027963 0.9627119 0.1790517 16243670 female
-0.7956796 0.3476359 0.7938249 -0.4446371 -0.2121056 -0.870235 10330288 female
-0.9114688 -0.6793562 0.9419366 -0.3142564 0.8928698 0.3225313 16241870 female
-0.5815952 -0.1275516 0.8406553 0.3204052 -0.06978473 -0.9447066 2171688 female
-0.5566069 -0.3188496 0.9255251 0.6116251 -0.1869819 0.7687343 2040353 female
