# .PCD v0.7 - Point Cloud Data file format
VERSION 0.7
FIELDS x y z normal_x normal_y normal_z rgb label
SIZE 4 4 4 4 4 4 4 4
TYPE F F F F F F U U
COUNT 1 1 1 1 1 1 1 1
WIDTH 170
HEIGHT 1
VIEWPOINT 0 0 0 1 0 0 0
POINTS 170
DATA ascii
-0.8912439 0.1294931 0.8335367 -0.8577588 0.1092749 -0.5023037 14079973 female
-0.585587 0.1613066 0.7935727 0.6554367 0.06465589 -0.7524775 9803174 female
-0.8721055 -0.4317702 0.9250104 0.2801781 -0.2842634 0.916894 2170913 female
-0.5997119 0.1294205 1.088287 -0.7396046 -0.6424364 -0.2006504 8351854 female
-0.5766434 -0.5752973 0.856059 0.761786 -0.1872854 0.6201664 2171172 female
-0.5788698 -0.1990736 0.9714374 0.5731031 -0.200961 0.7944605 2170145 female
-0.8269245 0.3436493 0.8058428 -0.6780894 -0.1988052 -0.7075813 6251625 female
-0.9391162 -0.7162085 1.001955 -0.3571516 -0.9308818 -0.0768237 526344 female
-0.8529807 -0.5431015 0.8574651 0.9808124 -0.1883993 0.05012832 1776929 female
-0.9446427 0.2416661 0.9681111 0.2394676 -0.8840227 -0.4014464 10921901 female
-0.9381894 0.4779651 0.83006 -0.832423 -0.02918085 -0.5533718 13553631 female
-0.8134156 0.3227415 0.7976172 -0.51389 -0.1153428 -0.8500665 7566207 female
-0.9045408 -0.4717662 0.82732 -0.3637909 -0.002994125 -0.9314759 1973537 female
-0.9257295 0.380928 0.9198042 0.08719721 0.2150647 0.9726993 9079699 female
-0.5014269 0.5076223 0.8128006 0.7933076 0.08278531 -0.6031664 10066344 female
-0.5545914 0.01711615 0.9763477 0.7947992 0.03523545 0.6058488 1973536 female
-0.9054309 0.2174169 1.199053 0.8241598 -0.56554 0.03041537 5193276 female
-0.8693176 0.0351377 1.012999 -0.476607 0.154295 0.8654703 2500651 female
-0.8116868 -0.2435539 0.9604252 0.816027 -0.295532 0.4967503 2105120 female
-0.6194077 -0.609897 0.8571643 -0.7865323 0.1708503 0.593445 2565671 female
-0.8902962 0.3900951 0.9000406 0.8002634 -0.05272485 0.5973262 7040379 female
-0.8606767 0.4201901 0.8996971 -0.8984064 -0.3404203 0.2774527 14082023 female
-0.9807568 0.2227934 1.036098 -0.7886208 -0.5468039 -0.2812167 11119805 female
-0.6612856 0.3514184 0.9914535 0.5001151 0.195193 0.8436733 15199231 female
-0.8593478 0.3916231 0.8568298 -0.9913023 -0.08015535 -0.1043781 14083055 female
-0.5618448 0.3710093 0.8799706 -0.8089864 -0.01830585 0.5875422 13224659 female
-0.6407887 0.2278643 1.007823 0.5480895 0.109589 0.8292094 5461599 female
-0.6334594 0.2176441 0.7821996 0.235209 0.293469 -0.9265811 11844804 female
-0.6322024 0.8700753 0.7938637 0.8680401 0.4081957 -0.2826353 2631463 female
-0.6585776 0.478749 0.9931872 -0.0702711 0.2239208 0.9720708 14606327 female
-0.4853043 0.2782592 0.9051516 0.9928207 -0.118158 -0.01859562 10528688 female
-0.5546391 -0.4832796 0.8525904 0.9632957 -0.180403 0.1987867 1908257 female
-0.8808121 -0.04332419 0.8529048 -0.4830697 -0.216195 -0.8484712 2631470 female
-0.8140208 -0.2064923 0.8907676 0.6319305 -0.09550628 -0.769118 2171944 female
-0.5712057 -0.6760581 0.8374533 0.9735402 0.1513025 -0.1712512 13087919 female
-0.7217141 0.8216922 0.7330751 -0.2087059 -0.1213021 -0.9704265 14338761 female
-0.6401471 0.7606915 0.8411489 0.7400381 -0.5271354 0.4176984 16769753 female
-0.8078563 0.6351279 0.765843 -0.3163668 0.5235063 -0.7911088 12369607 female
-0.8631366 0.1611872 0.975019 -0.5770137 0.1976089 0.7924682 3552582 female
-0.6778416 0.6111966 0.7490212 -0.01738857 0.2144523 -0.9765797 14937851 female
-0.5567263 -0.1865371 0.9456532 0.9064896 -0.1304797 0.4015615 2105377 female
-0.7189407 0.3314002 1.010584 0.01662293 0.1929659 0.9810647 15199738 female
-0.7468653 0.06588189 0.7758095 0.09328688 -0.4546508 -0.8857709 2435119 female
-0.6822434 0.2231959 1.028443 0.2807286 0.06357387 0.9576794 15002619 female
-0.9188464 0.5779948 0.8194612 -0.6444631 0.4881551 -0.5885338 15200255 female
-0.8496491 0.4156111 0.9194927 -0.8200989 -0.3807147 0.4271932 9672086 female
-0.6490533 0.2650554 0.7923646 0.1980625 0.1005432 -0.9750191 15200255 female
-0.7085137 -0.06663723 0.9057785 -0.9728044 -0.2208052 -0.06997567 2433573 female
-0.5336658 -0.04241207 0.8999728 0.9833869 -0.1456874 -0.1082835 2105122 female
-0.5415862 0.6048919 0.8464537 0.5011284 0.8531364 0.1450128 11645363 female
-0.7932042 0.1034509 1.006732 0.03584355 0.07165784 0.996785 2566703 female
-0.6629738 0.7177796 0.8117302 0.8594367 -0.1557836 -0.4869293 4866113 female
-0.5673454 0.4491219 0.8946425 0.9662555 -0.1607833 0.2012436 6973546 female
-0.8776588 -0.3216707 0.8480764 0.1211725 0.3643734 -0.9233359 2697774 female
-0.9347548 0.5319394 0.8206443 -0.7726566 0.1796547 -0.6088728 15199223 female
-0.751334 0.7091765 0.8039914 -0.802039 0.1820531 -0.5688499 10981510 female
-0.8703415 -0.1152614 1.014706 -0.2983534 -0.117413 0.9472061 2171944 female
-0.5429853 0.600679 0.8639066 0.3647073 0.8093634 0.4603471 11185591 female
-0.682515 0.534057 0.9551758 -0.0206289 0.6792753 0.7335936 14410476 female
-0.8410369 0.009600883 0.819039 -0.2012507 -0.5147222 -0.8334022 3157808 female
-0.7094688 0.8253787 0.9267178 -0.5963196 0.1509519 0.7884266 14601149 female
-0.656304 -0.1961787 0.9629751 -0.6940047 -0.2404975 0.678615 2170913 female
-0.806648 0.406078 0.7724339 -0.4149447 -0.3628882 -0.8343459 2698546 female
-0.8768498 -0.02467168 1.016453 -0.4844487 0.02778069 0.8743784 2368809 female
-0.6356249 -0.2863527 0.9414613 -0.6061388 -0.4441763 0.6597751 2170913 female
-0.8921499 -0.01304805 0.8522813 -0.63263 -0.2553191 -0.7311576 2500907 female
-0.6685477 0.4017823 0.9787121 0.3382699 0.2576022 0.9051048 15791103 female
-0.5796522 0.3501163 0.8489596 0.9643166 -0.1670149 -0.2054253 13882588 female
-0.9013973 -0.2908918 0.8665535 -0.3176782 0.4240327 -0.848102 2303275 female
-0.6356683 -0.2034655 0.9758043 -0.4078518 -0.2371385 0.8817155 2170401 female
-0.6877617 0.1671211 1.025176 0.3047811 -0.1980819 0.9315965 15133177 female
-0.8471534 -0.2233998 0.8833555 0.1746162 -0.04543387 -0.9835878 2565419 female
-0.8883373 -0.7021464 0.8687497 0.1934152 -0.981116 0.001400589 986381 female
-0.8072837 -0.2572005 0.9424909 0.9164381 -0.3016168 0.2629991 2038559 female
-0.8839223 0.0813884 0.8172401 -0.7613591 -0.02767238 -0.6477395 2565935 female
-0.9858369 0.1915138 1.118434 -0.9938102 0.002056384 0.1110718 12435658 female
-0.8415866 -0.002330597 0.826124 -0.1545175 -0.4437718 -0.8827179 2566447 female
-0.9170895 -0.6790481 0.8175347 -0.8930987 0.05190274 -0.4468566 14269620 female
-0.5517479 0.1927431 1.034359 -0.2156961 0.7643293 0.6076808 12436680 female
-0.6250159 -0.08931933 1.003017 -0.09485146 -0.1852525 0.9781026 2171944 female
-0.97147 0.2835935 1.025587 -0.3800226 0.7563294 0.5324929 10000798 female
-0.5652507 0.4757231 0.8645329 0.9526862 -0.1889059 0.2381251 14079966 female
-0.9607533 0.3989913 0.8938822 -0.8688061 0.3537022 0.3465124 12042183 female
-0.8873352 -0.406115 0.9374887 0.07132602 -0.2818503 0.9568035 2169889 female
-0.8779805 -0.3178415 0.8496343 0.115605 0.3764374 -0.919201 2697516 female
-0.8396108 0.3687817 0.8094762 -0.7813089 -0.2162137 -0.5854982 10066337 female
-0.6845787 -0.1662661 0.897854 -0.9821162 -0.1244079 -0.1413169 1841436 female
-0.5313379 0.06035348 0.9239804 0.9694628 0.06645945 0.2360617 1908257 female
-0.6539413 0.8165678 0.7512273 0.6688818 -0.1524258 -0.7275738 3420972 female
-0.6071914 0.07317571 1.159749 0.2238629 -0.855343 -0.4671978 13479852 female
-0.776318 -0.0524165 0.861832 0.6027952 -0.323224 -0.7294958 2498854 female
-0.7680671 0.09348991 0.7638707 0.03096098 -0.1959815 -0.9801188 5263457 female
-0.900793 -0.1811751 0.9928204 -0.7013218 -0.08490131 0.7077708 2170657 female
-0.8618434 0.2696121 0.8408685 -0.7899389 0.3848579 -0.4773688 7698044 female
-0.6823254 -0.1512689 0.8798664 -0.9094539 -0.1337703 -0.3936991 2170913 female
-0.5765202 0.2873025 0.8575264 0.9507925 0.07710297 -0.3000814 14082023 female
-0.6587124 -0.3666401 0.8534178 -0.9983516 0.05104125 -0.02624535 1776161 female
-0.7143199 0.4976028 0.979257 0.000515774 0.3936994 0.9192391 14738420 female
-0.7293346 0.03298927 0.8638934 0.4978304 -0.8295337 -0.2530586 1315860 female
-0.8630648 0.6288311 0.8506526 -0.1574148 0.9308862 0.3296535 12894660 female
-0.5539701 -0.1260549 0.956356 0.891085 -0.133852 0.4336486 1973793 female
-0.5732697 -0.6622083 0.8276286 0.9821438 0.0455915 -0.1825243 2105376 female
-0.9176616 -0.5742657 0.8563256 -0.9887836 -0.09429359 -0.1158261 1579291 female
-0.5956953 0.601676 0.8758552 0.1654774 0.6590205 0.7336956 10264740 female
-0.8467752 -0.2291839 0.8841498 0.1935084 -0.04554939 -0.9800407 2500140 female
-0.9282268 0.2563981 0.9544565 0.6810624 -0.6937035 -0.2343702 13816027 female
-0.52618 0.5267656 0.8897284 0.2966616 0.1068706 0.948984 8157824 female
-0.9178467 -0.6647103 0.9145799 -0.600814 0.7411162 0.2996153 16311770 female
-0.6821311 -0.1977602 0.9035718 -0.9965855 -0.08246918 -0.004017379 1579291 female
-0.6138789 -0.00539948 1.013767 0.152404 -0.01921775 0.9881315 2499878 female
-0.6201348 0.41996 0.762517 0.4069811 -0.3936854 -0.824244 9606042 female
-0.7135405 0.7620439 0.9383093 -0.2610728 -0.3403779 0.9033182 13741744 female
-0.6406678 0.1942952 0.7733603 0.1940621 0.2673418 -0.9438581 15200255 female
-0.9002028 -0.7060626 0.8860304 0.1398712 -0.9860852 -0.08984397 722698 female
-0.6515197 0.6583983 0.8378792 0.7892258 0.4804201 0.3825169 12363155 female
-0.5095558 0.5630708 0.8262579 0.7741424 0.4788306 -0.4140347 14607351 female
-0.8137833 -0.04911566 0.8443979 0.1846711 -0.2905291 -0.9388767 2500652 female
-0.5853624 0.5765862 0.7554412 0.4861007 0.2224304 -0.8451217 16185343 female
-0.7344281 0.7783083 0.9263878 -0.2872873 0.07609855 0.9548167 16772062 female
-0.80614 0.0002940365 1.019204 0.2820879 -0.02762814 0.9589907 2171171 female
-0.57482 -0.6101055 0.8259144 0.9861278 -0.04288279 -0.1603529 1776155 female
-0.7653866 0.5111486 0.9798813 0.1029423 0.5724745 0.8134346 5197142 female
-0.8119487 -0.2378015 0.9007093 0.7518218 -0.1371289 -0.6449493 2236967 female
-0.7064804 0.287012 1.018226 0.04923346 0.2320835 0.9714491 15202303 female
-0.6214281 0.1439251 1.139559 0.7519595 0.3970647 0.5262095 13217700 female
-0.8744106 0.5310606 0.8918679 0.3138346 -0.2793685 0.9074475 14079966 female
-0.6583159 0.2361046 1.016951 0.4550397 0.1429357 0.8789244 13357798 female
-0.5821189 0.5238174 0.9036223 0.6717102 -0.04829226 0.7392383 10526630 female
-0.8800876 -0.710776 0.9598663 0.9364704 -0.3326961 0.1110698 6706519 female
-0.6517229 0.4411564 0.7446323 0.1302708 -0.3008165 -0.9447429 15462391 female
-0.7286597 0.5395872 0.9484782 0.1557148 0.6781499 0.7182378 6315623 female
-0.6122723 0.4818573 0.9813765 0.5086966 0.2919156 0.8099464 7895428 female
-0.6777982 -0.0543565 0.8439904 -0.5466034 -0.2228197 -0.8072026 2237481 female
-0.712594 0.4842882 0.7349723 -0.06176037 -0.002156754 -0.9980887 15526648 female
-0.5973817 -0.2966816 0.8296524 0.002593186 0.4181273 -0.9083848 2566703 female
-0.664671 0.6972617 0.8548875 0.8622438 -0.1217051 0.4916539 14993595 female
-0.5956229 -0.46453 0.8917239 -0.04431082 -0.2618705 0.9640852 2105379 female
-0.6575493 0.254929 1.012138 0.4651435 0.1914459 0.8642858 12895958 female
-0.5808192 0.5911292 0.8821692 0.02173552 0.6062116 0.7950063 14343398 female
-0.7141439 -0.02589781 0.9425614 -0.9637238 -0.1670668 0.2081468 1907741 female
-0.6400651 0.04324922 0.7808282 0.1353194 -0.4649605 -0.8749288 2368300 female
-0.5426524 -0.01107313 0.9575971 0.8986753 -0.03470311 0.4372395 1973537 female
-0.5621475 0.2466805 0.911818 -0.9696378 -0.1597196 -0.1851817 13095135 female
-0.6244051 0.8546524 0.8374125 0.9784487 0.1589829 0.1317671 2368292 female
-0.5392354 0.4238576 0.7976322 0.1259008 -0.213029 -0.9689003 14276065 female
-0.8552571 0.2864253 0.9386984 -0.835686 0.2844335 0.4698155 7960958 female
-0.8803035 -0.3155467 0.9678679 -0.01149696 -0.4556571 0.8900812 1776669 female
-0.9660604 -0.7006733 0.9480153 -0.8253567 0.5481704 -0.1352611 11112842 female
-0.5733336 0.115107 0.9776496 0.6117064 0.2220612 0.7592787 15330809 female
-0.5689514 0.04251262 1.095641 -0.8786827 0.3204134 0.3539096 12888739 female
-0.5084212 0.5679219 0.8564544 0.8023731 0.5445811 0.2441904 12370377 female
-0.8616872 -0.5911512 0.8513684 0.9948341 -0.09453201 -0.03699929 1973022 female
-0.593249 -0.3838508 0.9136863 0.0242312 -0.2469923 0.9687144 2170403 female
-0.839972 0.4217454 0.9433078 -0.6684861 -0.5486996 0.5020509 14079458 female
-0.6634264 0.6239318 0.8790823 0.2859367 0.6625714 0.6922712 13685724 female
-0.9083546 -0.6301486 0.8859348 -0.8178847 0.2764781 0.5046034 2236968 female
-0.8924068 0.6119756 0.8201495 -0.6571643 0.6663225 -0.3523484 11711421 female
-0.7022635 0.2446838 0.7835864 0.003464045 0.2881074 -0.9575918 13948650 female
-0.5552815 0.5619542 0.8923154 0.03575333 0.2449918 0.9688657 15724535 female
-0.9079576 0.317527 0.8719828 0.6839103 -0.5218739 -0.5098181 9147031 female
-0.8318353 -0.4403439 0.8775761 0.9803633 -0.1917746 0.04593748 1842720 female
-0.8315989 0.002816155 0.8230753 -0.07791811 -0.4945195 -0.8656669 2895412 female
-0.6421883 0.5337641 0.9510246 0.1796217 0.6789396 0.7118827 8750994 female
-0.5673711 -0.5413617 0.8236741 0.9279411 -0.1766853 -0.3281885 1579035 female
-0.5771523 -0.06624093 0.8423365 0.492973 -0.1464955 -0.8576227 2303275 female
-0.9609133 -0.6963111 0.9415433 -0.5077295 0.8612702 -0.0205993 16309463 female
-0.8063468 0.3417681 0.7908359 -0.462405 -0.2234453 -0.8580524 10330288 female
-0.9062517 -0.6603144 0.9201956 -0.3100686 0.8288698 0.4656526 16774119 female
-0.5919872 -0.1258503 0.8392485 0.3385152 -0.06788925 -0.9385086 2171945 female
-0.5748821 -0.3331622 0.9235505 0.5105587 -0.2373709 0.826429 1777187 female
