# .PCD v0.7 - Point Cloud Data file format
VERSION 0.7
FIELDS x y z normal_x normal_y normal_z rgb label
SIZE 4 4 4 4 4 4 4 4
TYPE F F F F F F U U
COUNT 1 1 1 1 1 1 1 1
WIDTH 170
HEIGHT 1
VIEWPOINT 0 0 0 1 0 0 0
POINTS 170
DATA ascii
-0.9567751 0.1348326 -0.200422 -0.8799524 0.1227193 -0.4589377 14079973 female
-0.6530541 0.1640995 -0.2546594 0.6181396 0.06826345 -0.7830987 9803174 female
-0.9343767 -0.428072 -0.1014158 0.3187494 -0.245643 0.9154552 2170913 female
-0.6229378 0.10855 -0.01710548 -0.8536605 -0.4141492 -0.315823 7299423 female
-0.6609752 -0.3034274 -0.2268046 0.007188822 0.3742393 -0.9273043 2698289 female
-0.6676685 -0.1835339 -0.06889299 0.1362396 -0.2508855 0.9583815 2171688 female
-0.8905377 0.3497603 -0.2270375 -0.7168543 -0.1727289 -0.6754884 6251625 female
-0.9912511 -0.7159948 -0.08185916 0.01709952 -0.997784 -0.06430189 855565 female
-0.91724 -0.5419132 -0.1649285 0.983409 -0.1804546 0.01851877 1776929 female
-0.9946286 0.1984196 -0.06259833 0.8094041 -0.550283 -0.2050699 5921372 female
-1.005306 0.4803199 -0.1908904 -0.9797404 0.07785256 -0.1845201 10133932 female
-0.8836132 0.3277848 -0.2316221 -0.6192088 -0.05909619 -0.7829995 4078919 female
-0.9704193 -0.4721571 -0.1959676 -0.4006746 -0.04252756 -0.915233 1973537 female
-0.9544893 0.3768255 -0.145234 0.6650461 -0.06057292 0.7443418 15133945 female
-0.5611808 0.5529573 -0.20644 0.9188507 0.3924745 -0.04095353 13620701 female
-0.6083954 -0.0164718 -0.08356796 0.8759024 -0.03490432 0.4812242 1973536 female
-0.9629568 0.1553838 0.1206954 0.4053086 -0.6692517 0.6227577 6837071 female
-0.9276025 0.03991716 -0.02252108 -0.4370562 0.1615714 0.8848031 2500651 female
-0.873705 -0.2387647 -0.0758058 0.8361419 -0.2851262 0.4685827 2105120 female
-0.6739107 -0.6160358 -0.1718199 -0.4803517 0.2381415 0.8441272 2171686 female
-0.9645706 0.4173988 -0.1355109 0.2483943 0.02646782 0.9682973 13288397 female
-0.9180929 0.4233099 -0.1295828 -0.8845847 -0.3422185 0.3168539 14082023 female
-1.043042 0.2395407 -0.06963719 -0.993714 0.05677885 0.09648055 14474476 female
-0.7130398 0.34352 -0.05042973 0.574165 0.1568969 0.8035657 15200255 female
-0.9207878 0.4082997 -0.1592948 -0.9744912 -0.2011496 0.09952787 3553086 female
-0.586098 0.4189298 -0.170266 0.2416781 0.03920539 0.9695641 14541801 female
-0.6985785 0.2661836 -0.04451319 0.6008692 0.1806286 0.7786716 6184287 female
-0.7006169 0.2211904 -0.2629041 0.1929125 0.3050359 -0.9325973 11844804 female
-0.6990126 0.8763001 -0.2368849 0.8447173 0.4265401 -0.3232896 2631463 female
-0.7022813 0.4971628 -0.05368613 0.09648366 0.4967712 0.8625017 15593213 female
-0.5652704 0.252582 -0.2053647 0.3473274 -0.5623198 -0.7504401 12237763 female
-0.6127732 -0.423163 -0.2127547 0.9591399 -0.05467053 -0.2776 1579808 female
-0.9308016 -0.04097053 -0.1886421 -0.3449157 -0.2353148 -0.9086584 2105896 female
-0.8789747 -0.2029948 -0.1459605 0.5973253 -0.1080238 -0.7946907 2171944 female
-0.6333014 -0.6778765 -0.1988955 0.9590471 0.1470702 -0.2420725 13087919 female
-0.7910258 0.8275 -0.293422 -0.2601551 -0.108698 -0.959429 14338761 female
-0.7071036 0.7577364 -0.1772873 0.9378062 -0.3430776 -0.05307804 14535868 female
-0.8727468 0.6417177 -0.258801 -0.352083 0.551969 -0.7558887 12369607 female
-0.9393448 0.1785218 -0.07886581 -0.7244655 0.1990484 0.6599466 7039086 female
-0.7458512 0.5965459 -0.2898299 -0.1596615 0.2312506 -0.9597037 13094624 female
-0.6372018 -0.1701301 -0.07903304 0.6201165 -0.2137646 0.7548246 1974050 female
-0.7808403 0.3504564 -0.03212212 0.0236727 0.2437975 0.9695372 15067640 female
-0.8344235 0.06034764 -0.2628971 0.0496568 -0.4792159 -0.8762912 2566703 female
-0.7370006 0.2231005 -0.01471217 0.3290462 0.04241005 0.943361 15002619 female
-0.9974064 0.552654 -0.1627088 -0.859599 0.3543493 0.3681388 7304056 female
-0.9061124 0.4183831 -0.1105453 -0.7991985 -0.385267 0.4613579 9672086 female
-0.7150113 0.2686971 -0.2514947 0.1505052 0.1153729 -0.981854 15200255 female
-0.7777238 -0.03673397 -0.1396645 -0.9858996 -0.1663049 -0.01856423 3290426 female
-0.5971066 -0.04045267 -0.1555004 0.9753383 -0.1440463 -0.1672296 2105122 female
-0.6016433 0.6077077 -0.1998061 0.5273671 0.839912 0.1281869 11645363 female
-0.8511053 0.1067792 -0.03268302 0.08269118 0.06950711 0.9941483 2566703 female
-0.7265657 0.7231581 -0.220053 0.8319027 -0.137078 -0.5377244 4866113 female
-0.6252828 0.4515617 -0.1499106 0.9756964 -0.1664933 0.1424662 6973546 female
-0.9437977 -0.3210188 -0.1826114 0.08124962 0.3292595 -0.9407373 2697774 female
-0.956638 0.5303637 -0.237153 -0.1999518 -0.1225271 -0.9721144 9804198 female
-0.8152045 0.7135923 -0.2227281 -0.8357468 0.1824647 -0.517913 10981510 female
-0.9292846 -0.1103106 -0.01976685 -0.2574317 -0.1082658 0.9602122 2171944 female
-0.601091 0.6025068 -0.1824918 0.4282101 0.7804976 0.4554773 11185591 female
-0.7407047 0.5335902 -0.07936893 0.01433037 0.6590528 0.7519601 15660798 female
-0.8784596 -0.04358802 -0.1935016 0.1500642 -0.3000935 -0.9420322 2500651 female
-0.7683788 0.8202004 -0.09701916 -0.6647648 0.4498294 0.5964406 14072240 female
-0.7108028 -0.1900974 -0.08214054 -0.5799088 -0.2516847 0.7748293 2170401 female
-0.8708863 0.4122598 -0.2599524 -0.4613149 -0.3385152 -0.8201195 2698546 female
-0.9352632 -0.01972908 -0.01827998 -0.4455803 0.03645982 0.8944992 2368809 female
-0.6275523 -0.2673609 -0.1155486 0.8503801 -0.1610356 0.5009205 2171174 female
-0.9578148 -0.008984691 -0.1820931 -0.665818 -0.2539234 -0.7015763 2500907 female
-0.7165888 0.4048289 -0.06535203 0.4139153 0.1388152 0.8996691 15200255 female
-0.6487911 0.3313743 -0.1201588 0.8788877 0.1605177 0.4492111 13752800 female
-0.9670067 -0.2894562 -0.1644548 -0.3540759 0.3922519 -0.848981 2303275 female
-0.6924599 -0.1905399 -0.07243255 -0.2923034 -0.2519031 0.9225527 2170660 female
-0.7457443 0.1756314 -0.01610419 0.3195985 -0.1982664 0.9265782 4606287 female
-0.8996163 -0.2613803 -0.1436813 0.4026316 -0.04953171 -0.914021 2631471 female
-0.9754264 -0.699788 -0.166928 -0.1882309 -0.966071 -0.1768502 921102 female
-0.870091 -0.2528719 -0.09369351 0.9268726 -0.295618 0.2313378 2038559 female
-0.9317636 0.1086052 -0.2374529 -0.6928158 0.0177181 -0.7208969 15595005 female
-1.028259 0.1200701 0.01399798 -0.4156273 -0.5630164 -0.7143294 15200255 female
-0.9000304 -0.02076743 -0.2025419 -0.07830622 -0.3415531 -0.9365947 2697516 female
-0.9806982 -0.6634785 -0.1863768 -0.8973361 0.2565237 -0.3591429 15717326 female
-0.5777681 0.1520973 -0.0392632 0.2156892 0.6099562 0.7625166 6841955 female
-0.7493025 -0.06470551 -0.07480707 -0.7400036 -0.2548861 0.622437 1973534 female
-1.022529 0.2725945 -0.06489427 -0.2608353 0.62576 0.7351118 14872823 female
-0.6249616 0.4795552 -0.1796332 0.9655665 -0.1941562 0.1731612 14079966 female
-1.007159 0.3874526 -0.1429779 -0.5876113 0.2593456 0.7664547 14016221 female
-0.9492689 -0.4020132 -0.0893878 0.1116616 -0.2428426 0.9636177 2169889 female
-0.9440856 -0.3171184 -0.1812032 0.07576071 0.3415824 -0.9367934 2697516 female
-0.8992917 0.3871708 -0.2285288 -0.7929605 -0.1334593 -0.5944765 6710377 female
-0.7478446 -0.1643854 -0.1511123 -0.9885362 -0.1247594 -0.08503684 1841436 female
-0.5934437 0.06159598 -0.1300668 0.9813218 0.06117663 0.1823872 1908257 female
-0.7222897 0.8231552 -0.2791506 0.6298143 -0.1302846 -0.7657414 3420972 female
-0.6012294 0.06673585 0.003107785 -0.8946912 -0.26674 -0.3582978 7563617 female
-0.8417334 -0.0490724 -0.1774179 0.5683544 -0.3297308 -0.7538241 2498854 female
-0.8376095 0.09861384 -0.2762878 -0.02024407 -0.1833604 -0.9828373 5263457 female
-0.9611011 -0.1760367 -0.0398737 -0.6697452 -0.07422222 0.7388724 2170657 female
-0.9281619 0.2713005 -0.1899001 -0.8051602 0.4371591 -0.4007606 9607587 female
-0.744561 -0.1984562 -0.1579986 -0.9901922 -0.06020057 -0.1260768 1776155 female
-0.6297892 0.2681025 -0.1598064 0.9636068 0.265879 -0.02775349 14673128 female
-0.7188058 -0.3369663 -0.201436 -0.9286236 0.1578241 -0.3357823 2039329 female
-0.7680374 0.4786718 -0.05021575 0.05019481 0.1326583 0.98989 14013410 female
-0.7944854 0.03733684 -0.1860477 0.2709895 -0.9296479 -0.2496387 1842204 female
-0.9256784 0.6291674 -0.1725503 -0.1804175 0.8989853 0.3990927 12894660 female
-0.6104046 -0.06828623 -0.08625312 0.8837625 -0.1138951 0.453863 1973537 female
-0.6388574 -0.6563764 -0.2211511 0.9226586 -0.01895326 -0.3851518 1842207 female
-0.9816998 -0.5734995 -0.1622201 -0.9917738 -0.1052066 -0.07291331 1579291 female
-0.6528248 0.6037824 -0.1642743 0.2462853 0.6232697 0.7422119 10264740 female
-0.9029697 -0.2578154 -0.1447613 0.3578178 -0.04958228 -0.9324741 2698289 female
-0.9862459 0.2197703 -0.08698411 0.8499837 -0.5037295 -0.1542217 14606823 female
-0.556632 0.4685407 -0.2216476 0.9880791 0.01496818 -0.1532177 7171191 female
-0.9821068 -0.6272526 -0.173896 -0.966908 0.100731 -0.2343974 2105120 female
-0.7450415 -0.1805819 -0.1639812 -0.96353 -0.06694147 -0.2590921 1907741 female
-0.7083651 0.006064148 -0.0362508 -0.1708283 -0.03717032 0.9845994 2171945 female
-0.725228 0.4383701 -0.2923711 0.05893502 -0.2788403 -0.9585274 12237251 female
-0.7604578 0.7493303 -0.09240538 0.3136152 -0.266733 0.9113172 15585228 female
-0.6741499 0.1468034 -0.2701786 0.4713716 0.05047204 -0.8804893 12106953 female
-0.9752194 -0.7053235 -0.1303595 0.06478049 -0.9903515 -0.1225048 723979 female
-0.7706432 0.6481336 -0.1478407 0.04763032 -0.02029367 0.9986588 15132657 female
-0.5854866 0.580889 -0.2317444 0.6779472 0.5084956 -0.530867 15856379 female
-0.8799478 -0.04559543 -0.193197 0.1415716 -0.2953119 -0.9448537 2500652 female
-0.6549602 0.5843768 -0.2864737 0.3985486 0.2582995 -0.8800229 16185343 female
-0.7828557 0.7448698 -0.09686314 -0.4841916 0.00397609 0.874953 15719882 female
-0.8643228 0.004765471 -0.01887784 0.3232554 -0.02294089 0.9460337 2171171 female
-0.6429974 -0.5833118 -0.2283224 0.8262542 -0.1307364 -0.5479161 1841948 female
-0.8912484 0.5233478 -0.08264316 -0.5463795 0.4822164 0.6847895 8684427 female
-0.8754187 -0.2477008 -0.1298438 0.8029803 -0.2184691 -0.5545214 2105124 female
-0.7687411 0.2997771 -0.02513853 0.09138715 0.1552834 0.9836338 7434876 female
-0.6293323 0.1171133 0.02734834 0.05468367 0.9319887 0.3583389 16573145 female
-0.950672 0.5841937 -0.1343847 -0.18053 0.3259213 0.9280002 12303555 female
-0.7300149 0.2916923 -0.03127393 0.3811427 0.1739092 0.908012 11053494 female
-0.6386812 0.5257615 -0.138707 0.724719 -0.07755975 0.6846655 10526630 female
-0.9389326 -0.7064505 -0.05591318 0.9457731 -0.3141501 0.08260166 6706519 female
-0.7116706 0.4491107 -0.2947599 0.1106957 -0.2843721 -0.952302 15725567 female
-0.7669589 0.5398031 -0.0872682 0.05473687 0.6872635 0.7243429 3880764 female
-0.6851183 0.5467772 -0.1029107 0.305317 0.6216179 0.7213687 15724543 female
-0.7580681 -0.0182883 -0.2021876 -0.6719221 -0.2763477 -0.6871337 2302243 female
-0.7792018 0.5063161 -0.2963853 -0.1519463 0.2646522 -0.952298 15396607 female
-0.6412178 -0.5822479 -0.1833061 0.7526411 -0.1230709 0.6468268 2434085 female
-0.725589 0.7018582 -0.1771605 0.8910211 -0.1197628 0.4378792 14993595 female
-0.6391575 -0.5007197 -0.1662246 0.4935872 -0.1985222 0.8467352 2171428 female
-0.7262446 0.2707873 -0.0283129 0.4066769 0.186977 0.8942335 4539471 female
-0.6588004 0.5950838 -0.1547126 0.2566783 0.5677597 0.7821543 10987956 female
-0.7831722 0.01105446 -0.1218568 -0.9938319 -0.05211246 0.09789019 2169889 female
-0.7097749 0.04668258 -0.2664802 0.08503681 -0.4542484 -0.8868072 2368300 female
-0.6027283 -0.009973156 -0.09693767 0.9223798 -0.04096374 0.3841062 1973537 female
-0.5870438 0.2125396 -0.1765697 -0.1770062 -0.6492732 -0.739671 3947321 female
-0.6885808 0.8603155 -0.1940972 0.9817706 0.1722408 0.08037144 2368292 female
-0.5999358 0.448848 -0.2638349 0.1654253 -0.0838268 -0.9826533 6710639 female
-0.9090713 0.3012289 -0.09312943 -0.7934987 0.2503112 0.5547109 14146793 female
-0.9416707 -0.3103925 -0.06314212 0.02730048 -0.4231863 0.9056313 1776669 female
-1.025153 -0.6957733 -0.05103859 -0.4049088 0.8824128 0.2395754 5918281 female
-0.6035908 0.02999889 -0.09468757 0.9026592 0.03018907 0.429296 1973537 female
-0.5843405 0.02728621 -0.02872506 -0.6587088 -0.2890583 -0.6946567 10521224 female
-0.5715676 0.5751271 -0.2095535 0.7995033 0.5791882 -0.1591711 13883363 female
-0.9258747 -0.5901741 -0.1686241 0.9934711 -0.08836353 -0.07216013 1973022 female
-0.6484258 -0.5781226 -0.1766691 0.5006945 -0.08913274 0.8610228 2171172 female
-0.9031762 0.4088706 -0.1110509 -0.8290306 -0.2458987 0.502237 14343396 female
-0.7520047 0.6265349 -0.143853 0.1787142 0.5259749 0.8315117 15528185 female
-0.9686878 -0.6443642 -0.1128314 -0.603146 0.6384446 0.478125 2302243 female
-0.9609369 0.6131614 -0.1920285 -0.6548154 0.7363618 -0.1702588 12303039 female
-0.7566193 0.2694229 -0.252551 -0.08321831 0.1906918 -0.9781162 15201279 female
-0.5962234 0.5755232 -0.1607765 0.330933 0.3450138 0.8783215 8947088 female
-0.9764794 0.3945021 -0.2203519 -0.1175444 -0.2128811 -0.9699819 12897242 female
-0.895986 -0.4383395 -0.1500884 0.982688 -0.1847347 0.01404538 1842720 female
-0.8986523 0.006642073 -0.2141336 -0.1209411 -0.4944834 -0.8607318 2895412 female
-0.7119398 0.5340683 -0.08280545 0.1278436 0.6604654 0.7398928 12765138 female
-0.6426584 -0.6224707 -0.1838424 0.8543931 0.06400661 0.5156701 2829616 female
-0.6821353 -0.1101851 -0.2171037 0.0006298037 -0.06291417 -0.9980187 2106409 female
-1.018161 -0.6943227 -0.05964316 -0.3350817 0.9363989 0.1042947 15518401 female
-0.8708418 0.347951 -0.2431661 -0.5098782 -0.1972068 -0.8373373 10330288 female
-0.9653612 -0.6609638 -0.08845264 -0.1833719 0.8643867 0.4681991 16443357 female
-0.65811 -0.09700051 -0.2142812 0.2959682 -0.0504814 -0.9538629 2171945 female
-0.6310562 -0.322331 -0.1324331 0.6810284 -0.1813924 0.7094344 2040353 female
