# .PCD v0.7 - Point Cloud Data file format
VERSION 0.7
FIELDS x y z normal_x normal_y normal_z rgb label
SIZE 4 4 4 4 4 4 4 4
TYPE F F F F F F U U
COUNT 1 1 1 1 1 1 1 1
WIDTH 170
HEIGHT 1
VIEWPOINT 0 0 0 1 0 0 0
POINTS 170
DATA ascii
-0.8718022 0.1372248 0.8345492 -0.815828 0.09338459 -0.5707049 8618891 female
-0.5515448 0.1567767 0.8374012 0.8160847 0.05994244 -0.5748153 11121347 female
-0.8861021 -0.4685611 0.9145361 -0.3727733 -0.2392218 0.8965561 2171174 female
-0.5533696 0.09770484 1.074193 -0.5918776 -0.7121977 -0.3774324 6313042 female
-0.5430916 -0.5508646 0.8795317 0.8067991 -0.1790193 0.5630518 2171937 female
-0.6407828 -0.1920363 0.9738593 -0.7174109 -0.259579 0.6464831 2170913 female
-0.8039806 0.3711376 0.8052582 -0.5087014 -0.2731591 -0.81646 15199223 female
-0.9227813 -0.719887 0.9565898 -0.09813868 -0.9944437 0.03808833 526344 female
-0.8297591 -0.1677243 1.004879 0.2078669 -0.2211828 0.9528219 2039072 female
-0.9444871 0.2264546 0.9352781 0.2848341 -0.7897581 -0.5432786 10921901 female
-0.9387043 0.4840889 0.8613322 -0.991928 0.1265036 0.008696466 7829376 female
-0.8693337 0.2573428 0.9226584 -0.8985322 0.3908836 0.1996243 13753065 female
-0.8875735 -0.4730189 0.8289684 -0.5073416 -0.05855581 -0.8597533 2170401 female
-0.9185411 0.3770548 0.9119328 0.05856928 0.1138189 0.9917736 8224648 female
-0.4882624 0.505429 0.8342326 0.8722621 0.1249841 -0.4727979 12105667 female
-0.5468392 0.05692272 0.9969351 0.7341604 0.09869326 0.671765 2171430 female
-0.9370724 0.1529168 1.15919 0.01251747 -0.9928274 0.1188992 7363671 female
-0.8631682 0.03365812 1.014353 -0.5404359 0.1165596 0.8332723 2500651 female
-0.7909284 -0.2588406 0.9358681 0.9041729 -0.2997233 0.3043638 2169889 female
-0.5738029 -0.6125326 0.8922905 0.04066712 0.2224603 0.9740933 2499110 female
-0.8832201 0.4003076 0.8973019 0.7069708 -0.08597614 0.7019975 13224148 female
-0.8524149 0.4300838 0.9226792 -0.898406 -0.3433656 0.2738006 10987703 female
-0.9906631 0.2127151 0.9836875 -0.8933602 -0.2996818 -0.334811 13028569 female
-0.585168 0.3484569 0.9504973 0.8133333 0.1612137 0.559016 3420469 female
-0.8490304 0.37868 0.8723617 -0.9854939 -0.06128202 -0.1582602 15001836 female
-0.5204482 0.3955805 0.903615 -0.03318049 0.06007415 0.9976423 15725047 female
-0.6374119 0.2708814 1.020841 0.5166582 0.1998021 0.8325524 6184287 female
-0.5972557 0.2278787 0.8118722 0.4277304 0.3259531 -0.8430903 6514804 female
-0.6239887 0.8739859 0.8028696 0.8724024 0.3995741 -0.2815219 2631463 female
-0.7125064 0.4066426 1.007738 -0.0008675837 0.3600664 0.9329262 6184292 female
-0.4911579 0.2513058 0.8716731 0.3441053 -0.5346643 -0.7718326 11909053 female
-0.5235065 -0.4365953 0.8562871 0.9823531 -0.07628544 -0.1707715 1579553 female
-0.8452857 -0.04036288 0.8464257 -0.2322478 -0.2048986 -0.9508299 2105896 female
-0.7945858 -0.203636 0.8866248 0.6856331 -0.07341105 -0.7242362 2171944 female
-0.5416372 -0.6720759 0.8658109 0.9818248 0.152666 -0.1127533 13087919 female
-0.7117019 0.8220121 0.7425038 -0.1844569 -0.1713324 -0.9677917 14338761 female
-0.6410436 0.7597764 0.8529836 0.9116956 -0.4050186 -0.06907268 14731193 female
-0.8021965 0.6502411 0.7927296 -0.3877595 0.6568289 -0.646698 13293286 female
-0.8506762 0.1489765 0.9881746 -0.5424824 0.2401444 0.8050115 14015981 female
-0.6767118 0.566704 0.7595456 -0.1559967 0.1280579 -0.9794214 12830678 female
-0.5893132 -0.152268 1.003854 0.1645093 -0.2518569 0.9536796 1842723 female
-0.7146514 0.3515975 1.025696 -0.02532102 0.2450421 0.9691818 12633296 female
-0.7266928 0.0733781 0.7873415 0.1489252 -0.4293808 -0.89076 2435119 female
-0.6822931 0.1981702 1.046924 0.2151678 -0.13887 0.966653 4734801 female
-0.9245854 0.5727037 0.8495002 -0.8214777 0.5268281 -0.2182352 4934995 female
-0.846636 0.4095844 0.9180105 -0.9299651 -0.2050244 0.3051717 13620448 female
-0.6253222 0.2699847 0.8151602 0.311693 0.1606467 -0.9365042 13752817 female
-0.6880187 -0.08019619 0.9228925 -0.9654102 -0.2545077 -0.05664841 2237218 female
-0.5223221 -0.05466975 0.937847 0.9871242 -0.1198344 0.1059504 1908509 female
-0.5588234 0.6097289 0.8870295 0.07926949 0.7907823 0.606943 12303555 female
-0.7907988 0.1369152 1.01404 -0.3452326 -0.1019829 0.9329598 15133438 female
-0.6411906 0.7550614 0.8322372 0.9010869 -0.3773055 -0.2137357 3551790 female
-0.5553126 0.457936 0.8933188 0.9785542 -0.129695 0.1600341 13816538 female
-0.8715824 -0.3446221 0.8324825 -0.1143879 0.2670957 -0.956857 2434089 female
-0.9178141 0.5449349 0.8195394 -0.6414681 0.231766 -0.7313024 9078681 female
-0.7426178 0.7132338 0.8184538 -0.7909831 0.1511233 -0.5928808 10981510 female
-0.8616544 -0.1166428 1.010426 -0.3649694 -0.1539808 0.9181979 2171944 female
-0.593648 0.6000671 0.903686 0.1860331 0.6131707 0.7677326 10658478 female
-0.6802819 0.5395645 0.9754587 -0.05072669 0.6878745 0.7240549 15660798 female
-0.821161 0.01494952 0.8227929 -0.1365241 -0.4913462 -0.8601977 3157808 female
-0.720182 0.8137064 0.9325044 -0.3983532 0.4663896 0.7898072 14534847 female
-0.5318716 -0.1959506 0.9176129 0.9980358 -0.01160799 -0.06156197 2170921 female
-0.7936656 0.4106563 0.7889754 -0.3818424 -0.3679552 -0.8478239 2698546 female
-0.8523492 -0.03486077 1.022365 -0.2925369 -0.0548912 0.9546775 2500142 female
-0.5689145 -0.2660516 0.9737379 0.4366643 -0.3077609 0.8453445 2170402 female
-0.8736395 -0.00937487 0.8511418 -0.575056 -0.2402489 -0.7820428 2500907 female
-0.6436763 0.4048775 0.992278 0.4569949 0.2014693 0.8663521 15724543 female
-0.5881283 0.3296441 0.9606112 0.7672759 0.2071295 0.6069474 6183780 female
-0.9047886 -0.3736199 0.9251505 -0.7460482 -0.1122264 0.6563668 2565671 female
-0.5672203 -0.197066 0.9864546 0.4907347 -0.1956097 0.8490679 2170403 female
-0.7014088 0.1263741 1.035336 0.131771 -0.3237936 0.9369067 15199223 female
-0.8268192 -0.2217382 0.875858 0.2445349 -0.03822223 -0.9688869 2565419 female
-0.8987954 -0.6898492 0.8414078 -0.8928452 -0.1613842 -0.4204553 8613485 female
-0.7931186 -0.2155133 0.9616319 0.81634 -0.2606664 0.5154048 1841436 female
-0.8611781 0.08494459 0.816649 -0.6884325 -0.03097389 -0.7246388 2434093 female
-0.9978181 0.169223 1.071265 -0.9104572 0.2590819 0.3224038 7699066 female
-0.8218104 0.002882313 0.8293111 -0.08642472 -0.4169909 -0.9047924 2566447 female
-0.9000842 -0.6706489 0.8526267 -0.9146558 0.2194696 -0.339467 14862529 female
-0.5221452 0.1704105 0.9987916 -0.8598775 0.3182198 0.3991828 12632780 female
-0.6619344 -0.07251572 0.9984345 -0.6478608 -0.2600668 0.7159899 2105635 female
-0.9660347 0.2715501 0.9860973 -0.1065775 0.6488149 0.7534457 10396585 female
-0.5539765 0.4776031 0.868323 0.930488 -0.2905193 0.2231383 13026505 female
-0.9536533 0.3978188 0.8847812 -0.8970031 0.3186554 0.30634 12042183 female
-0.8969365 -0.3723857 0.934892 -0.5608268 -0.147731 0.8146465 2631464 female
-0.8749388 -0.344815 0.832315 -0.1709537 0.2640165 -0.9492471 2302505 female
-0.825893 0.4014689 0.8184857 -0.7476441 -0.2885356 -0.5981434 5460312 female
-0.6754465 -0.1030055 0.8950574 -0.8993199 -0.2241093 -0.3754978 2170913 female
-0.5189196 0.03424896 0.9535144 0.949643 0.009077799 0.3132024 1974307 female
-0.6443698 0.8182524 0.7624778 0.6872222 -0.1837567 -0.7028223 3420972 female
-0.5430652 0.02913392 1.120608 -0.8217137 -0.2310476 -0.5209642 7299418 female
-0.7579105 -0.04718967 0.8676823 0.6583694 -0.28816 -0.6953514 2498854 female
-0.7478731 0.1009337 0.7748981 0.08584505 -0.1699429 -0.9817077 5263457 female
-0.8714278 -0.1549966 1.000524 -0.4618431 -0.1596387 0.8724772 2172969 female
-0.814183 0.2853451 0.8238312 -0.5190092 0.1343389 -0.8441461 5524558 female
-0.6686085 -0.1437898 0.8995695 -0.9379969 -0.1564302 -0.3093402 2105120 female
-0.5559216 0.2668927 0.9190525 0.9279035 0.3498595 0.1288158 8027774 female
-0.6117802 -0.2465091 0.8639805 -0.2155703 -0.0008455947 -0.9764879 2565677 female
-0.7225236 0.5062442 0.9976267 0.07994132 0.4147106 0.906435 15461623 female
-0.7221329 0.01601446 0.9013957 0.9490587 -0.2836747 -0.1371725 1645342 female
-0.8623682 0.6283329 0.8673122 -0.2060173 0.9180797 0.3386541 11117481 female
-0.5379061 -0.09105492 0.9759955 0.8763836 -0.1270175 0.4645624 1841953 female
-0.5443581 -0.6500245 0.8434073 0.9642586 -0.008735565 -0.264819 1842207 female
-0.8523861 -0.4111143 0.928086 0.2275865 -0.2457641 0.9422337 2170913 female
-0.5250033 0.6031752 0.8764862 0.5013539 0.7961183 0.3388805 9343126 female
-0.8264313 -0.2277686 0.8765772 0.2627231 -0.04142123 -0.9639818 2500140 female
-0.9267951 0.2433572 0.9267471 0.7052271 -0.644212 -0.2960501 13816027 female
-0.4901944 0.4846183 0.8825884 0.8373445 0.02687463 0.5460145 8817806 female
-0.8955 -0.6355295 0.8640858 -0.9890445 0.1461699 0.02062591 1710882 female
-0.6659565 -0.1220578 0.8836578 -0.831854 -0.1787281 -0.5254285 2038816 female
-0.5750336 -0.04317952 1.019765 0.4139481 -0.09890583 0.9049115 2039589 female
-0.6260562 0.4380116 0.7727165 0.2553395 -0.3412077 -0.9046431 8817042 female
-0.6739551 0.7281311 0.9233818 0.593076 -0.6796089 0.431732 15586756 female
-0.5873945 0.1531103 0.7979525 0.5566444 0.07330815 -0.8275101 12106953 female
-0.9264764 -0.7007389 0.8953371 -0.870442 -0.03112651 -0.4912858 9535609 female
-0.6431137 0.6644888 0.8564531 0.7791116 0.4954879 0.3840273 12363155 female
-0.5210018 0.5628776 0.8106655 0.6533442 0.24021 -0.7179418 6973303 female
-0.7941493 -0.04384783 0.8477505 0.2559547 -0.2543299 -0.9326326 2500652 female
-0.5610502 0.5423957 0.7814862 0.4669035 -0.1395275 -0.8732315 12370386 female
-0.7466944 0.7728993 0.9265921 -0.7482597 -0.08198083 0.658321 16244686 female
-0.8000859 -0.0005714919 1.024026 0.2111565 -0.05800808 0.9757295 2171171 female
-0.553659 -0.5253295 0.8215995 0.543594 -0.1003358 -0.8333296 2697264 female
-0.8303836 0.5191886 0.9693258 -0.6169866 0.5116274 0.5979673 14935794 female
-0.7927393 -0.2359103 0.8956202 0.7955713 -0.1253605 -0.5927488 2236967 female
-0.7097619 0.3031041 1.033216 -0.006146778 0.1617635 0.9868104 7434876 female
-0.5502488 0.1167845 1.072325 -0.4273632 0.8788702 0.2120088 16770008 female
-0.8612469 0.4968566 0.8875851 0.7390344 -0.29155 0.6073111 9277338 female
-0.6670438 0.2540011 1.039085 0.3081039 0.1766699 0.9348046 5130576 female
-0.5673084 0.5166166 0.9192914 0.8208829 -0.191953 0.5378712 8421770 female
-0.8652464 -0.710137 0.970436 0.9257844 -0.3176152 0.205046 6180688 female
-0.6483083 0.471941 0.7573009 0.08720092 -0.2470746 -0.9650649 15199231 female
-0.7364303 0.5404404 0.9763407 0.09109342 0.6835875 0.7241617 15396344 female
-0.6258611 0.5450333 0.9642635 0.2264968 0.6695435 0.7073971 12171461 female
-0.6863333 -0.01658143 0.8684574 -0.740222 -0.2114421 -0.6382505 2237224 female
-0.6696339 0.486468 0.7534307 -0.01787673 -0.1443849 -0.9893601 15921919 female
-0.571384 -0.3082916 0.83592 0.08226728 0.365741 -0.9270737 2237738 female
-0.6569124 0.7041901 0.8715458 0.8524112 -0.09322624 0.514494 14993595 female
-0.5733121 -0.4258225 0.9189901 -0.1035738 -0.2321576 0.967148 2171431 female
-0.653693 0.2785806 1.028117 0.4244597 0.2029514 0.8824085 14342371 female
-0.5360152 0.5988393 0.8933077 0.2817847 0.6681319 0.6886197 9869474 female
-0.7009264 -0.01109249 0.9681813 -0.947857 -0.1619682 0.2744695 2434085 female
-0.6527259 0.0714686 0.7854567 0.0145983 -0.3208162 -0.9470289 2303019 female
-0.5147616 0.01066757 0.9288258 0.9956623 -0.0633035 0.06818599 1776161 female
-0.5396675 0.2639733 0.899681 -0.9877438 -0.03475066 0.1521666 15066613 female
-0.6206761 0.8735147 0.8505256 0.9323214 0.3338033 0.1391121 2895145 female
-0.5322112 0.4868603 0.8016146 0.1126131 -0.09751754 -0.9888421 7763070 female
-0.8468994 0.2885709 0.9505448 -0.8597553 0.2641645 0.4370789 7960958 female
-0.8752341 -0.322468 0.952325 -0.2907982 -0.2706839 0.9176964 2301987 female
-0.9403658 -0.6999528 0.9772187 -0.2893859 0.9506855 0.1115925 14271422 female
-0.5325607 0.05821506 0.9773291 0.8507041 0.07875921 0.5197109 1776675 female
-0.4964377 0.007646483 1.043114 0.9387519 -0.1841483 -0.2912632 16572888 female
-0.503862 0.5718853 0.8394967 0.7342953 0.4871582 -0.4727443 13094110 female
-0.837777 -0.5882213 0.8530833 0.9910819 -0.1295735 -0.03110351 1907745 female
-0.5754673 -0.5072533 0.8986843 -0.1603888 -0.1923925 0.9681221 2301987 female
-0.8448496 0.3905191 0.9189343 -0.9503002 0.002383786 0.311326 12369863 female
-0.6710054 0.6324117 0.9005623 0.2636466 0.6267363 0.7332749 15396082 female
-0.8761651 -0.6688804 0.9421775 0.2266731 0.8152692 0.5328748 15848392 female
-0.889973 0.6148078 0.842189 -0.6311166 0.7321124 -0.2563263 12303039 female
-0.6752537 0.2726088 0.8082309 0.006272864 0.1906498 -0.981638 15201279 female
-0.5056002 0.5720778 0.8890476 0.6393269 0.4605811 0.6157323 13028813 female
-0.9210937 0.4083158 0.8258492 -0.4095612 -0.1256858 -0.9035832 5589847 female
-0.8104292 -0.444303 0.8720578 0.9843821 -0.1729889 -0.03266237 2040358 female
-0.844785 0.03691956 0.8197739 -0.4322141 -0.3796464 -0.8179607 2631465 female
-0.6513227 0.5401036 0.9744198 0.0632589 0.6895116 0.7215068 12765138 female
-0.5444049 -0.587225 0.8648202 0.9735374 -0.126221 0.1905074 1578523 female
-0.5874303 -0.08945296 0.8502421 0.216973 -0.05222989 -0.9747794 2106409 female
-0.9365178 -0.6967348 0.9579254 -0.2629462 0.9530631 0.1501004 15781830 female
-0.785082 0.3337128 0.8051382 -0.3148779 -0.1909865 -0.9297183 15398143 female
-0.8909031 -0.6319162 0.8836506 -0.9220709 0.2222144 0.316869 2302502 female
-0.5754455 -0.1254155 0.8545184 0.3399516 -0.05678973 -0.9387267 2171688 female
-0.558203 -0.3217981 0.9407629 0.4398355 -0.2403198 0.8653271 1908773 female
