# .PCD v0.7 - Point Cloud Data file format
VERSION 0.7
FIELDS x y z normal_x normal_y normal_z rgb label
SIZE 4 4 4 4 4 4 4 4
TYPE F F F F F F U U
COUNT 1 1 1 1 1 1 1 1
WIDTH 170
HEIGHT 1
VIEWPOINT 0 0 0 1 0 0 0
POINTS 170
DATA ascii
-0.9310781 0.05872325 0.1090869 -0.5466366 -0.1843552 -0.8168241 2697257 female
-0.6261081 0.1493438 0.1531648 0.8811148 0.02186603 -0.4723967 12040900 female
-0.9040353 -0.4587671 0.2457427 0.1999635 -0.2294125 0.9525673 2105377 female
-0.6524622 0.1535059 0.4391104 -0.6756827 -0.7059477 -0.2123458 6904923 female
-0.6354238 -0.4045717 0.1881212 0.9750216 -0.1903201 -0.1145039 1776155 female
-0.7189352 -0.1822498 0.3564612 -0.6547368 -0.1448302 0.7418517 2170401 female
-0.9526309 0.2489991 0.2133856 -0.9028537 0.4051092 0.1440201 14082031 female
-0.9111474 -0.7227835 0.2547564 0.08329933 -0.9937916 -0.07375262 789260 female
-0.9331865 -0.1250442 0.3260393 -0.423921 -0.1272138 0.8967205 2171944 female
-0.9368328 0.2493032 0.4561229 0.6309533 -0.7560377 -0.1740833 6645870 female
-1.00299 0.516708 0.2399015 -0.7352161 0.2040641 0.6463862 6974066 female
-0.9400093 0.2499347 0.1506221 -0.7784165 0.4293695 -0.4579406 10263458 female
-0.91855 -0.5244112 0.1510174 -0.381902 -0.09213372 -0.9195989 2170913 female
-0.9440402 0.4218298 0.2535389 0.7903646 0.01020208 0.6125517 9541533 female
-0.5880309 0.4755799 0.1462383 0.6050875 -0.01672799 -0.7959832 14277354 female
-0.6297853 0.06080325 0.3105853 0.7493832 0.2182693 0.6251268 2171430 female
-0.9326519 0.4451937 0.1924003 0.9388229 -0.2949672 -0.1777805 15528183 female
-0.8182403 0.03284845 0.2999146 0.7894966 0.1811456 0.586414 1908000 female
-0.8431023 -0.2386331 0.2579564 0.9592797 -0.1241298 0.253721 1775899 female
-0.7072282 -0.5323122 0.1513019 -0.3364068 -0.3042107 0.8912274 2631471 female
-0.9377187 0.4394927 0.2433059 0.8653876 -0.06988467 0.496206 7566715 female
-0.9213077 0.4035185 0.1503661 -0.8760563 -0.2727145 -0.3976834 11054259 female
-1.007448 0.2999337 0.3569058 -0.9426337 0.05492776 0.3292789 11186875 female
-0.7072347 0.3503886 0.2935067 0.6371783 0.06616934 0.7678707 12699350 female
-0.9173865 0.3538136 0.1488152 -0.8677261 -0.1211088 -0.4820623 10724783 female
-0.6286093 0.3633426 0.2280333 -0.6737741 0.007285568 0.7389015 7236726 female
-0.709501 0.2788386 0.3042304 0.5956317 0.1815932 0.782462 11514301 female
-0.6773238 0.2460415 0.1234032 0.5239729 0.3116245 -0.7926806 13619425 female
-0.7224001 0.8766317 0.1701144 0.8234779 0.4994261 -0.2691796 2631463 female
-0.7637811 0.4853655 0.3177617 -0.09701993 0.3867831 0.9170529 10330536 female
-0.5725195 0.2636813 0.2161909 0.5830867 -0.6507268 -0.486379 14607335 female
-0.6430025 -0.4041964 0.1651163 0.89508 -0.005410234 -0.4458728 1842205 female
-0.8898901 -0.08873092 0.1602736 0.08050687 -0.1888552 -0.9786993 2237482 female
-0.9115133 -0.2105116 0.1915038 -0.03127717 -0.09339978 -0.9951373 2895153 female
-0.6868472 -0.5904577 0.0684154 0.8857907 0.1751953 -0.4297458 12626605 female
-0.8243707 0.859827 0.1201471 -0.5105751 0.3176899 -0.7989907 9473672 female
-0.7317571 0.733206 0.2491268 0.8921809 -0.4336814 0.1262286 15720398 female
-0.9008171 0.6313179 0.205813 -0.1255628 0.7987725 0.5883846 16709631 female
-0.9742157 0.1654505 0.1859468 -0.9818923 0.1092896 -0.1547357 14015974 female
-0.7546862 0.5560496 0.08445571 -0.2121512 0.2267792 -0.9505593 13554663 female
-0.6715465 -0.1402033 0.3669777 0.1822262 -0.0557122 0.981677 1842723 female
-0.6568665 0.3747087 0.2343681 0.8962851 -0.01967698 0.4430417 14606311 female
-0.9126598 0.1832229 0.09866963 -0.4769394 0.1723748 -0.8618676 4932171 female
-0.7974135 0.1262093 0.3379373 0.02871018 -0.2689066 0.9627382 15199224 female
-1.000031 0.5610569 0.2276542 -0.7402421 0.5021921 0.4470398 5724258 female
-0.9318556 0.4046325 0.1860321 -0.9496083 -0.2994423 -0.09261917 15725817 female
-0.6962329 0.2844704 0.1175703 0.430991 -0.04106256 -0.9014214 15199231 female
-0.7881736 -0.01685433 0.2527709 -0.9907157 -0.1350982 -0.01519657 1908513 female
-0.6098965 -0.07798839 0.2521906 0.9665716 -0.1741523 -0.1881767 2170403 female
-0.6075743 0.5829927 0.2274669 0.3916174 0.5668706 0.7247714 14605278 female
-0.9637102 0.1630939 0.2529597 -0.8470489 0.2025305 0.4914159 12633296 female
-0.7407355 0.7199749 0.1757386 0.8431368 -0.05555585 -0.5348214 4866113 female
-0.6532911 0.4619974 0.112316 0.7199836 -0.2669225 -0.640606 13619423 female
-0.9615127 -0.4360699 0.1964466 -0.9853026 -0.1534194 -0.07510803 1776155 female
-1.012411 0.5221993 0.2012192 -0.966944 0.2351915 -0.09851007 14935793 female
-0.8296168 0.705494 0.1716634 -0.8411315 0.1924504 -0.5054312 11573647 female
-0.9016493 -0.1217528 0.3315056 0.05860515 -0.1193946 0.9911157 2105895 female
-0.6447531 0.5053604 0.2116089 0.6541946 -0.59243 0.470166 4671311 female
-0.8517124 0.4777584 0.3284616 0.03822712 0.3887795 0.9205375 15593981 female
-0.903199 0.0008969903 0.1298734 -0.1335612 -0.5402671 -0.8308266 3157808 female
-0.8130834 0.7933483 0.2926631 -0.1937259 0.2746805 0.9418179 14864581 female
-0.6149702 -0.2044369 0.3095002 0.9983519 -0.02261 0.05274811 1777185 female
-0.8566832 0.4208076 0.09109522 -0.2499129 -0.2387475 -0.9383727 14935027 female
-0.9088092 -0.02388882 0.3367688 -0.08986436 0.005624749 0.9959381 2434342 female
-0.6730922 -0.281819 0.3590561 -0.09943811 -0.622835 0.7760081 1776163 female
-0.9212239 -0.1054266 0.1677979 -0.2670601 -0.159877 -0.9503253 2368812 female
-0.6462801 0.4094077 0.1533154 0.8862132 -0.3340832 -0.3209589 14475492 female
-0.6512834 0.3112725 0.227795 0.9419741 0.1459178 0.3023124 12698570 female
-0.9585002 -0.4004108 0.2411719 -0.8478758 -0.170084 0.5021733 2170145 female
-0.6749144 -0.1655837 0.368517 0.1047064 -0.08480205 0.990881 2171174 female
-0.8119614 0.1162398 0.3351666 -0.1172058 -0.3257594 0.9381597 7302778 female
-0.8766242 -0.294507 0.2031936 0.5728421 0.1787502 -0.7999377 2368809 female
-0.8983125 -0.715404 0.2120748 0.1490455 -0.9885989 0.02139037 1051919 female
-0.8429828 -0.2420391 0.25446 0.9762713 -0.1250356 0.1768062 1776155 female
-0.8957462 0.02912515 0.1057297 -0.2216006 -0.5971222 -0.7709334 2368292 female
-0.9257956 0.2417492 0.4845267 0.642064 -0.56026 -0.5233188 8817032 female
-0.9027844 -0.01133604 0.1371371 -0.08854202 -0.467091 -0.8797649 2566447 female
-0.9281006 -0.6755807 0.2131759 -0.8892708 0.4570474 -0.01747053 13021359 female
-0.6181915 0.222517 0.3837928 -0.08099452 0.8477306 0.5242069 5857385 female
-0.7612999 -0.0530041 0.322994 -0.7936377 -0.1322855 0.5938348 1973534 female
-0.991197 0.2933677 0.39876 -0.8902116 0.2190201 0.3994413 11385033 female
-0.6652438 0.5229815 0.09366965 0.5646772 -0.1022134 -0.8189579 15000814 female
-0.9866621 0.3830459 0.2771422 -0.06538495 0.2951628 0.9532071 15199215 female
-0.9684177 -0.3450992 0.2205928 -0.998086 0.04006272 0.04711024 2106145 female
-0.8764845 -0.3113976 0.1958254 0.6627164 0.3162006 -0.6788402 2368292 female
-0.9290498 0.2970345 0.1624133 -0.913204 0.1552887 -0.3767545 14804207 female
-0.7703649 -0.08243839 0.2441884 -0.9243029 -0.301021 -0.2346283 1842723 female
-0.6042554 0.1044119 0.2170613 0.9873304 0.1568863 -0.02377968 15068661 female
-0.7409585 0.8248959 0.1235749 0.6555014 -0.03236577 -0.7545 3420972 female
-0.6580123 0.1287537 0.5208399 0.6331926 -0.773065 0.03791604 11506829 female
-0.8343178 -0.05558029 0.1764974 0.6569989 -0.2833518 -0.6986159 2498854 female
-0.7989019 0.0917865 0.08136924 0.09193499 -0.2306088 -0.9686937 12437470 female
-0.9690632 -0.2480927 0.2555868 -0.9850298 -0.09059396 0.1466599 2170913 female
-0.9588116 0.2316573 0.1747894 -0.8986475 0.3839656 -0.2121392 8290438 female
-0.7598588 -0.1240187 0.262426 -0.952454 -0.2510119 -0.1726975 1579291 female
-0.6380076 0.2554338 0.1916938 0.9280236 0.3483297 -0.1320557 7368824 female
-0.6063848 0.008300723 0.202525 0.9089733 -0.1783604 -0.3767694 2170406 female
-0.8373376 0.4135727 0.3141689 0.00685368 -0.4320598 0.9018189 14674422 female
-0.7979071 0.02468444 0.1939701 0.8683828 -0.4674937 -0.1654116 2170913 female
-0.9605406 0.6131551 0.1991557 -0.5142325 0.8522491 0.0961062 10988205 female
-0.6201491 -0.02232636 0.3191509 0.8452862 0.06336845 0.5305429 1908256 female
-0.6512744 -0.6437386 0.1370754 0.7204414 0.638678 0.2702862 11572623 female
-0.9292676 -0.5717031 0.2044712 -0.8999884 -0.2459557 0.3598982 2631464 female
-0.6302938 0.5612774 0.2419004 0.02928156 0.2152045 0.9761299 9342867 female
-0.8740451 -0.2980693 0.2051959 0.6431554 0.1681057 -0.7470554 2303015 female
-0.9626109 0.2552478 0.3595669 0.1883758 -0.9673178 -0.1697377 12763074 female
-0.5678706 0.4809467 0.2037243 0.9519269 0.03353394 0.3044842 8553868 female
-0.9052476 -0.6708232 0.2584457 -0.2006613 0.8843613 0.4214738 16377307 female
-0.760215 -0.1051563 0.2379518 -0.8669545 -0.3131198 -0.3877446 1777187 female
-0.7254617 0.02579815 0.3470167 -0.270188 0.1778442 0.9462398 2171945 female
-0.7053545 0.4337842 0.08705809 0.2674015 -0.2385537 -0.9335891 15263992 female
-0.7807538 0.6985589 0.270313 0.1687194 -0.9327393 0.3186396 14208189 female
-0.6912094 0.1738657 0.09378195 0.355367 0.201197 -0.9128165 14608383 female
-0.9406298 -0.7234895 0.2405521 -0.1766417 -0.9647775 -0.1949414 1315604 female
-0.8850626 0.5811192 0.2516801 -0.1220785 0.5077897 0.8527874 8551812 female
-0.6150803 0.5141155 0.1298605 0.2940782 -0.274749 -0.9154404 2959413 female
-0.9035444 -0.0003116205 0.1309771 -0.1287295 -0.5261563 -0.840588 3026223 female
-0.6153752 0.5401702 0.1254795 0.5361251 -0.02539123 -0.8437566 11117745 female
-0.8288552 0.7899174 0.2886729 -0.4793157 0.2130511 0.8513905 15981513 female
-0.9269364 -0.005900769 0.3324626 -0.3327452 0.05248205 0.9415552 2500137 female
-0.7138051 -0.5292972 0.07253608 0.2022776 0.456144 -0.8666121 2828851 female
-0.8145131 0.5144745 0.3040325 0.1075043 0.5814784 0.8064278 15725567 female
-0.8714368 -0.2780491 0.2097312 0.5363991 -0.01367046 -0.8438537 2434597 female
-0.76961 0.2825389 0.3307925 0.1276013 0.1207898 0.9844428 6316394 female
-0.6323264 0.1161863 0.4835585 0.7935346 -0.1198789 0.5966002 10981766 female
-0.9321473 0.5133335 0.2134 0.6479254 -0.6704695 0.3614739 6711406 female
-0.7487338 0.2589984 0.3307283 0.3081956 0.1623003 0.9373761 4737107 female
-0.6465131 0.4540603 0.2727659 0.940527 -0.06142534 0.3341197 9079441 female
-0.9005322 -0.7017974 0.3360182 0.351949 0.8525622 0.3863541 14266791 female
-0.6938068 0.4361425 0.09038001 0.3486186 -0.2636456 -0.8994198 14671855 female
-0.7363335 0.5497386 0.2746147 0.07795899 0.5808744 0.8102514 14870515 female
-0.7240086 0.4304787 0.3281419 -0.03621733 -0.4186506 0.907425 12238537 female
-0.7842945 0.02099306 0.1766641 -0.7551976 -0.5895523 -0.2865392 2170913 female
-0.7848594 0.4667381 0.07627555 -0.05081064 -0.09876242 -0.993813 11248813 female
-0.6643546 -0.4846766 0.1672485 0.7701319 -0.4990949 0.3972419 1973534 female
-0.7393661 0.7073222 0.2175013 0.9144799 -0.2051723 0.3487561 14073005 female
-0.6801401 -0.4323145 0.2250656 0.01065115 -0.6217765 0.7831223 2105379 female
-0.7170797 0.2715479 0.3118576 0.548331 0.1757602 0.8175827 12698830 female
-0.6542363 0.524845 0.2429563 0.5116927 -0.1655554 0.843067 13816281 female
-0.7845483 0.03255342 0.2953291 -0.9079342 0.1749583 0.3808478 2171937 female
-0.6944267 0.02762264 0.1118864 0.24841 -0.5402789 -0.8039845 2171945 female
-0.6158683 -0.1810888 0.3063275 0.9962425 -0.03745306 0.07809067 1974305 female
-0.6136771 0.2144386 0.2793478 -0.232326 -0.8267762 -0.5123142 8289923 female
-0.7156101 0.8710948 0.1961421 0.909878 0.4138703 -0.02886905 2039327 female
-0.6242121 0.4298556 0.1412241 -0.1558187 -0.2281771 -0.9610701 12106177 female
-0.8989643 0.3385794 0.2698267 -0.7528263 0.07445364 0.6539948 14015214 female
-0.8883909 -0.3011114 0.2910605 0.5482441 -0.4183957 0.7241364 1974566 female
-0.9249359 -0.6582382 0.1850489 -0.9884264 0.1424708 -0.05210762 1776675 female
-0.6143309 0.002834747 0.3027857 0.8857891 0.07530602 0.4579375 1973537 female
-0.6407342 0.0606308 0.4887352 -0.6408134 0.4594372 0.6150411 15386816 female
-0.6046006 0.5784879 0.2286095 0.4123506 0.5170641 0.7500744 11053230 female
-0.8813453 -0.5893622 0.149268 0.4897755 0.05629964 -0.8700289 2367780 female
-0.6683307 -0.3673258 0.2778896 0.08454338 -0.6016582 0.7942669 2170403 female
-0.9367388 0.4283645 0.2368041 -0.9341268 -0.305828 0.1840555 15199222 female
-0.8701397 0.5641021 0.2661034 -0.1461468 0.5414433 0.8279374 4604745 female
-0.8823386 -0.6771294 0.2595044 0.6895318 0.5692409 0.4477842 11704980 female
-0.9562075 0.5782597 0.1377445 -0.7145555 0.2429127 -0.6560517 13422041 female
-0.7569708 0.2634874 0.1055666 0.01497356 0.2119341 -0.9771692 15201279 female
-0.6364058 0.5272182 0.2350128 -0.1788882 -0.2376235 0.9547429 13357273 female
-0.9539031 0.3443822 0.2181534 0.7777958 -0.4036511 -0.4817671 9869470 female
-0.87192 -0.1847195 0.3144749 0.5792606 -0.1583358 0.7996168 2170913 female
-0.9282418 0.02261118 0.1256307 -0.4291407 -0.4379005 -0.7899882 2631465 female
-0.7992189 0.5058638 0.3075241 0.08596301 0.5288762 0.8443342 8882579 female
-0.6779563 -0.544829 0.1050043 0.9814366 -0.03856003 -0.1878707 1776155 female
-0.6439995 -0.04466011 0.1842859 0.5053198 -0.3949468 -0.7672476 2631465 female
-0.9321206 -0.6953305 0.283804 -0.386228 0.9076201 0.1644806 16438992 female
-0.8440012 0.3072079 0.1039811 -0.04517819 -0.1402467 -0.9890853 13622512 female
-0.9001765 -0.6422905 0.2292298 -0.3591325 0.5214387 0.7740321 2368037 female
-0.6149762 -0.02645645 0.2051604 0.8280418 -0.2799896 -0.4857496 2171688 female
-0.6413901 -0.338771 0.2927493 0.5979024 -0.4756282 0.6452059 2171945 female
