# .PCD v0.7 - Point Cloud Data file format
VERSION 0.7
FIELDS x y z normal_x normal_y normal_z rgb label
SIZE 4 4 4 4 4 4 4 4
TYPE F F F F F F U U
COUNT 1 1 1 1 1 1 1 1
WIDTH 170
HEIGHT 1
VIEWPOINT 0 0 0 1 0 0 0
POINTS 170
DATA ascii
-0.8717517 0.137568 0.834673 -0.8179797 0.09361783 -0.5675782 8618891 female
-0.5514771 0.1568898 0.8362559 0.8138835 0.05895147 -0.5780297 11121347 female
-0.8865594 -0.4680247 0.9147604 -0.3700658 -0.2400782 0.8974484 2171174 female
-0.5526881 0.09949535 1.07539 -0.5927937 -0.714554 -0.3714946 6313042 female
-0.543571 -0.5506628 0.8784695 0.8088755 -0.1804816 0.5595953 2171937 female
-0.6404817 -0.191763 0.9734186 -0.7151808 -0.2584558 0.6493976 2170913 female
-0.8039065 0.3713622 0.8049952 -0.5120354 -0.2736803 -0.8141983 15199223 female
-0.9234928 -0.7193275 0.9565424 -0.09987587 -0.9943085 0.03708501 526344 female
-0.8294406 -0.1672648 1.00514 0.2112934 -0.2208018 0.9521563 2039072 female
-0.943924 0.2271303 0.9374582 0.2825399 -0.7932525 -0.5393716 10921901 female
-0.9383981 0.4842966 0.8619639 -0.9918596 0.1266474 0.0132271 7829376 female
-0.8664631 0.255975 0.9322087 -0.8825945 0.3734995 0.2855259 14476786 female
-0.8883294 -0.4723448 0.8291882 -0.5103563 -0.05644722 -0.8581085 2170401 female
-0.9179749 0.3775535 0.9130735 0.06372194 0.1195501 0.9907811 8224648 female
-0.4920745 0.5051318 0.8252888 0.7746285 0.1020654 -0.6241261 11251386 female
-0.5374212 -0.01097424 0.9892014 0.8211851 -0.02356038 0.5701753 1973536 female
-0.9357164 0.1549293 1.161801 0.01237505 -0.9921376 0.1245389 7363671 female
-0.8625276 0.03418465 1.014536 -0.5369893 0.1180541 0.8352878 2500651 female
-0.7910044 -0.2584799 0.9360742 0.9048489 -0.3011095 0.3009678 2169889 female
-0.5743145 -0.612288 0.8912736 0.04474475 0.2219393 0.9740333 2499110 female
-0.8827295 0.4007184 0.8981225 0.7106327 -0.08202423 0.6987655 13224148 female
-0.8518543 0.4304191 0.9225618 -0.8973386 -0.3428475 0.2779191 10987703 female
-0.9899203 0.2137118 0.9861279 -0.8947101 -0.3014822 -0.3295488 13028569 female
-0.5845311 0.348718 0.9493777 0.815608 0.1612893 0.5556701 3420469 female
-0.8486862 0.3789723 0.8722778 -0.9861362 -0.06113477 -0.1542657 15001836 female
-0.5200558 0.3961134 0.9028727 -0.0309962 0.0651515 0.9973938 15725047 female
-0.6365467 0.2711797 1.019955 0.5200323 0.1999962 0.8304023 6184287 female
-0.5972412 0.2280104 0.810854 0.4246449 0.3250987 -0.8449779 6514804 female
-0.6237989 0.8739954 0.8008221 0.8714331 0.3981513 -0.2864957 2631463 female
-0.7116138 0.4070375 1.007079 0.002957599 0.3610716 0.9325334 6184292 female
-0.4908431 0.2516986 0.8717057 0.3424999 -0.5399196 -0.7688827 11909053 female
-0.5239405 -0.4363967 0.8552788 0.9815605 -0.0772531 -0.1748455 1579553 female
-0.8454012 -0.04000948 0.8466035 -0.2362832 -0.2054595 -0.949714 2105896 female
-0.7947714 -0.2032918 0.886812 0.6827987 -0.07464129 -0.7267838 2171944 female
-0.5422999 -0.6718317 0.8646417 0.9814585 0.1521068 -0.1166303 13087919 female
-0.7118433 0.8219723 0.7409813 -0.1891665 -0.1732362 -0.9665429 14338761 female
-0.6407232 0.7599113 0.8512635 0.9110033 -0.4059862 -0.07244491 14731193 female
-0.8022134 0.6502474 0.7919324 -0.3907626 0.6551293 -0.6466143 13293286 female
-0.8500014 0.1494324 0.9882201 -0.5390583 0.2413379 0.8069524 14015981 female
-0.6768101 0.5666735 0.7584369 -0.1598305 0.125773 -0.9790993 12830678 female
-0.5888665 -0.1520056 1.003164 0.1679018 -0.2511655 0.9532706 1842723 female
-0.7137191 0.3519511 1.025078 -0.0213973 0.2456958 0.9691108 12633296 female
-0.7268819 0.07357188 0.7869402 0.1450865 -0.4301777 -0.891009 2435119 female
-0.6813752 0.1985233 1.046262 0.21885 -0.1383457 0.9659012 4734801 female
-0.9243401 0.5728489 0.8495755 -0.8226352 0.5259027 -0.2160962 4934995 female
-0.8460987 0.409917 0.9178936 -0.9287682 -0.2044497 0.3091764 13620448 female
-0.625265 0.2701479 0.8142293 0.3081175 0.1598519 -0.9378225 13752817 female
-0.6878127 -0.07991801 0.9224969 -0.9658444 -0.2536994 -0.05273748 2237218 female
-0.5220403 -0.05452466 0.9368001 0.987413 -0.1206094 0.1023179 1908509 female
-0.5584984 0.6101032 0.8854011 0.0803582 0.7928458 0.6041011 12303555 female
-0.7900398 0.1373279 1.013857 -0.341659 -0.1009329 0.9343884 15133438 female
-0.6409701 0.7551528 0.8305333 0.8997526 -0.3785661 -0.2171013 3551790 female
-0.5548685 0.4582197 0.8919682 0.9791946 -0.1292827 0.156409 13816538 female
-0.8721395 -0.3439879 0.832862 -0.1172871 0.2686716 -0.9560645 2434089 female
-0.9177225 0.544926 0.8197167 -0.6453758 0.2281436 -0.7289997 9078681 female
-0.7424899 0.7133696 0.8173093 -0.7935542 0.1502972 -0.589646 10981510 female
-0.8612403 -0.1161216 1.010752 -0.3615648 -0.1526731 0.9197618 2171944 female
-0.5932393 0.6004388 0.9021912 0.1881269 0.6155015 0.7653537 10658478 female
-0.6795216 0.5400118 0.9744319 -0.0479318 0.6893934 0.7227997 15660798 female
-0.8212803 0.01525082 0.8228233 -0.1404736 -0.4918942 -0.859248 3157808 female
-0.7194362 0.8140844 0.9310378 -0.3941959 0.4684527 0.7906716 14534847 female
-0.5317893 -0.1958168 0.9167668 0.9977795 -0.01257912 -0.06540514 2170921 female
-0.7936446 0.4108018 0.7886531 -0.3853157 -0.3690284 -0.8457836 2698546 female
-0.8517739 -0.03433855 1.022572 -0.2888392 -0.05361475 0.9558752 2500142 female
-0.5686781 -0.2658794 0.9730758 0.4396945 -0.3082931 0.8435782 2170402 female
-0.8736877 -0.008980198 0.8514072 -0.578445 -0.2401823 -0.7795601 2500907 female
-0.6428443 0.4052515 0.9913467 0.4605071 0.202377 0.8642781 15724543 female
-0.5874631 0.3298988 0.9595106 0.7697598 0.2071696 0.6037803 6183780 female
-0.9050698 -0.3730732 0.9255933 -0.743967 -0.1121265 0.6587419 2565671 female
-0.5668765 -0.196853 0.9857354 0.493805 -0.1954982 0.8473117 2170403 female
-0.700589 0.1267358 1.034796 0.1351931 -0.3232125 0.9366197 15199223 female
-0.8270656 -0.2213275 0.8761978 0.2408846 -0.0385327 -0.9697886 2565419 female
-0.8998424 -0.6891693 0.841324 -0.8945461 -0.159199 -0.4176637 8613485 female
-0.7930379 -0.2151479 0.9618205 0.8179281 -0.2616943 0.512357 1841436 female
-0.8612381 0.08527128 0.8167744 -0.6912871 -0.03091677 -0.7219185 2434093 female
-0.9967616 0.1707677 1.074001 -0.9091623 0.2614495 0.3241419 7699066 female
-0.8219234 0.003190033 0.8293557 -0.09049524 -0.4176526 -0.904089 2566447 female
-0.9010584 -0.6699843 0.8525742 -0.9154173 0.2215481 -0.3360471 14862529 female
-0.5196195 0.1865132 0.9911519 -0.7647229 0.400613 0.5046862 7633286 female
-0.6614382 -0.07218629 0.9979319 -0.6453809 -0.2587866 0.7186884 2105635 female
-0.9652643 0.2725513 0.9880741 -0.1035147 0.6535722 0.749752 10396585 female
-0.553631 0.4778459 0.866932 0.9314024 -0.2898184 0.2202154 13026505 female
-0.9532259 0.3981636 0.8859834 -0.8953835 0.3205197 0.3091203 12042183 female
-0.8971826 -0.3718652 0.93531 -0.5582563 -0.1481431 0.8163354 2631464 female
-0.8754967 -0.3441754 0.8327056 -0.1738317 0.2656656 -0.9482638 2302505 female
-0.8257558 0.4016646 0.8183036 -0.7501067 -0.2891709 -0.5947438 5460312 female
-0.6753662 -0.1027648 0.8946408 -0.9009404 -0.2236566 -0.3718657 2170913 female
-0.5185007 0.03440863 0.9523644 0.950843 0.008542561 0.3095553 1974307 female
-0.6444215 0.818194 0.7606469 0.6837425 -0.1859132 -0.7056433 3420972 female
-0.545388 0.02207263 1.130175 -0.8055456 -0.3020201 -0.5097843 5787717 female
-0.7579531 -0.04693237 0.8675191 0.6552355 -0.2896635 -0.6976829 2498854 female
-0.7480899 0.1011392 0.7745602 0.08186461 -0.1707115 -0.9819143 5263457 female
-0.8711079 -0.1544848 1.000926 -0.4586672 -0.1583246 0.8743899 2172969 female
-0.8140799 0.2856282 0.823628 -0.5222374 0.1341427 -0.842184 5524558 female
-0.6685474 -0.1435488 0.8991771 -0.9393101 -0.1558455 -0.3056284 2105120 female
-0.5574727 0.2750524 0.911665 0.9536806 0.2943897 0.06187086 14673128 female
-0.6119512 -0.2462806 0.8634993 -0.219411 -0.0005032803 -0.9756324 2565677 female
-0.721662 0.5067131 0.996847 0.08357317 0.4164405 0.9053137 15461623 female
-0.7122755 0.04034825 0.8675938 0.2982649 -0.9241381 -0.2387609 1842204 female
-0.8620372 0.6285459 0.8668435 -0.2043942 0.9192526 0.3364486 11117481 female
-0.5375129 -0.09085946 0.975044 0.8780243 -0.1273613 0.4613593 1841953 female
-0.5450957 -0.6497783 0.842254 0.9631922 -0.009356214 -0.2686507 1842207 female
-0.8527128 -0.4106489 0.9282883 0.230444 -0.2475583 0.9410688 2170913 female
-0.5247061 0.6035488 0.8747823 0.5015609 0.7976983 0.3348343 9343126 female
-0.826682 -0.2273519 0.8769181 0.2591108 -0.04166223 -0.9649487 2500140 female
-0.926259 0.2439729 0.9287536 0.703907 -0.6462849 -0.2946704 13816027 female
-0.4898511 0.4850461 0.8813322 0.8385004 0.02966241 0.544093 8817806 female
-0.8963748 -0.6348928 0.8640695 -0.9887271 0.1477604 0.02419906 1710882 female
-0.6659362 -0.1218354 0.8832269 -0.8340056 -0.178463 -0.5220973 2038816 female
-0.5744318 -0.04290675 1.018902 0.4172921 -0.09838719 0.9034308 2039589 female
-0.6260901 0.4380784 0.7716872 0.2517368 -0.3427158 -0.9050825 8817042 female
-0.6733343 0.7284509 0.9218822 0.594501 -0.6791731 0.4304562 15586756 female
-0.5874881 0.1532183 0.7969429 0.5534509 0.0723279 -0.8297353 12106953 female
-0.9273572 -0.7000879 0.8953307 -0.8721412 -0.0288822 -0.4884011 9535609 female
-0.6428515 0.6646705 0.8549877 0.7808181 0.4962046 0.3796105 12363155 female
-0.5208461 0.5630059 0.8090971 0.6513169 0.2379984 -0.7205158 6973303 female
-0.7942641 -0.04356145 0.8477274 0.2519243 -0.2555192 -0.9334046 2500652 female
-0.5609763 0.5424197 0.7800831 0.464455 -0.141986 -0.8741404 12370386 female
-0.7460145 0.7732891 0.9253374 -0.7452337 -0.07987549 0.6620019 16244686 female
-0.7994542 -0.0001156433 1.023988 0.2149435 -0.05739134 0.9749388 2171171 female
-0.5543438 -0.5250597 0.8206099 0.5401 -0.1001412 -0.8356217 2697264 female
-0.8296329 0.5196102 0.9689551 -0.6145766 0.5128234 0.5994228 14935794 female
-0.7929335 -0.2355473 0.8958314 0.7932286 -0.1264733 -0.595645 2236967 female
-0.7088287 0.3034466 1.032597 -0.002195881 0.1623178 0.9867361 7434876 female
-0.5495649 0.1185609 1.073387 -0.4266936 0.8804231 0.2068521 16770008 female
-0.8608055 0.4972007 0.8877195 0.7422249 -0.2883672 0.6049351 9277338 female
-0.6661177 0.2543307 1.038326 0.3118633 0.1770701 0.9334813 5130576 female
-0.5634682 0.5138969 0.9053745 0.7944812 -0.358502 0.4901795 3815741 female
-0.8658971 -0.7097011 0.9702219 0.9258546 -0.3195727 0.2016594 6180688 female
-0.6484029 0.4719592 0.7562994 0.08339043 -0.2488723 -0.9649397 15199231 female
-0.7356633 0.5408828 0.9755365 0.09391556 0.6851309 0.7223403 15396344 female
-0.6251507 0.5454686 0.963007 0.2291847 0.6710995 0.7050531 12171461 female
-0.686281 -0.01636108 0.8679826 -0.7428414 -0.2113946 -0.6352158 2237224 female
-0.6821308 0.4900123 0.7520574 -0.05860983 -0.06941329 -0.9958648 15463935 female
-0.571748 -0.3080373 0.8352426 0.07895207 0.3663929 -0.9271045 2237738 female
-0.6565537 0.7043893 0.8700309 0.8546714 -0.09264468 0.5108365 14993595 female
-0.5734785 -0.4256307 0.9181936 -0.09991861 -0.233034 0.9673218 2171431 female
-0.6527945 0.2788916 1.02729 0.4280277 0.203219 0.8806216 14342371 female
-0.5356655 0.5992626 0.8916479 0.2831045 0.6707399 0.6855361 9869474 female
-0.7004895 -0.01075862 0.9677599 -0.9469531 -0.1608388 0.2782277 2434085 female
-0.6203094 0.0521795 0.7965114 0.1844513 -0.4424061 -0.8776414 2368300 female
-0.5144577 0.010802 0.9276801 0.9958619 -0.06408546 0.06443661 1776161 female
-0.5392648 0.2592984 0.8974667 -0.9920651 -0.1229003 0.02650298 14540526 female
-0.6167822 0.8609179 0.8452768 0.97487 0.1717775 0.1418485 2368292 female
-0.526273 0.4813325 0.8018191 0.2104219 -0.05900992 -0.9758281 14342115 female
-0.8425201 0.300309 0.9522349 -0.8467475 0.2292774 0.4800526 14146793 female
-0.8753456 -0.3220019 0.9527555 -0.2880242 -0.2714713 0.9183384 2301987 female
-0.9409768 -0.6993865 0.9772496 -0.2872402 0.9510909 0.1136628 14271422 female
-0.5320299 0.05840835 0.9762068 0.8527575 0.07849248 0.5163754 1776675 female
-0.4955571 0.008440043 1.046829 0.9805175 -0.1708366 -0.09695555 16639195 female
-0.5036395 0.5721306 0.8378557 0.7328231 0.4858573 -0.4763538 13094110 female
-0.8386174 -0.5876601 0.8529442 0.9907678 -0.1310576 -0.03468376 1907745 female
-0.575817 -0.5070357 0.8978 -0.156675 -0.1931899 0.9685714 2301987 female
-0.8443151 0.3908559 0.9188258 -0.9490465 0.002986719 0.3151221 12369863 female
-0.6705731 0.6327078 0.8992832 0.2664393 0.6284688 0.7307784 15396082 female
-0.8768308 -0.6683874 0.942057 0.229887 0.8141198 0.533255 15848392 female
-0.8897689 0.6149276 0.8419102 -0.6325284 0.7311273 -0.2556573 12303039 female
-0.6752187 0.2727971 0.8074951 0.002558878 0.1900246 -0.9817759 15201279 female
-0.5052537 0.5725242 0.8874103 0.6403673 0.4634476 0.6124917 13028813 female
-0.9209771 0.4083188 0.8268247 -0.4142974 -0.1308363 -0.9006884 5589847 female
-0.8109965 -0.443812 0.8720657 0.9840074 -0.1743904 -0.03629497 2040358 female
-0.8448861 0.03724304 0.8198825 -0.4358324 -0.3798308 -0.8159526 2631465 female
-0.6505675 0.5405525 0.9732763 0.06603774 0.6910452 0.7197886 12765138 female
-0.5449895 -0.5870041 0.863721 0.9741623 -0.1274364 0.1864609 1578523 female
-0.5875083 -0.08933379 0.8494734 0.2132332 -0.05335211 -0.9755435 2106409 female
-0.9371812 -0.6961518 0.9579511 -0.2606823 0.9533636 0.1521271 15781830 female
-0.7850248 0.3339562 0.8048035 -0.3186261 -0.1914136 -0.9283525 15398143 female
-0.8917055 -0.6313182 0.8836228 -0.9206269 0.2232548 0.3203175 2302502 female
-0.575541 -0.1252992 0.853749 0.3363431 -0.05793878 -0.9399555 2171688 female
-0.5581579 -0.3216424 0.9400225 0.4430567 -0.2415096 0.8633503 1908773 female
