# .PCD v0.7 - Point Cloud Data file format
VERSION 0.7
FIELDS x y z normal_x normal_y normal_z rgb label
SIZE 4 4 4 4 4 4 4 4
TYPE F F F F F F U U
COUNT 1 1 1 1 1 1 1 1
WIDTH 170
HEIGHT 1
VIEWPOINT 0 0 0 1 0 0 0
POINTS 170
DATA ascii
-0.8677121 0.1317896 0.8456372 -0.8218962 0.1097341 -0.5589679 14079973 female
-0.5442941 0.1552552 0.849574 0.8253331 0.06039522 -0.5614069 11121347 female
-0.8794388 -0.4699339 0.9238202 -0.387199 -0.2407142 0.8900188 2171174 female
-0.5542382 0.1138131 1.06568 -0.8833173 0.3671977 -0.2914042 14009278 female
-0.5370644 -0.5524792 0.893822 0.795541 -0.1797216 0.5786317 2171937 female
-0.6362855 -0.1934016 0.9861522 -0.7298486 -0.2557023 0.6339853 2170913 female
-0.8064626 0.3475273 0.8296978 -0.6365253 -0.1921968 -0.7469243 6251625 female
-0.9286581 -0.7173474 0.9868903 -0.207322 -0.9775608 0.03731768 526344 female
-0.8249925 -0.1686604 1.014504 0.1949323 -0.215276 0.9569 2039072 female
-0.9375631 0.2252155 0.9469748 0.2770557 -0.7827752 -0.5572281 10921901 female
-0.932103 0.4836885 0.87466 -0.991019 0.1322231 0.01996159 7829376 female
-0.7920008 0.3270155 0.8214589 -0.4633078 -0.1034534 -0.8801382 7566207 female
-0.8794496 -0.4743404 0.8382244 -0.4925979 -0.05932754 -0.8682324 2170401 female
-0.912064 0.3763431 0.9246781 0.06980758 0.1091875 0.9915669 8224648 female
-0.4805856 0.5159761 0.8528002 0.8855101 0.1722725 -0.4315021 12434634 female
-0.5334975 -0.01256999 1.003324 0.8081711 -0.02153201 0.588554 1973536 female
-0.9224883 0.1498014 1.172064 0.331622 -0.938359 0.09751513 6245446 female
-0.8584976 0.03277433 1.022098 -0.5516447 0.1213251 0.8252081 2500651 female
-0.7851915 -0.2600851 0.9467273 0.8998019 -0.2974952 0.3191443 2169889 female
-0.5757384 -0.6091116 0.9036392 -0.4350456 0.21488 0.8743923 2367780 female
-0.8767503 0.3994459 0.9096851 0.7139856 -0.09288465 0.6939719 13224148 female
-0.8459653 0.4226228 0.9239753 -0.9069765 -0.3518345 0.2315299 14082023 female
-0.9844352 0.2427754 0.985191 -0.996581 0.08136895 0.01433252 14474476 female
-0.5795655 0.3462343 0.9628229 0.8053261 0.1547944 0.5722662 3420469 female
-0.8422846 0.394382 0.8805366 -0.9840891 -0.08852445 -0.1540517 14083055 female
-0.5144733 0.3942173 0.9185182 -0.06775919 0.0462043 0.9966313 15725047 female
-0.6329449 0.2685656 1.031906 0.5040212 0.1942264 0.8415693 6184287 female
-0.5895919 0.2265677 0.8234923 0.4410541 0.3283474 -0.83526 6514804 female
-0.6156943 0.873517 0.8230571 0.8769477 0.4020906 -0.2632221 2631463 female
-0.7024978 0.4142481 1.014283 0.009822054 0.2608562 0.9653277 15200255 female
-0.496962 0.250383 0.8817047 0.1548527 -0.5616547 -0.8127513 11053232 female
-0.5169595 -0.4382126 0.8711111 0.9854369 -0.07669035 -0.1517657 1579553 female
-0.8383161 -0.04224719 0.8547822 -0.2192785 -0.2101909 -0.9527522 2105896 female
-0.7881832 -0.2052019 0.8970507 0.6960511 -0.07637276 -0.7139187 2171944 female
-0.5353677 -0.6735961 0.8801252 0.9837487 0.1531382 -0.09373985 13087919 female
-0.702839 0.8230433 0.7606388 -0.1733558 -0.1513245 -0.9731643 14338761 female
-0.63279 0.7574651 0.906278 0.9421136 -0.2782175 0.1871282 15851728 female
-0.7999808 0.6548454 0.8170628 -0.4494218 0.7739313 -0.4461506 11582152 female
-0.8503825 0.1601425 0.9887128 -0.6378703 0.1677575 0.7516508 3552582 female
-0.6683533 0.5669648 0.773558 -0.1427331 0.1428276 -0.9794016 12830678 female
-0.585343 -0.1534921 1.016851 0.1461738 -0.2471744 0.957882 1842723 female
-0.7101544 0.348732 1.036217 -0.03956871 0.2356839 0.9710239 12633296 female
-0.736838 0.0615241 0.797055 0.1674662 -0.4620848 -0.8708804 2566703 female
-0.6783185 0.1962107 1.057052 0.1997487 -0.1418931 0.9695188 4734801 female
-0.9175753 0.5722293 0.8629525 -0.8205567 0.5329049 -0.2066375 4934995 female
-0.8358622 0.417871 0.9440847 -0.8354784 -0.3936249 0.3834517 9672086 female
-0.6177059 0.2688296 0.8264303 0.3261745 0.1649417 -0.9308085 13752817 female
-0.682369 -0.08175204 0.9335802 -0.9645093 -0.2536277 -0.07344903 2237218 female
-0.5169666 -0.05633045 0.9515197 0.9847906 -0.1204677 0.1251999 1908509 female
-0.5773116 0.6184599 0.8967257 0.1413062 0.7533303 0.6422818 9540505 female
-0.7862768 0.1355138 1.022368 -0.3588964 -0.1003843 0.9279636 15133438 female
-0.6336406 0.7541146 0.8498235 0.90241 -0.3761186 -0.2102166 3551790 female
-0.5468271 0.4525337 0.8863012 0.9758841 -0.1982675 0.09132391 10132127 female
-0.8638871 -0.3459327 0.8421212 -0.09911245 0.2671453 -0.9585458 2434089 female
-0.9111849 0.5446 0.8327478 -0.6467935 0.239762 -0.7239974 9078681 female
-0.7349728 0.7127988 0.8340186 -0.7833493 0.163632 -0.5996569 10981510 female
-0.8569296 -0.1175137 1.019232 -0.3773624 -0.1480261 0.9141586 2171944 female
-0.5876542 0.5982684 0.9194985 0.1694427 0.6023184 0.7800652 10658478 female
-0.6877466 0.5428495 0.9798802 -0.1019638 0.6811732 0.7249872 3553599 female
-0.8138178 0.01313439 0.83103 -0.1244539 -0.4943003 -0.8603362 3157808 female
-0.7076531 0.8098122 0.9562243 -0.7217062 0.3978493 0.5664415 14731450 female
-0.5263261 -0.1976899 0.9320343 0.9990163 -0.0128818 -0.04243213 2170921 female
-0.7639935 0.3985761 0.7954109 -0.2144436 -0.3023457 -0.9287632 15198199 female
-0.8477778 -0.0356439 1.030733 -0.3053941 -0.04872821 0.9509785 2500142 female
-0.5645319 -0.2676046 0.9877346 0.4204006 -0.3059313 0.8542069 2170402 female
-0.8667192 -0.01119574 0.8589083 -0.5642119 -0.2440646 -0.7887315 2500907 female
-0.5771082 0.4751507 0.792594 0.588576 -0.2941302 -0.7530376 14607351 female
-0.5826983 0.3274155 0.9727628 0.7583802 0.2011671 0.619993 6183780 female
-0.8985611 -0.3750462 0.9341937 -0.7566522 -0.1144065 0.6437303 2565671 female
-0.5629945 -0.1984464 1.000149 0.4742366 -0.1923322 0.8591321 2170403 female
-0.6973031 0.1246694 1.045042 0.1167191 -0.3249197 0.9385115 15199223 female
-0.8202247 -0.2232889 0.8860233 0.2588969 -0.041532 -0.9650117 2565419 female
-0.878746 -0.7062969 0.8712794 -0.06056311 -0.9891821 -0.1336075 789772 female
-0.7877928 -0.2167054 0.9721913 0.8090515 -0.2574861 0.5283337 1841436 female
-0.8476239 0.08540705 0.8191519 -0.6197534 -0.01054107 -0.7847258 2696745 female
-0.9917393 0.148059 1.073854 -0.9981192 -0.04663561 -0.03978831 15267582 female
-0.8145725 0.001030158 0.8376418 -0.07378734 -0.4206827 -0.9042022 2566447 female
-0.8903111 -0.6830738 0.8504971 -0.9064566 0.1107692 -0.4075128 11705240 female
-0.5176706 0.1647683 1.023863 -0.6730492 0.4955923 0.5489928 14674677 female
-0.6577203 -0.07366803 1.009611 -0.6615804 -0.2554014 0.70504 2105635 female
-0.9583411 0.2696773 0.9986794 -0.09515513 0.6396875 0.7627224 10396585 female
-0.5473536 0.476987 0.8838162 0.9251171 -0.2921315 0.2425233 13618383 female
-0.9298168 0.3747028 0.9215768 -0.2806815 0.2615948 0.9234642 14740469 female
-0.8908758 -0.3737961 0.9440666 -0.5740082 -0.1495121 0.8050843 2631464 female
-0.8672396 -0.3461336 0.8418976 -0.1557948 0.2639282 -0.951877 2302505 female
-0.8164393 0.3850562 0.8275283 -0.7248076 -0.1546807 -0.6713626 6710377 female
-0.6693049 -0.1047247 0.9061267 -0.8923902 -0.2249923 -0.3911754 2170913 female
-0.5137299 0.03261964 0.9666553 0.9437934 0.009301526 0.3304052 1974307 female
-0.6357693 0.8186664 0.7813301 0.695132 -0.1722052 -0.6979519 3420972 female
-0.5433771 0.04748754 1.117255 -0.9032988 -0.1521206 -0.4011367 10458507 female
-0.7512553 -0.04894061 0.8772517 0.6679868 -0.2918968 -0.6845363 2498854 female
-0.7396871 0.09964114 0.7838983 0.1008461 -0.1684532 -0.9805374 5263457 female
-0.8665669 -0.1559493 1.009461 -0.4738308 -0.1543503 0.8669835 2172969 female
-0.8416454 0.2721808 0.8596166 -0.7644339 0.3855205 -0.5167348 7698044 female
-0.6590543 -0.1762848 0.9180602 -0.9725976 -0.1126681 -0.2033712 1710363 female
-0.5518074 0.2731901 0.9251896 0.9522743 0.294003 0.08207279 14673128 female
-0.6052482 -0.2482404 0.8771351 -0.196661 -0.002673401 -0.9804679 2565677 female
-0.7205589 0.4989885 1.011778 0.09581071 0.3544761 0.9301435 13290450 female
-0.7159457 0.01445408 0.9110743 0.950818 -0.2847066 -0.1220136 1645342 female
-0.8489245 0.6305157 0.8769329 -0.197241 0.9163706 0.3483689 12894660 female
-0.5333296 -0.09247816 0.9896067 0.8672362 -0.1256317 0.4817863 1841953 female
-0.5376691 -0.651609 0.8576239 0.96929 -0.008830997 -0.2457618 1842207 female
-0.8461121 -0.4124096 0.9379802 0.2123377 -0.2456967 0.9458044 2170913 female
-0.5303767 0.6102188 0.8909563 0.3864753 0.8571924 0.3403793 13554387 female
-0.8198355 -0.2292918 0.8867807 0.277168 -0.04439123 -0.9597954 2500140 female
-0.9200428 0.2422476 0.9383643 0.7011515 -0.6395979 -0.3151208 13816027 female
-0.4783929 0.483583 0.8878703 0.9406812 0.032362 0.337745 10725291 female
-0.8873284 -0.6300982 0.868644 -0.9961396 0.081651 -0.03223291 1907741 female
-0.6595064 -0.131692 0.8992609 -0.8544639 -0.1728526 -0.4899118 2170657 female
-0.6225438 0.02000793 1.041085 -0.114113 0.01459762 0.9933605 2237481 female
-0.6179737 0.4379983 0.7854751 0.2672159 -0.3284506 -0.9059337 8817042 female
-0.6712016 0.7320214 0.9513138 0.6570058 -0.4131872 0.6305709 16047566 female
-0.5795598 0.1517374 0.8095331 0.5697148 0.07491545 -0.8184208 12106953 female
-0.9164575 -0.6997797 0.8989886 -0.8652502 0.0447191 -0.4993419 10917005 female
-0.6979151 0.6497347 0.9150321 -0.04679249 0.01058042 0.9988486 15132657 female
-0.5085388 0.5629497 0.8324086 0.6800318 0.2901562 -0.6733246 9474458 female
-0.7872072 -0.0457084 0.8567942 0.2687602 -0.2593205 -0.9276426 2500652 female
-0.5470438 0.5371368 0.8009533 0.4506003 -0.1744823 -0.8755086 14607351 female
-0.7302086 0.7574391 0.9496158 -0.5215294 -0.1070601 0.84649 16574933 female
-0.7955292 -0.001348188 1.03284 0.1979531 -0.05176613 0.9788436 2171171 female
-0.5464907 -0.5269046 0.8357284 0.559727 -0.1001207 -0.8226066 2697264 female
-0.8241978 0.5256842 0.9716658 -0.6086529 0.4974575 0.6181243 8684427 female
-0.7864347 -0.2373428 0.9063461 0.8045753 -0.1266821 -0.5801811 2236967 female
-0.7054415 0.3004826 1.043377 -0.02100286 0.1542983 0.9878011 7434876 female
-0.5602825 0.1112861 1.083714 -0.8420045 0.5235889 -0.1299346 15785172 female
-0.8543085 0.4958384 0.899923 0.7433507 -0.2992133 0.5982484 9277338 female
-0.662878 0.2517036 1.049616 0.293624 0.1712743 0.940452 5130576 female
-0.5545568 0.4970074 0.9184594 0.9137552 -0.210247 0.3476316 11777979 female
-0.8552625 -0.6940776 0.9613301 0.9112449 0.2546051 0.3237422 12231836 female
-0.6400182 0.4721931 0.770264 0.09976365 -0.2330137 -0.9673427 15199231 female
-0.7001253 0.5425672 0.9784758 -0.01648576 0.7052746 0.7087425 3880764 female
-0.6183287 0.5356907 0.9843253 0.2377287 0.6602482 0.7124307 10921646 female
-0.6667316 -0.01665921 0.8664552 -0.5751592 -0.2846065 -0.7669362 2302243 female
-0.6737114 0.4903974 0.7657777 -0.0421086 -0.05267645 -0.9977234 15463935 female
-0.564385 -0.3099251 0.8499165 0.1004577 0.365749 -0.9252762 2237738 female
-0.6499622 0.702597 0.8879883 0.8459452 -0.1048005 0.5228705 14993595 female
-0.5679712 -0.42747 0.9328328 -0.1224757 -0.232843 0.9647714 2171431 female
-0.6493258 0.2761653 1.038969 0.4109484 0.1968092 0.8901616 14342371 female
-0.5211824 0.598868 0.9021663 0.4192235 0.7351238 0.5327709 6842480 female
-0.6960185 -0.01239019 0.9782637 -0.9530187 -0.1592347 0.2576816 2434085 female
-0.6122616 0.05045278 0.8082763 0.2021182 -0.441502 -0.8741992 2368300 female
-0.5091509 0.008942313 0.9421493 0.9941842 -0.06403418 0.08658729 1776161 female
-0.5340598 0.2582341 0.9098129 -0.9928581 -0.1163814 -0.02623057 14540526 female
-0.6129579 0.8720986 0.8707242 0.9315842 0.3278995 0.156948 2895145 female
-0.5324673 0.4915598 0.8166511 -0.0164849 -0.1804255 -0.9834505 8421000 female
-0.8428826 0.2655227 0.9689485 -0.8162318 0.2990231 0.4943186 3289402 female
-0.869601 -0.3238165 0.9619182 -0.3052903 -0.2712835 0.9127996 2301987 female
-0.9386379 -0.7029225 0.992581 -0.2761184 0.9235136 0.2662354 1051656 female
-0.5277716 0.05669032 0.9900968 0.8412797 0.07981388 0.5346758 1776675 female
-0.5022459 0.005430677 1.054637 0.7873421 -0.2090854 -0.5799791 15190727 female
-0.5036063 0.5878047 0.867933 0.735043 0.6400172 -0.2238073 13554654 female
-0.8297313 -0.5894426 0.8630741 0.9917159 -0.1276268 -0.01452762 1907745 female
-0.5697833 -0.5088709 0.9123805 -0.1793288 -0.1929957 0.9646729 2301987 female
-0.8273904 0.4238632 0.9683439 -0.6859198 -0.5604964 0.4640666 14079458 female
-0.6670282 0.6250646 0.9213651 0.1802975 0.6029034 0.7771745 14738414 female
-0.8827187 -0.6765091 0.9607537 -0.1404659 0.8897378 0.4343225 14596789 female
-0.8759587 0.6142241 0.8441927 -0.6471614 0.6657711 -0.3713907 11711421 female
-0.667508 0.2715416 0.8187321 0.02149086 0.1958807 -0.9803922 15201279 female
-0.4996411 0.5709659 0.9068322 0.6186078 0.4544853 0.6409115 13028813 female
-0.9153304 0.40797 0.8387049 -0.4197411 -0.1196593 -0.8997217 5589847 female
-0.8031281 -0.4454573 0.8826461 0.9852311 -0.1704687 -0.01612709 2040358 female
-0.8373893 0.03517874 0.8275447 -0.4204948 -0.3818336 -0.8230354 2631465 female
-0.6458009 0.5371786 0.9883555 0.05475675 0.6788544 0.7322284 12765138 female
-0.5381161 -0.5888224 0.8790415 0.9695593 -0.1266598 0.2095524 1578523 female
-0.5804461 -0.09150475 0.8628497 0.2351585 -0.05745259 -0.9702576 2106409 female
-0.9282268 -0.7001413 0.9799436 -0.2202367 0.9617091 0.1631299 16243670 female
-0.7369047 0.2396121 0.8059824 -0.003322366 0.3084963 -0.9512197 15201018 female
-0.8832615 -0.633212 0.8927271 -0.9276375 0.221163 0.3009579 2302502 female
-0.5685948 -0.1274527 0.8676138 0.3575873 -0.06203937 -0.9318168 2171688 female
-0.5532253 -0.3234671 0.9550013 0.4228562 -0.240514 0.8736964 1908773 female
