# .PCD v0.7 - Point Cloud Data file format
VERSION 0.7
FIELDS x y z normal_x normal_y normal_z rgb label
SIZE 4 4 4 4 4 4 4 4
TYPE F F F F F F U U
COUNT 1 1 1 1 1 1 1 1
WIDTH 170
HEIGHT 1
VIEWPOINT 0 0 0 1 0 0 0
POINTS 170
DATA ascii
-0.8840259 0.1272218 0.7931932 -0.7793141 0.04772632 -0.6248134 11910347 female
-0.5960532 0.1570174 0.7641339 0.6203071 0.05168163 -0.7826545 9803174 female
-0.8666192 -0.4295475 0.9173811 0.4187833 -0.2754485 0.8653026 2170913 female
-0.6182327 0.141164 1.086791 -0.9166454 0.1116719 0.3837847 6509392 female
-0.5974361 -0.5769655 0.8241665 0.790225 -0.22113 0.5715295 2171172 female
-0.5863463 -0.2023798 0.9480952 0.60477 -0.2016477 0.7704488 2170145 female
-0.8665525 0.245688 0.9328377 -0.7457614 0.3343244 0.5762528 4078918 female
-0.928342 -0.7157915 1.002309 -0.3545466 -0.9344238 -0.0338945 526344 female
-0.8450984 -0.4803541 0.8751386 0.9304152 -0.2501129 0.2679012 1710362 female
-0.9158795 0.2370486 0.9868891 0.496351 -0.8193287 -0.2869429 9935263 female
-0.9436842 0.480298 0.843897 -0.9919076 0.05739928 -0.1132459 10133932 female
-0.8753253 0.2714232 0.8410324 -0.8720866 0.4136885 -0.2613938 3289901 female
-0.8939562 -0.5392626 0.817771 -0.1195616 0.02122014 -0.9926 2499883 female
-0.9361908 0.41713 0.8965691 -0.5683802 0.3024968 0.7651404 11056058 female
-0.5171027 0.496244 0.7738995 0.5658915 0.009100772 -0.8244295 10921395 female
-0.5587891 0.01383432 0.9473479 0.8209136 0.03280647 0.5701092 1973536 female
-0.8788266 0.235087 1.171315 -0.8389322 -0.1659465 0.518319 16375761 female
-0.8018889 0.06077785 0.9973204 0.2761296 0.2000837 0.9400633 2434601 female
-0.8175634 -0.2784566 0.9051633 0.9060676 -0.2267094 -0.3572737 1973278 female
-0.6333363 -0.6037356 0.8320251 -0.4956186 0.1295399 0.8588257 2499110 female
-0.8859141 0.4178994 0.8946053 0.6392976 0.01539054 0.7688054 11250613 female
-0.8626224 0.3755251 0.8397295 -0.9942792 -0.03209299 -0.1018769 14080992 female
-0.9547691 0.2432544 1.020233 -0.9162255 -0.3992418 -0.03371717 13028569 female
-0.5883604 0.3380171 0.8843299 0.9273637 0.08960285 0.3632738 13422804 female
-0.8718515 0.4384729 0.8622046 -0.9755771 -0.1860882 0.1167073 10198953 female
-0.5674767 0.3667665 0.8518292 -0.8033747 -0.01000435 0.5953898 13224659 female
-0.6401569 0.2243983 0.9802293 0.5881583 0.09930449 0.802626 5461599 female
-0.6435722 0.2141767 0.75477 0.1955548 0.287797 -0.9375133 11844804 female
-0.6279072 0.8695191 0.7928525 0.862935 0.4087907 -0.2970409 2631463 female
-0.65099 0.4969671 0.9589498 0.06745511 0.5509998 0.8317747 8357004 female
-0.5249147 0.2575212 0.836667 0.2573537 -0.7281773 -0.6352377 14344168 female
-0.5736043 -0.4854077 0.8226562 0.9685914 -0.2053659 0.1401982 1908257 female
-0.8740962 -0.04678519 0.8349367 -0.3679003 -0.2501956 -0.8955733 2105896 female
-0.8240272 -0.2290811 0.880852 0.4969992 -0.09610663 -0.8624125 2303014 female
-0.5948127 -0.6768379 0.8022403 0.9643245 0.1448157 -0.2216005 13087919 female
-0.7212294 0.8269744 0.7334104 -0.2563782 -0.0525408 -0.9651475 14338761 female
-0.6376414 0.7562197 0.8308766 0.4960724 -0.8620799 -0.1035882 9730673 female
-0.822485 0.6528628 0.8131655 -0.3843564 0.8751973 0.2937684 15724535 female
-0.8910722 0.1657145 0.9339212 -0.7819476 0.2417088 0.5745736 14607087 female
-0.6875068 0.5490059 0.7201964 -0.250109 0.1640977 -0.9542104 13554663 female
-0.5651901 -0.1904254 0.9211398 0.921307 -0.1397627 0.3628494 2105377 female
-0.7168297 0.342922 0.9839833 0.06506626 0.2374822 0.9692103 12633296 female
-0.801269 0.07576828 0.7478738 -0.1318555 -0.2900333 -0.9478897 2895668 female
-0.6806491 0.2203863 1.002757 0.3260049 0.05755702 0.9436143 15002619 female
-0.932649 0.5712996 0.8411766 -0.8424094 0.5305118 -0.09435886 4934995 female
-0.8627805 0.372059 0.8598499 -0.9959693 0.005141274 0.08954726 14344426 female
-0.6290717 0.2787741 0.7738662 0.4293326 -0.0469828 -0.9019236 13488354 female
-0.7168164 -0.06867854 0.8850167 -0.9781036 -0.2067323 -0.02398056 2433573 female
-0.5420739 -0.04726626 0.8714167 0.9755144 -0.1624974 -0.1482099 2105122 female
-0.56844 0.6004738 0.8497918 0.08415174 0.767163 0.6359083 12303555 female
-0.8428692 0.1612494 0.9701072 -0.4157617 0.1141903 0.9022765 9343646 female
-0.6613344 0.7168238 0.8021423 0.832236 -0.1431873 -0.5356123 4866113 female
-0.5654655 0.448023 0.8346802 0.9814067 -0.1778059 0.07228987 13882587 female
-0.8627033 -0.3007592 0.8587914 0.4126996 0.3637521 -0.8350829 2500142 female
-0.9064507 0.5229703 0.7910342 -0.3066709 -0.09253142 -0.9473072 9671839 female
-0.7456975 0.7192225 0.7939953 -0.805014 0.1321418 -0.5783521 5984074 female
-0.8527769 -0.1203528 1.005936 -0.004233414 -0.122248 0.9924906 2171944 female
-0.6017459 0.5895877 0.8656449 0.2124785 0.5764832 0.7889993 10658478 female
-0.6820136 0.5260075 0.9383017 0.0205727 0.6478628 0.7614792 15660798 female
-0.8219239 -0.04896349 0.8286528 0.1277546 -0.31098 -0.9417909 2500651 female
-0.6981886 0.7995084 0.9390175 -0.2808663 0.6166152 0.7354589 14401976 female
-0.6639928 -0.1983675 0.9431027 -0.6672032 -0.2217764 0.7110943 2170913 female
-0.7984775 0.4101463 0.747149 -0.3415696 -0.3153387 -0.8853766 9933207 female
-0.8206434 -0.02595876 1.007563 0.2406131 -0.04030216 0.969784 2170916 female
-0.6455463 -0.2895365 0.9217564 -0.5814012 -0.4428333 0.6825476 2170913 female
-0.9011113 -0.01488987 0.8417776 -0.6817264 -0.2682633 -0.6806496 2500907 female
-0.5981045 0.4569547 0.7392697 0.5796887 -0.3087444 -0.7540808 12699345 female
-0.597088 0.3174813 0.9080834 0.8233507 0.1762846 0.5394602 6183780 female
-0.9184585 -0.3022946 0.8619249 -0.5889465 0.3733013 -0.7167902 2171945 female
-0.6429186 -0.2058795 0.9551321 -0.372025 -0.2214675 0.9014153 2170401 female
-0.6893172 0.1734095 1.002198 0.3159205 -0.1811685 0.9313282 4606287 female
-0.8371889 -0.2764339 0.885878 0.528204 -0.03143201 -0.8485355 2632488 female
-0.8895888 -0.7027115 0.8649426 0.1981842 -0.9801175 -0.009630392 986381 female
-0.8098016 -0.2415058 0.9462299 0.873283 -0.2733607 0.4032997 1973534 female
-0.8900742 0.05746341 0.8019693 -0.7195392 -0.2103566 -0.6618258 2499881 female
-0.9393587 0.224118 1.115127 -0.8424183 0.3045132 0.4445257 7699066 female
-0.8438664 -0.02643386 0.8198562 -0.09849013 -0.354632 -0.9298041 2697516 female
-0.9231443 -0.6801327 0.8164062 -0.9309233 0.04329362 -0.3626395 14269620 female
-0.575066 0.2058826 0.9968937 -0.5757506 0.7213517 0.3849194 11514295 female
-0.6295797 -0.09088281 0.9792126 -0.05537337 -0.1668922 0.984419 2171944 female
-0.9494815 0.262637 1.046075 -0.8198334 0.4444092 0.3610729 11647164 female
-0.5712916 0.4579243 0.7740268 0.8261237 -0.4115884 -0.3848567 13554390 female
-0.9488363 0.4194799 0.878764 -0.8997021 0.2601439 0.3505157 5001303 female
-0.8866017 -0.4064845 0.9322815 0.1514366 -0.2772672 0.9487833 2169889 female
-0.848109 -0.2990529 0.8701903 0.6053942 0.2906213 -0.7409704 2631464 female
-0.8512462 0.3466548 0.8139117 -0.8909539 -0.113241 -0.4397472 11054004 female
-0.6946734 -0.1687832 0.8785884 -0.989166 -0.1106638 -0.09645752 1841436 female
-0.5371912 0.05576471 0.8933998 0.9799994 0.0544002 0.1914206 1908257 female
-0.6528155 0.8193651 0.7479264 0.6308541 -0.117451 -0.7669604 3420972 female
-0.608048 0.1122182 1.117564 0.8156052 -0.5461649 0.1910294 8679528 female
-0.7847767 -0.05388134 0.8438449 0.5513598 -0.3342221 -0.7643939 2498854 female
-0.7824543 0.1730654 0.7466097 -0.1018658 0.2207175 -0.9700037 6647671 female
-0.9087681 -0.2680738 0.8761294 -0.524487 0.3355185 -0.782522 2565673 female
-0.8844295 0.2560429 0.8489223 -0.8729627 0.4561779 -0.1727365 3685184 female
-0.6929975 -0.1541096 0.8600706 -0.9277202 -0.1251011 -0.3516886 2170913 female
-0.5885091 0.2902125 0.8122509 0.8737353 0.01064325 -0.4862853 13620190 female
-0.6749014 -0.3669569 0.8330227 -0.997052 0.0709468 0.02922035 1776161 female
-0.7372313 0.3574534 0.9803777 -0.04741668 0.2673743 0.9624254 12107465 female
-0.7379651 0.03119105 0.8416604 0.4862625 -0.8317504 -0.2678433 1315860 female
-0.8578714 0.6390597 0.8167371 -0.4603842 0.8867692 0.0410695 13749452 female
-0.561173 -0.1295615 0.9303203 0.9068365 -0.140549 0.3973581 1973793 female
-0.5972635 -0.662757 0.7929137 0.9710584 0.03806876 -0.2357886 2105376 female
-0.9184508 -0.5808848 0.8433843 -0.963142 -0.04835989 -0.2646109 1579032 female
-0.5349194 0.5942997 0.8391286 0.498094 0.7827793 0.3730402 9343126 female
-0.8368434 -0.2705132 0.8844335 0.4747688 -0.05011046 -0.8786828 2369060 female
-0.9063929 0.2403695 1.021472 0.9604545 -0.2757496 -0.03859167 12172744 female
-0.5077237 0.5178652 0.8525506 0.7165274 0.1173535 0.6876166 11053487 female
-0.9148734 -0.6651708 0.9130324 -0.5750915 0.7408898 0.3469177 16311770 female
-0.6924123 -0.2001617 0.885126 -0.9969208 -0.06635502 0.04178267 1579291 female
-0.616734 -0.006944547 0.9877276 0.1948901 -0.003889959 0.9808174 2499878 female
-0.6268225 0.4197769 0.7370125 0.3619307 -0.3699827 -0.8556396 9606042 female
-0.6886881 0.7465604 0.9283904 0.5671041 0.09223766 0.8184651 11896460 female
-0.6515394 0.1908398 0.7464084 0.153056 0.2611794 -0.9530787 15200255 female
-0.8997175 -0.7065856 0.8833165 0.1354568 -0.9861871 -0.09532343 722698 female
-0.6841123 0.6384474 0.8650131 0.4713269 0.146156 0.869764 13685215 female
-0.506826 0.5557482 0.8099827 0.8272867 0.4733249 -0.3025893 12567509 female
-0.8233803 -0.05097946 0.8290198 0.1189696 -0.3062296 -0.9444944 2500652 female
-0.5662719 0.5310879 0.7444915 0.4223404 -0.1623088 -0.8917872 14607351 female
-0.7277427 0.7746716 0.9239769 -0.1994373 -0.01245391 0.9798315 16773348 female
-0.767343 -0.0149649 0.9773831 0.7213022 -0.1507441 0.6760173 2170913 female
-0.5979935 -0.610772 0.7928587 0.9749391 -0.05496391 -0.2155752 1776155 female
-0.8322368 0.5196363 0.933583 -0.5382337 0.4879463 0.6871775 8684427 female
-0.8348081 -0.2400358 0.8789375 0.3135141 -0.1061792 -0.9436285 2500137 female
-0.6923906 0.2933924 0.9897393 0.2117681 0.1787771 0.9608293 6316394 female
-0.6531545 0.1669267 1.120592 -0.2766755 0.6803015 0.678705 12887203 female
-0.8653239 0.5062256 0.8782434 0.7049215 -0.2711059 0.6554289 15725559 female
-0.657134 0.2326834 0.9901597 0.4978741 0.1326122 0.8570504 13357798 female
-0.5693849 0.4868445 0.8564228 0.932541 -0.2430177 0.2670389 11777979 female
-0.8834665 -0.7221582 0.9529686 0.3799363 -0.9211854 -0.08405901 723723 female
-0.6587414 0.4424085 0.7213895 0.08198392 -0.2660523 -0.960466 15462391 female
-0.7079883 0.5329691 0.930162 0.06142626 0.6753667 0.7349195 3880764 female
-0.6102703 0.4566875 0.9622032 0.5181432 -0.0677434 0.8526069 13553884 female
-0.6886591 -0.05788293 0.821541 -0.5845693 -0.2275415 -0.7787834 2237481 female
-0.7079992 0.4830602 0.7154409 -0.1278364 -0.04253167 -0.9908829 13683420 female
-0.6024687 -0.5940961 0.8243499 0.7479125 -0.1545145 0.6455634 1907998 female
-0.660256 0.7081344 0.8455504 0.8935221 -0.2966976 0.3370293 12429467 female
-0.6120266 -0.4671628 0.8645204 0.002226314 -0.2923217 0.9563174 2105379 female
-0.6563419 0.2510548 0.9853081 0.5079964 0.1780604 0.8427539 12895958 female
-0.5459179 0.5895822 0.8555481 0.2785309 0.6445783 0.7119967 9869474 female
-0.7202142 -0.02719586 0.9211776 -0.9560863 -0.1484135 0.2527299 1907741 female
-0.6422979 0.02787341 0.762629 0.1216899 -0.5798389 -0.8055919 2171945 female
-0.5480833 -0.01486266 0.9287683 0.9162831 -0.0415245 0.3983729 1973537 female
-0.5714343 0.2260282 0.8920795 -0.8130757 -0.4143949 -0.4088823 10395046 female
-0.6184549 0.8511292 0.8348762 0.9869021 0.1303825 0.0949981 2368292 female
-0.5508864 0.4168335 0.7719857 -0.05020916 -0.2166409 -0.9749594 5131863 female
-0.851921 0.3136318 0.9160151 -0.8194689 0.228014 0.5258139 13621216 female
-0.8719652 -0.3084085 0.9641177 0.178515 -0.5169848 0.8371733 2106151 female
-0.9594739 -0.7007549 0.9506446 -0.8328169 0.5488276 -0.07214035 11112842 female
-0.5758399 0.111751 0.9481301 0.6487901 0.2212535 0.7280923 15330809 female
-0.6010383 0.04132357 1.087767 -0.8170649 0.4575748 0.3507566 14596786 female
-0.513799 0.5672155 0.8419017 0.7247505 0.5348418 0.4343743 11779772 female
-0.8694836 -0.5792122 0.8258166 0.8250778 -0.04620073 -0.5631271 2564904 female
-0.6067231 -0.3873227 0.8889953 0.07099185 -0.2777289 0.9580328 2170403 female
-0.8486529 0.4288148 0.9245837 -0.7504962 -0.5054306 0.4257878 2828844 female
-0.6926759 0.6138606 0.8787881 0.1095727 0.5245109 0.8443235 15263984 female
-0.9085255 -0.630761 0.8832747 -0.7729276 0.2728446 0.5728339 2236968 female
-0.9039384 0.6065252 0.8254389 -0.6833802 0.6808243 -0.2635714 14015722 female
-0.711752 0.2425056 0.7591726 -0.03635123 0.2903131 -0.956241 13948650 female
-0.5525391 0.5332819 0.8695049 -0.02666466 -0.02788809 0.9992553 13684696 female
-0.901014 0.3560507 0.8362955 0.4489985 -0.4822518 -0.7522191 2763818 female
-0.8311234 -0.4091966 0.8672712 0.9831017 -0.08854415 -0.1602217 1776673 female
-0.8427108 0.0008583637 0.8078052 -0.1349738 -0.5073108 -0.8511273 2895412 female
-0.6532388 0.5258938 0.9351921 0.1338611 0.6470855 0.7505741 12765138 female
-0.5891494 -0.5422273 0.7925677 0.9049411 -0.1836424 -0.3838712 1579035 female
-0.6272017 -0.1177378 0.8109212 0.01526908 -0.09385092 -0.9954692 2106409 female
-0.9549122 -0.6965028 0.9437808 -0.5067739 0.8619609 0.0142706 16309463 female
-0.780823 0.2679309 0.7700925 -0.09305824 0.1511918 -0.9841145 15265016 female
-0.9028261 -0.6606901 0.9175782 -0.2707822 0.8311616 0.4856414 16774119 female
-0.603038 -0.1048696 0.8135774 0.3101232 -0.0850976 -0.9468801 2171945 female
-0.582197 -0.3545196 0.8923579 0.5762128 -0.2023985 0.791842 2171945 female
