# .PCD v0.7 - Point Cloud Data file format
VERSION 0.7
FIELDS x y z normal_x normal_y normal_z rgb label
SIZE 4 4 4 4 4 4 4 4
TYPE F F F F F F U U
COUNT 1 1 1 1 1 1 1 1
WIDTH 170
HEIGHT 1
VIEWPOINT 0 0 0 1 0 0 0
POINTS 170
DATA ascii
-0.9738303 0.1319389 -0.2459705 -0.829379 0.04990601 -0.556453 11910347 female
-0.6901864 0.1635058 -0.2992701 0.549373 0.06475411 -0.8330643 9803174 female
-0.9583284 -0.4198578 -0.1171839 0.4428122 -0.2913359 0.8479627 2170913 female
-0.6324562 0.1178536 -0.08177085 -0.8662902 0.03967937 -0.4979626 11974331 female
-0.683111 -0.3017798 -0.2577806 -0.0715097 0.3686896 -0.9267979 2698289 female
-0.6517676 -0.1931471 -0.1202096 0.6823335 -0.1652563 0.7121176 2170145 female
-0.9469121 0.3230058 -0.2110755 -0.9518839 0.1123593 -0.2851184 12173257 female
-1.000492 -0.7044151 -0.1269594 0.05786479 -0.9811193 -0.1845439 657418 female
-0.9464431 -0.5103261 -0.1734963 0.9615912 -0.2297586 0.1501775 1841948 female
-1.028517 0.1880389 -0.05351301 0.9243774 -0.3674545 -0.1024868 12764108 female
-1.038347 0.4812264 -0.1811644 -0.974201 0.1311714 0.183648 7829376 female
-0.9420588 0.31226 -0.2266288 -0.887521 0.1027818 -0.4491574 4013123 female
-0.9887344 -0.5277007 -0.2180997 -0.1455668 0.03946203 -0.9885612 2499883 female
-0.9872792 0.377968 -0.1538846 0.7148682 -0.08302886 0.6943124 14213617 female
-0.6134672 0.4906349 -0.3005278 0.5361598 0.07755491 -0.8405463 8289676 female
-0.6337169 0.02273455 -0.1223782 0.8699813 0.06478061 0.4888109 1973536 female
-0.9848581 0.1444315 0.09161302 0.962706 -0.0638093 -0.2629175 11901590 female
-0.878601 0.06786701 -0.04907613 0.3339563 0.2155826 0.9176041 2434601 female
-0.9096346 -0.2699898 -0.1284237 0.8906793 -0.2366234 -0.3882007 1973278 female
-0.694689 -0.6091644 -0.2091076 -0.7032145 0.1817439 0.6873562 2565671 female
-0.9949773 0.4169712 -0.1441666 0.3387904 0.01692194 0.9407097 13288397 female
-0.9457452 0.4013922 -0.1681426 -0.9522032 -0.1226911 0.2797426 14672877 female
-1.076438 0.2252798 -0.07365724 -0.9979713 -0.06214094 0.01384612 5397866 female
-0.6768879 0.3409574 -0.1637059 0.9045957 0.1221653 0.4083899 3420469 female
-0.9516591 0.4218651 -0.1662764 -0.9117648 -0.3197778 0.2577344 14738664 female
-0.6193569 0.3611266 -0.2190245 0.03243811 -0.0004536908 0.9994737 14147815 female
-0.7264188 0.2432006 -0.07342872 0.6057115 0.1414966 0.7830021 13620456 female
-0.7220572 0.2388338 -0.293867 0.2581965 0.3238334 -0.9102013 5327965 female
-0.7348107 0.8767989 -0.26525 0.8095199 0.4289576 -0.4008402 2631463 female
-0.7298385 0.4751932 -0.08220863 0.07676507 0.1738574 0.9817743 14606327 female
-0.5792054 0.2467433 -0.2396878 0.6497502 -0.4288352 -0.6276345 11317177 female
-0.6321577 -0.4203156 -0.2477038 0.9351805 -0.04024127 -0.3518778 1579808 female
-0.9782042 -0.03917181 -0.1958307 -0.5920756 -0.2366342 -0.7703575 2631470 female
-0.9089772 -0.2029003 -0.1543699 0.587047 -0.1342721 -0.79834 2171688 female
-0.647826 -0.6752268 -0.2323579 0.936754 0.1641925 -0.3090839 13087919 female
-0.8327607 0.8301654 -0.3129449 -0.3611305 -0.08015208 -0.9290642 14338761 female
-0.7341343 0.7647418 -0.1998938 0.9654587 -0.2452917 -0.08787227 15260103 female
-0.9239727 0.6497231 -0.2576562 -0.5319129 0.7029793 -0.472111 12437462 female
-0.9657964 0.160156 -0.09763079 -0.6727689 0.2919431 0.6798171 6580853 female
-0.7943541 0.6096036 -0.3146121 -0.2277704 0.2432618 -0.9428384 13950196 female
-0.6337479 -0.1807509 -0.1489941 0.9564443 -0.09597981 0.275685 2105377 female
-0.7986032 0.3469608 -0.06577683 0.1088576 0.2228462 0.9687567 15067640 female
-0.8848554 0.08169143 -0.2998855 -0.1449653 -0.2932678 -0.9449757 2960949 female
-0.7804523 0.1167153 -0.06168084 0.2989023 -0.370849 0.8792772 4013901 female
-1.026348 0.5526444 -0.167908 -0.8118156 0.3704508 0.4513554 7304056 female
-0.947225 0.3394744 -0.1670207 -0.9771266 0.1052351 0.1847949 14935792 female
-0.7226878 0.2860906 -0.2854535 0.346029 -0.02553463 -0.9378763 13488354 female
-0.7932997 -0.06598972 -0.169411 -0.9665591 -0.2466414 0.07022578 2433573 female
-0.6218268 -0.03757051 -0.199982 0.9624844 -0.1239608 -0.241366 2105122 female
-0.6492944 0.6090803 -0.2246811 0.2962526 0.8276299 0.4767213 12699337 female
-0.9198291 0.1803695 -0.07478564 -0.4151735 0.0434542 0.9087038 14607351 female
-0.7439922 0.7729473 -0.2550047 0.7883178 -0.4645694 -0.4033984 2499619 female
-0.6735174 0.4485917 -0.2880457 0.7801317 -0.3406168 -0.5247615 13553878 female
-0.9433582 -0.288987 -0.1637649 0.5578839 0.307826 -0.7707196 2697257 female
-1.000685 0.5253143 -0.2438342 -0.3381622 -0.009341171 -0.9410415 9671839 female
-0.8466241 0.7232087 -0.2480352 -0.8690116 0.09792694 -0.4850041 5984074 female
-0.9359091 -0.1106663 -0.03111619 0.04333273 -0.09349109 0.9946767 2171944 female
-0.6511382 0.5998847 -0.2107181 0.2289163 0.6683745 0.7077237 15330803 female
-0.7911003 0.5276534 -0.1035633 0.1592246 0.650861 0.7423123 14146792 female
-0.9113874 -0.04524989 -0.2132105 0.06563115 -0.3373457 -0.9390903 2500651 female
-0.7780047 0.8150227 -0.1222084 0.828957 0.3624285 0.4259999 14599093 female
-0.7296327 -0.1925474 -0.1178749 -0.585644 -0.2408655 0.773954 2170913 female
-0.8887306 0.4016042 -0.2907101 -0.3953461 -0.2661165 -0.8791379 15198199 female
-0.9005855 -0.01720109 -0.03448739 0.2889529 -0.01977187 0.9571391 2170916 female
-0.7095044 -0.2820565 -0.1397344 -0.4958015 -0.4306548 0.7541336 2170913 female
-0.9888347 -0.008576769 -0.1964427 -0.7261769 -0.2645186 -0.6345841 2500907 female
-0.7254205 0.3959478 -0.1097102 0.608124 0.1515775 0.7792364 15724543 female
-0.6786225 0.3220347 -0.1539191 0.8695052 0.170265 0.4636492 6183780 female
-1.011659 -0.2917968 -0.1685804 -0.6096164 0.3851366 -0.6928475 2171945 female
-0.707238 -0.1988982 -0.1079387 -0.2738119 -0.2239456 0.9353477 2170401 female
-0.7926471 0.1004675 -0.06663597 0.1626688 -0.5690089 0.8060817 2500391 female
-0.9324421 -0.2560594 -0.1510898 0.3351796 -0.03342437 -0.9415612 2631471 female
-0.9939461 -0.6899832 -0.201103 -0.03766311 -0.9911715 -0.1271241 919562 female
-0.8999952 -0.2339141 -0.08826289 0.8841597 -0.2861179 0.3693213 1973534 female
-0.9790831 0.0623842 -0.2373068 -0.7679695 -0.2072656 -0.606023 2499881 female
-1.041879 0.1130727 0.02157734 0.9498072 -0.3122948 -0.01839458 6642776 female
-0.9287916 -0.005987833 -0.2298013 -0.1467693 -0.4600042 -0.8757025 2763826 female
-1.010366 -0.6586981 -0.2310925 -0.8528967 0.2545846 -0.4558003 16770006 female
-0.614405 0.1973789 -0.1351549 -0.6349576 0.4558769 0.6237027 15068412 female
-0.6961867 -0.08426475 -0.08399272 0.04809503 -0.166655 0.9848416 2171944 female
-1.063237 0.2523005 -0.06070376 -0.5407543 0.5303587 0.6529199 13424860 female
-0.6596391 0.4734938 -0.259884 0.9166704 -0.388708 -0.09285109 11777205 female
-1.03888 0.3883653 -0.1473506 -0.5049579 0.272657 0.8189479 14016221 female
-0.9778348 -0.3970204 -0.101317 0.1778199 -0.2941037 0.9390863 2169889 female
-0.9411958 -0.2892357 -0.1623829 0.5833411 0.2945682 -0.7569298 2631464 female
-0.9247952 0.3791616 -0.261142 -0.7278879 -0.2072572 -0.6536235 13290199 female
-0.7729015 -0.124796 -0.2028068 -0.9201986 -0.2107445 -0.3298807 1972766 female
-0.6192285 0.06451991 -0.1782856 0.9913847 0.08605214 0.09874868 1908257 female
-0.7629746 0.8249875 -0.3061418 0.5443135 -0.1146699 -0.8310075 3420972 female
-0.6087046 0.0588937 -0.02392495 0.2474205 -0.9414217 -0.2291464 1642769 female
-0.8718539 -0.02531617 -0.2125741 0.4291633 -0.4028775 -0.8083987 2697257 female
-0.8451211 0.07965989 -0.2985379 -0.09475308 -0.3592195 -0.9284305 2171687 female
-1.00159 -0.2582094 -0.1540883 -0.5497355 0.3448869 -0.7608179 2565673 female
-0.9482619 0.2694429 -0.2321894 -0.7432783 0.3970445 -0.5384172 3090992 female
-0.7657421 -0.1743537 -0.1927627 -0.9728826 -0.1160481 -0.2000804 2170913 female
-0.6710935 0.2890756 -0.2365149 0.9016419 0.07623383 -0.4257115 14082023 female
-0.7417014 -0.36721 -0.2200232 -0.9939131 0.02565034 0.1071392 1776161 female
-0.7868105 0.4945463 -0.0866657 0.1390986 0.3469962 0.927494 14738420 female
-0.8252604 0.02739887 -0.1959836 0.7951798 -0.5200711 -0.3117933 2170913 female
-0.9587797 0.6349982 -0.2089582 -0.480448 0.8635764 0.1529887 12370114 female
-0.6285101 -0.06316003 -0.1288046 0.9202529 -0.0740582 0.3842526 1973537 female
-0.6515352 -0.6618469 -0.2423267 0.9465106 0.05844977 -0.3173348 2105376 female
-1.012611 -0.5698215 -0.1926752 -0.9694386 -0.04515245 -0.2411436 1579032 female
-0.6272553 0.6012998 -0.2521881 0.6269597 0.7714359 -0.1086657 9013393 female
-0.9358528 -0.252568 -0.1518585 0.2885424 -0.03413882 -0.9568583 2698289 female
-1.021311 0.2194597 -0.104554 0.7703641 -0.5691604 -0.2873946 9474457 female
-0.5965965 0.4601607 -0.2815798 0.8912975 0.02842382 -0.4525271 15461628 female
-1.010146 -0.6526979 -0.1333528 -0.6545882 0.6763996 0.3376358 15785175 female
-0.7639584 -0.1538637 -0.2084549 -0.8908522 -0.1516993 -0.4282168 2170914 female
-0.6862679 1.613982E-06 -0.07641001 0.2900994 0.005800245 0.9569789 2499878 female
-0.7263506 0.4280813 -0.3187605 0.2777041 -0.3506043 -0.8944032 9606042 female
-0.7966219 0.7782198 -0.1182593 -0.3969327 0.1649622 0.9029019 13611434 female
-0.7470038 0.1973521 -0.3116629 0.06768423 0.2740482 -0.9593313 15200255 female
-1.02613 -0.6912218 -0.1709933 -0.647841 -0.6622097 -0.3765373 526344 female
-0.7749205 0.6445892 -0.1834659 0.5637992 0.1586237 0.8105361 13685215 female
-0.6467631 0.5261235 -0.3116116 0.1503963 -0.1803197 -0.972042 9409180 female
-0.9011052 -0.03430291 -0.2170945 0.1443198 -0.3682492 -0.9184576 2105124 female
-0.6865786 0.559957 -0.3259791 0.3574773 0.03364202 -0.9333157 11186367 female
-0.7972161 0.7562908 -0.1168099 -0.3371173 0.06150753 0.9394513 11173769 female
-0.8481137 -0.009008403 -0.06821203 0.7514483 -0.1541647 0.6415284 2170913 female
-0.6638218 -0.5557916 -0.2685784 0.6555965 -0.1461405 -0.7408348 1973281 female
-0.8898495 0.5146178 -0.0828793 -0.2532245 0.5878516 0.7683149 15133430 female
-0.9073144 -0.243971 -0.1391038 0.7589437 -0.2246015 -0.6111944 2105124 female
-0.7858928 0.2971899 -0.06115964 0.1767641 0.1398656 0.9742649 7434876 female
-0.6401413 0.1069084 -0.0006804024 0.5866907 0.7160221 0.3782939 14797496 female
-0.9585896 0.5004312 -0.1596375 0.7073743 -0.3507561 0.6136707 15725559 female
-0.7437994 0.2497425 -0.0635964 0.4782848 0.1617718 0.8631763 5130576 female
-0.666258 0.5218464 -0.1798558 0.8265983 -0.08218785 0.5567588 14606311 female
-0.9660017 -0.6953918 -0.1065545 0.9165189 -0.3960853 -0.0557638 6641752 female
-0.7602358 0.4502189 -0.3306961 -0.01422754 -0.2512231 -0.9678246 15462391 female
-0.7741453 0.5402683 -0.120577 0.0383181 0.6368319 0.7700499 9145496 female
-0.6857586 0.478993 -0.100602 0.6255466 0.2516477 0.7384883 7895428 female
-0.7721916 -0.05411228 -0.2352779 -0.6474004 -0.2508796 -0.719675 2237481 female
-0.8223116 0.4937209 -0.3289985 -0.2146881 0.04886354 -0.9754596 15526648 female
-0.6576383 -0.5909401 -0.2158583 0.8038684 -0.06779359 0.5909312 1907998 female
-0.7556914 0.7156046 -0.2063247 0.9348072 -0.2636139 0.2379981 12429467 female
-0.6710834 -0.4615176 -0.1857601 0.09471856 -0.2107997 0.9729295 2105379 female
-0.7322036 0.2727561 -0.07675057 0.583504 0.1780134 0.7923599 14342371 female
-0.6834801 0.5964833 -0.1979765 0.3306148 0.5625311 0.7577946 11646908 female
-0.7917789 -0.03304486 -0.1284754 -0.8978375 -0.2106198 0.3866873 1579295 female
-0.8048968 0.07470381 -0.3085234 -0.3060482 -0.3162925 -0.8979385 2764858 female
-0.62366 -0.005389733 -0.1422019 0.9511492 -0.004787288 0.3086945 1973537 female
-0.6428955 0.2702152 -0.2204704 -0.9326929 0.06013028 0.3556237 15198199 female
-0.7248389 0.8718317 -0.2400951 0.9226092 0.3468905 -0.1686991 2039327 female
-0.6559807 0.4769452 -0.3091775 -0.2269784 -0.1371859 -0.9641892 12961486 female
-0.9357477 0.2681277 -0.1071081 -0.6961485 0.3175432 0.6438506 3289402 female
-0.9665671 -0.2932944 -0.06158155 0.07607652 -0.5310131 0.8439416 2630696 female
-1.04905 -0.6928663 -0.1051073 -0.8910452 0.4295321 -0.1467675 14534080 female
-0.6542618 0.1188877 -0.1198489 0.7074454 0.238617 0.6652691 15330809 female
-0.599349 0.03390792 -0.07063013 -0.7765589 -0.1852439 0.6021967 12297634 female
-0.6141798 0.5882233 -0.2396121 0.7098122 0.6879892 0.1511211 12369597 female
-0.961702 -0.5781942 -0.2030463 0.9421951 -0.09837855 -0.3202969 2039327 female
-0.6682739 -0.3797812 -0.1685072 0.1627174 -0.1943883 0.9673346 2170403 female
-0.9458339 0.3711763 -0.1677875 -0.9697132 0.0003649108 0.2442464 10593705 female
-0.7942391 0.616728 -0.1662766 0.1433254 0.5415651 0.8283508 11974596 female
-1.000106 -0.6678482 -0.09705714 -0.2213789 0.8712514 0.4380781 16637655 female
-1.002743 0.6028367 -0.1911273 -0.697632 0.7163831 -0.01023413 14607335 female
-0.7935986 0.2698114 -0.2889806 -0.1680472 0.1959673 -0.966104 15201279 female
-0.6185566 0.5499407 -0.2058441 0.4149329 0.1485097 0.89765 5789280 female
-1.015468 0.3947292 -0.2274891 -0.2138753 -0.2058872 -0.9549177 12897242 female
-0.9242831 -0.3987434 -0.1678334 0.9778333 -0.08843804 -0.189791 1776673 female
-0.9431609 -0.02073528 -0.2197409 -0.2535601 -0.3689616 -0.8941894 2763826 female
-0.7498316 0.5301016 -0.1131929 0.126015 0.638025 0.7596344 15659774 female
-0.6568728 -0.6200288 -0.2166437 0.8889761 0.07822025 0.451224 2829616 female
-0.6722087 -0.06360295 -0.2506415 0.372272 -0.1514666 -0.9156808 2303275 female
-1.05292 -0.6975182 -0.08750974 -0.9918061 -0.01186539 -0.1272001 11112072 female
-0.8651314 0.2385039 -0.2870004 -0.185734 0.2988518 -0.9360504 15201018 female
-1.009435 -0.6461747 -0.1421923 -0.7277473 0.594902 0.3412852 11970722 female
-0.6852566 -0.1236014 -0.2505885 0.2068567 -0.07940231 -0.9751439 2171945 female
-0.6503283 -0.3282484 -0.1638971 0.6245236 -0.1825661 0.7593681 1777187 female
