# .PCD v0.7 - Point Cloud Data file format
VERSION 0.7
FIELDS x y z normal_x normal_y normal_z rgb label
SIZE 4 4 4 4 4 4 4 4
TYPE F F F F F F U U
COUNT 1 1 1 1 1 1 1 1
WIDTH 132
HEIGHT 1
VIEWPOINT 0 0 0 1 0 0 0
POINTS 132
DATA ascii
-2.794681 0.4621059 0.5859472 -0.5227325 0.146543 0.839807 9598321 male
-2.884309 0.04598939 0.5322825 -0.9735152 0.02862479 0.2268233 8687244 male
-2.707611 0.09701681 0.5461273 -0.8571652 -0.08557929 0.5078818 5393748 male
-2.875554 -0.0004709661 0.4850955 -0.8920367 -0.1018174 -0.440345 8216672 male
-2.780011 0.3342126 0.6048382 -0.5752991 -0.09547136 0.8123522 8151396 male
-2.617017 -0.3848132 0.4232552 -0.9022694 0.003362712 -0.4311597 7162182 male
-2.839598 0.6940055 0.4125414 -0.5939109 0.7834535 -0.1829497 7756109 male
-2.846485 0.604522 0.4892594 -0.8117049 -0.3722258 0.4500922 7034960 male
-2.735598 0.8532668 0.5368435 -0.5454536 0.2522311 0.7992871 6505023 male
-2.567584 0.2160341 0.5008594 0.9894688 0.04871675 0.1363019 9936295 male
-2.837996 -0.350264 0.4784308 0.9763137 -0.1071856 0.1879437 6637388 male
-2.654485 0.8279967 0.4329738 0.9359357 -0.3484597 -0.05099267 6897978 male
-2.637754 0.5840101 0.3362006 0.2879818 -0.1103618 -0.9512553 10581351 male
-2.743959 0.3308027 0.6184154 -0.1149588 -0.1193047 0.9861799 9663859 male
-2.860722 0.2886081 0.4575631 -0.9498613 0.2778593 -0.1433796 9342869 male
-2.813605 -0.1623484 0.4938515 0.9244712 0.1682381 -0.3421242 7032652 male
-2.686138 -0.05839185 0.4841875 -0.9554315 -0.06253996 -0.2885126 7556430 male
-2.926835 0.5705398 0.4398896 -0.9385019 0.2772304 -0.2058096 5980722 male
-2.697024 0.6416366 0.5344182 0.005717935 0.4844982 0.8747735 9400422 male
-2.828496 0.5051371 0.5456505 -0.7705967 0.06179755 0.63432 9862261 male
-2.759162 0.7742649 0.4777237 -0.8568277 -0.04120966 0.5139534 9529184 male
-2.869028 0.09822973 0.5554847 -0.8322856 0.1369935 0.5371531 4407875 male
-2.615966 -0.45579 0.5613186 0.2007956 0.8869783 0.4158732 15451336 male
-2.553932 0.5571874 0.392576 -0.1292184 -0.4229124 -0.8969101 10779249 male
-2.696106 -0.003976148 0.5094278 -0.9542171 -0.2232492 0.1990716 3942955 male
-2.689662 0.2691591 0.381613 0.04909136 0.2838819 -0.9576018 8093828 male
-2.763903 0.4153748 0.3693424 -0.1037884 -0.2825493 -0.9536215 11042678 male
-2.593289 0.3113503 0.5203981 0.8664742 0.05126461 0.4965828 10979209 male
-2.572636 0.1480067 0.5381543 0.9030005 0.09238681 0.4195889 9344927 male
-3.003611 0.3038354 0.576077 -0.9586326 0.05484676 0.2793123 6113095 male
-2.795198 0.5997763 0.3342099 -0.3028146 -0.003460752 -0.9530432 10843499 male
-2.608312 0.4646911 0.5428168 0.8050447 0.1063976 0.5835946 10847876 male
-2.90831 -0.194425 0.4848278 -0.9683354 0.1283227 -0.214149 7362903 male
-2.951689 0.3084778 0.5242011 0.8499714 -0.4531255 -0.2687488 6110268 male
-2.793786 0.8562462 0.4255112 -0.167458 0.565135 0.8078244 10445917 male
-2.586201 0.5817184 0.4362777 -0.9646656 -0.2560126 0.06227206 5454138 male
-2.85646 0.1740108 0.5482947 -0.745472 0.254576 0.6160055 5527382 male
-2.863126 0.590357 0.3976556 0.336688 -0.4493456 -0.8274839 5913649 male
-2.572057 -0.1943977 0.4369283 0.7096185 0.1926958 -0.6777241 7163467 male
-2.704435 0.2636826 0.3788888 0.0358575 0.2731108 -0.961314 9080728 male
-2.636327 0.1909691 0.378309 0.4549168 -0.04926495 -0.8891702 7042170 male
-2.491943 0.3392566 0.4691142 0.7467379 -0.5079084 -0.4294317 7558481 male
-2.636479 0.9336056 0.4046355 0.941565 0.3001116 -0.1529328 1248008 male
-2.739746 0.5290634 0.5803559 0.03179686 0.3577361 0.9332812 10060664 male
-2.784084 0.9225484 0.4244473 -0.9859619 0.1651684 -0.02446604 3614496 male
-2.59364 -0.2320032 0.418622 0.2977131 0.01942126 -0.9544578 5190702 male
-2.560041 0.6547759 0.470951 0.2333127 0.1702938 0.9573741 11636616 male
-2.645296 0.05383709 0.4260179 -0.002421691 -0.2145967 -0.9766998 9344671 male
-2.773896 0.6282954 0.5400472 -0.1695988 0.5715185 0.8028716 9466218 male
-2.589339 0.6155667 0.4770734 0.6086226 -0.627892 0.4851083 9269356 male
-2.823943 0.6451901 0.3586527 -0.521892 0.1166116 -0.8450033 9332567 male
-2.667996 0.1216866 0.5795544 -0.2838603 -0.005273979 0.9588511 5724509 male
-2.767563 0.008187647 0.458031 0.6338741 -0.3235447 -0.7025115 7495524 male
-2.642863 0.2432793 0.5706944 0.4548657 -0.1249779 0.881747 7040371 male
-2.845473 0.6315663 0.4451228 -0.1439079 -0.7910474 0.5945877 7690326 male
-2.770682 0.9296225 0.3759187 -0.8510497 0.2365709 -0.4687736 1642768 male
-2.817474 -0.1026835 0.4876964 0.4668439 -0.1237337 -0.8756407 8939623 male
-2.697204 0.5202194 0.5840303 -0.003205239 0.3690516 0.9294034 9598833 male
-2.661302 0.7337261 0.4476595 0.9526048 0.2524967 0.1696753 8215123 male
-2.865152 -0.4546792 0.4391291 0.2725225 -0.8164732 -0.5090215 4206380 male
-2.853174 0.1120621 0.4389525 -0.7409341 -0.170471 -0.6495816 6908529 male
-2.615175 -0.4155346 0.4820666 -0.8738512 0.3510531 0.3363714 9464693 male
-2.569272 -0.3024137 0.4716119 0.9440588 -0.2118931 0.2526941 8085344 male
-2.845296 0.6788703 0.3958785 -0.7101011 0.5299127 -0.4636258 8872533 male
-2.737542 0.03751157 0.4876509 0.9277725 -0.3066455 -0.2126186 5264469 male
-2.542967 -0.4655509 0.4865401 0.9243987 -0.1144859 -0.3638406 3943212 male
-2.551613 0.4904149 0.4095328 -0.9468694 0.00383796 0.3215954 8413789 male
-2.692697 0.6841381 0.5063004 0.1411445 0.5124668 0.8470277 8479577 male
-2.638057 0.03759639 0.5774467 -0.1556401 -0.1419675 0.9775589 7302769 male
-2.559613 -0.4540376 0.4308926 0.9591281 -0.00886701 -0.2828332 7032145 male
-2.84922 0.6510689 0.4760902 -0.06705476 -0.0843858 0.9941744 10322812 male
-2.914965 0.4023356 0.4417482 0.8461406 -0.5131474 -0.1439653 9204340 male
-2.832565 0.5127227 0.539569 -0.7939252 0.06106478 0.6049412 10059640 male
-2.690799 0.9237424 0.3389112 0.2464171 0.1954651 -0.9492481 2037520 male
-2.591347 0.4685973 0.4187982 0.9058447 -0.2455847 -0.3451572 10055280 male
-2.857583 0.6243793 0.3765593 -0.4088835 -0.1594244 -0.8985534 9923686 male
-2.588309 -0.3337925 0.4875264 0.4671373 -0.207841 0.8594096 7558490 male
-2.83879 0.497479 0.3909566 -0.7764671 -0.2149799 -0.5923533 10252138 male
-2.998734 0.310755 0.620365 -0.005479664 0.8321633 0.5545035 7887713 male
-2.734581 0.9859436 0.4495185 -0.388425 0.9137871 0.1188242 2693400 male
-2.905247 -0.2574914 0.4729285 -0.9546892 -0.1002891 -0.2801974 5324345 male
-2.790885 0.2395313 0.5669034 -0.4747024 -0.0831559 0.8762093 6119263 male
-2.967023 0.4851587 0.4213915 -0.9684609 0.2393517 -0.06924004 5126189 male
-2.924179 0.3318892 0.5938069 0.9433206 0.2481256 -0.2204084 6440263 male
-2.904936 -0.2596792 0.4981954 -0.9608885 -0.1721263 0.2169465 6114124 male
-2.572899 0.2192131 0.4591877 0.944308 -0.01490797 -0.328725 7239551 male
-2.879489 -0.09082046 0.4955516 -0.7261959 0.1536072 -0.6701077 8544865 male
-2.80211 -0.1054779 0.5536174 0.7021312 -0.3328807 0.6294459 6571594 male
-2.63673 0.8847632 0.4057639 0.9646401 -0.1811045 -0.1914956 919042 male
-2.824577 0.3326699 0.4086819 -0.6106245 -0.07569122 -0.7882947 8742244 male
-2.652708 0.7308901 0.4068137 0.6394204 0.7075768 -0.3007933 7030849 male
-2.99635 0.2878671 0.6353849 -0.3021246 -0.8719555 -0.3852458 1050632 male
-2.563603 0.1502554 0.4981983 0.9984174 0.05343797 0.0175247 9474712 male
-2.500965 0.2664711 0.5766734 -0.7683122 -0.2686411 -0.580972 7095625 male
-2.691016 0.3929618 0.6189169 0.09523129 0.100301 0.9903892 8940655 male
-2.683312 0.116479 0.5736398 -0.4941375 -0.04957984 0.8679689 4933451 male
-2.883127 -0.1049325 0.5444697 -0.9476026 0.05596514 0.3145112 6966606 male
-2.583344 -0.3488137 0.4326634 0.8138708 -0.1405338 -0.5637947 5917002 male
-2.663859 0.9249106 0.5048921 0.7243389 0.3263115 0.6073335 8148563 male
-2.882412 -0.06351963 0.5066301 -0.9706461 0.07320981 -0.229099 8281693 male
-2.596164 -0.122268 0.5497234 0.6903649 -0.1792276 0.7009093 7096907 male
-2.85584 0.5353523 0.482617 -0.9621641 0.05487411 0.2668877 6507590 male
-2.5875 -0.3858659 0.4196545 0.5822404 -0.06986405 -0.8100093 5061179 male
-2.575873 -0.4041259 0.47984 0.7810134 0.3956407 0.4832044 8808554 male
-2.932794 0.3237369 0.5872659 0.2416941 -0.9683954 -0.06159782 5981769 male
-2.818543 -0.2511711 0.5116395 0.7236699 -0.2541828 0.641633 6769742 male
-2.505089 0.4290709 0.3751897 0.1287171 -0.6011131 -0.7887299 7557458 male
-2.6203 0.3811974 0.394582 0.6005436 -0.02850754 -0.7990837 8806236 male
-2.666515 0.09047119 0.5765691 -0.3726805 -0.1069146 0.9217801 6249823 male
-2.596956 0.3953631 0.5370931 0.8629862 0.009889677 0.5051307 12755617 male
-2.661127 0.9676012 0.3887518 0.6288823 0.7167417 -0.3013111 1313800 male
-2.902863 0.5838287 0.4085699 -0.6343583 -0.08275116 -0.7685973 7360839 male
-2.678688 0.8770642 0.3445505 0.4238814 -0.2409512 -0.8730791 1380621 male
-2.745375 0.8464554 0.5313218 -0.4303104 -0.0223847 0.9024034 7360071 male
-2.823065 -0.05869422 0.4642781 0.1696385 -0.1888145 -0.9672496 9730419 male
-2.898424 -0.1465032 0.4972763 -0.9269692 0.2884214 -0.2398774 9136741 male
-2.795376 0.2838018 0.5737633 -0.5684687 -0.1211362 0.8137379 6644838 male
-2.784479 0.5011119 0.3524177 -0.2963177 -0.2613452 -0.9186373 9988451 male
-2.882645 -0.01013838 0.5101687 -0.9848929 -0.1048912 -0.1377815 7361103 male
-2.882063 -0.4576746 0.4427109 -0.1912202 -0.8911604 -0.411422 5391681 male
-2.736654 0.8607803 0.345928 -0.3524314 -0.3170184 -0.8805063 2431508 male
-2.673233 0.881053 0.517174 0.4887061 0.2645898 0.8313595 8608087 male
-2.696608 0.1028059 0.4292447 -0.6473938 -0.4240058 -0.6333248 6514027 male
-2.712667 0.1879154 0.5987207 0.1955034 -0.04031949 0.9798738 7039857 male
-2.603585 -0.4637097 0.4173815 -0.5197328 -0.8177217 -0.2474048 2632231 male
-2.52549 0.3792488 0.4197852 -0.5594503 -0.627932 -0.5410332 10715522 male
-2.733207 0.04382332 0.5043336 0.9716935 -0.2324489 0.04218016 3026479 male
-2.867837 -0.310989 0.5133255 0.006579076 -0.2266868 0.9739455 7361103 male
-2.635739 0.3285424 0.3954903 0.3221612 -0.202991 -0.9246658 8542296 male
-2.631095 0.6599867 0.4958761 0.3534911 0.5540229 0.7537259 9334629 male
-2.648844 0.03969743 0.5752342 -0.3177584 -0.1426353 0.9373819 7105644 male
-2.900225 0.5395179 0.4121002 -0.04724417 -0.3648432 -0.9298695 9332061 male
