# .PCD v0.7 - Point Cloud Data file format
VERSION 0.7
FIELDS x y z normal_x normal_y normal_z rgb label
SIZE 4 4 4 4 4 4 4 4
TYPE F F F F F F U U
COUNT 1 1 1 1 1 1 1 1
WIDTH 132
HEIGHT 1
VIEWPOINT 0 0 0 1 0 0 0
POINTS 132
DATA ascii
-2.792617 0.4611863 0.5878592 -0.5256483 0.1428163 0.8386282 9598321 male
-2.881877 0.04472413 0.5298561 -0.9757461 0.02355057 0.2176347 8687244 male
-2.67389 0.1124778 0.5775716 -0.3834364 -0.0728211 0.920692 5526868 male
-2.872455 -0.001382762 0.4822784 -0.8873364 -0.1018132 -0.4497422 8216672 male
-2.778864 0.3540605 0.6056052 -0.5865092 0.006129019 0.8099194 8940137 male
-2.61481 -0.3557017 0.421348 -0.5267445 0.01502229 -0.8498909 7033162 male
-2.81911 0.6920962 0.3859751 -0.5334633 0.6036741 -0.5924479 7688772 male
-2.837633 0.6247036 0.4934866 -0.6239696 -0.3177852 0.7139149 10454142 male
-2.725414 0.8406376 0.5449788 -0.5303193 0.08826617 0.8431907 5846581 male
-2.56742 0.1920451 0.4736802 0.9734209 0.04803821 -0.2239286 7237750 male
-2.834827 -0.3527875 0.476555 0.9743415 -0.1080313 0.1974538 6637388 male
-2.65051 0.8276799 0.4383225 0.93472 -0.3514038 -0.05304511 6897978 male
-2.641018 0.5684214 0.3408129 0.223831 -0.2368778 -0.9454039 10975861 male
-2.74257 0.3293865 0.619555 -0.1210617 -0.1261009 0.9846028 9663859 male
-2.858285 0.2881885 0.457541 -0.9490648 0.2779572 -0.1483775 9342869 male
-2.809854 -0.1644656 0.4895065 0.9274133 0.1623721 -0.3369568 7032652 male
-2.683423 -0.05896551 0.4834615 -0.9529522 -0.06408334 -0.2962691 7556430 male
-2.921724 0.5762302 0.443589 -0.942127 0.3335721 -0.03355928 7560530 male
-2.706455 0.6576996 0.5285817 0.03041861 0.5127667 0.8579889 8151642 male
-2.826105 0.504654 0.5477282 -0.7727429 0.06063269 0.6318165 9862261 male
-2.755415 0.7739953 0.4825756 -0.8569344 -0.04198675 0.5137125 9529184 male
-2.882241 0.07453143 0.5074064 -0.9993767 0.0320805 -0.01473262 6645352 male
-2.62344 -0.4483379 0.5584005 -0.2601617 0.8716205 0.4154438 16772087 male
-2.551868 0.5574715 0.3934605 -0.1490306 -0.4041085 -0.9024889 10779249 male
-2.669424 0.02247654 0.5595986 -0.6170303 -0.1800071 0.7660751 6052442 male
-2.686651 0.269415 0.3826799 0.05567117 0.2905041 -0.9552529 8093828 male
-2.761038 0.4157481 0.3710105 -0.09998084 -0.2758855 -0.9559765 11042678 male
-2.591311 0.3106643 0.5223924 0.8631368 0.04812607 0.5026717 10979209 male
-2.570645 0.1474601 0.5391524 0.8996186 0.09204565 0.4268652 9344927 male
-2.954363 0.3265577 0.5642696 -0.4985277 0.5886289 0.6363852 6572107 male
-2.791679 0.6010811 0.3371801 -0.2989743 0.007438662 -0.9542322 10843499 male
-2.606076 0.4610227 0.5462031 0.801415 0.1000173 0.5896868 10913669 male
-2.904577 -0.1965776 0.4800864 -0.9662471 0.1286365 -0.2232019 7362903 male
-2.953335 0.296074 0.5254475 0.8908166 -0.4264888 0.156694 4863025 male
-2.788891 0.8648749 0.4315781 -0.7614946 0.05501867 0.6458319 8672594 male
-2.583113 0.5810573 0.4383745 -0.9630937 -0.257399 0.07871658 5454138 male
-2.854555 0.1728238 0.5469627 -0.7517652 0.2481706 0.6109505 5527382 male
-2.853962 0.6211572 0.3895637 0.3554989 -0.3890809 -0.849845 6241594 male
-2.568661 -0.1953727 0.4366378 0.7146579 0.1908772 -0.6729264 7163467 male
-2.70139 0.2639552 0.3798234 0.04249581 0.2797871 -0.959121 9080728 male
-2.633186 0.1912991 0.3792256 0.4614584 -0.04271537 -0.886133 7042170 male
-2.487867 0.337865 0.463776 0.7360286 -0.492386 -0.464562 7558481 male
-2.632094 0.9334268 0.4107633 0.9428139 0.2975715 -0.1501768 1248008 male
-2.737357 0.5280272 0.5828907 0.03006959 0.3516627 0.9356437 10060664 male
-2.779744 0.9227653 0.4304115 -0.9853485 0.1688783 -0.02384351 3614496 male
-2.589904 -0.2332327 0.4184271 0.3061309 0.01356359 -0.9518928 5190702 male
-2.555098 0.6491366 0.471131 0.1716039 0.04296646 0.9842286 11504516 male
-2.642302 0.05359246 0.4262166 0.005292313 -0.2109429 -0.977484 9344671 male
-2.766364 0.6196902 0.5500448 -0.1095744 0.5160148 0.8495424 9729387 male
-2.586097 0.6145241 0.4805473 0.6084948 -0.6348315 0.4761545 9269356 male
-2.815097 0.6442742 0.3579448 -0.486344 0.1098905 -0.8668296 9727331 male
-2.66625 0.1208276 0.5798292 -0.2909608 -0.009805885 0.9566847 5724509 male
-2.764301 0.007869942 0.4564336 0.6416997 -0.3160101 -0.698827 7495524 male
-2.641218 0.2423419 0.5718125 0.4485326 -0.1294051 0.8843489 7040371 male
-2.839926 0.6331272 0.4579569 0.837402 -0.4092717 0.3622907 6705486 male
-2.766286 0.9301434 0.3819423 -0.8498732 0.2431132 -0.467559 1642768 male
-2.813727 -0.1040803 0.4835273 0.4742743 -0.1260738 -0.8713032 8939623 male
-2.694876 0.5190184 0.5866492 -0.004919955 0.3632964 0.9316607 9598833 male
-2.657753 0.7333125 0.4521457 0.9536277 0.2472173 0.1716911 8215123 male
-2.890836 -0.4497253 0.4394187 -0.6942306 -0.1594168 -0.701876 6508618 male
-2.850107 0.1115641 0.4372434 -0.7344438 -0.1681972 -0.6574968 6908529 male
-2.610807 -0.4163558 0.4832879 -0.8774909 0.3509386 0.3268819 9464693 male
-2.565038 -0.2939757 0.4771122 0.9169727 -0.2085855 0.3400782 7756637 male
-2.837199 0.6774304 0.3917812 -0.6811344 0.4953971 -0.5391082 8674899 male
-2.734719 0.03708271 0.4866625 0.9308329 -0.3018072 -0.2060644 5264469 male
-2.571744 -0.4705777 0.448395 -0.003767741 -0.9984266 -0.05594742 4271656 male
-2.549711 0.490376 0.4094501 -0.9378844 -0.00673493 0.3468826 8413789 male
-2.689752 0.6845725 0.5098166 0.1408027 0.4981755 0.8555675 8611163 male
-2.636187 0.03687083 0.5776811 -0.1627269 -0.1453565 0.9759054 7302769 male
-2.5547 -0.4551075 0.4328147 0.9612467 -0.008536392 -0.2755577 7032145 male
-2.841093 0.6466772 0.4700601 0.3258894 -0.422605 0.8456957 9336693 male
-2.91363 0.4080111 0.4179983 0.6303511 -0.6413438 -0.4374192 7296086 male
-2.816868 0.5219281 0.5556585 -0.6665584 0.1452386 0.7311673 9006957 male
-2.686399 0.9242414 0.3449426 0.2477248 0.2014593 -0.9476532 2037520 male
-2.588318 0.4734839 0.4195701 0.9031357 -0.2601174 -0.3415915 10055280 male
-2.847597 0.6458474 0.3820184 -0.6559871 0.2132163 -0.7240301 8937814 male
-2.575532 -0.3404424 0.479676 0.8118333 -0.2291611 0.5370398 6178374 male
-2.835867 0.4980427 0.3929299 -0.7751405 -0.2080913 -0.5965359 10252138 male
-2.999987 0.3050894 0.5981162 -0.7563377 0.4529541 0.4720019 5718599 male
-2.730026 0.9857893 0.4559681 -0.3853216 0.9142644 0.125091 2693400 male
-2.901648 -0.259846 0.4690803 -0.9528664 -0.1009278 -0.2861104 5324345 male
-2.789262 0.2383919 0.5669169 -0.4816046 -0.08979984 0.8717758 6119263 male
-2.956427 0.5019475 0.4159039 -0.9442363 0.2431422 -0.2220351 5388337 male
-2.931553 0.3179419 0.5916784 -0.2963668 -0.9419088 0.1580333 4798521 male
-2.901543 -0.2616855 0.4943852 -0.9631186 -0.1658755 0.2118674 6114124 male
-2.570386 0.2190173 0.4606971 0.9466851 -0.01197421 -0.3219378 7239551 male
-2.875839 -0.09219471 0.4908982 -0.7200927 0.15169 -0.6770943 8544865 male
-2.798979 -0.1066468 0.549744 0.6964332 -0.331453 0.6364902 6571594 male
-2.632522 0.8845775 0.4115385 0.9641184 -0.1830997 -0.1922242 919042 male
-2.821861 0.3326938 0.4092927 -0.6053202 -0.07024976 -0.7928761 8742244 male
-2.649212 0.7308372 0.4112676 0.6421041 0.7074794 -0.2952544 7030849 male
-2.996124 0.2861967 0.61381 -0.3456566 -0.8312024 -0.4354584 396300 male
-2.561308 0.149869 0.499239 0.9981799 0.05481483 0.02514185 9474712 male
-2.496695 0.2687858 0.5597459 -0.838532 -0.2994414 -0.455191 7817805 male
-2.689405 0.3915065 0.6207896 0.09053814 0.0934279 0.9915009 8940655 male
-2.698817 0.1043677 0.5583686 -0.7663159 -0.04501208 0.6408852 5066578 male
-2.879903 -0.1062085 0.5398265 -0.9500428 0.05663981 0.3069375 6966606 male
-2.576986 -0.3335583 0.434177 0.8078374 -0.1611293 -0.5669534 5651261 male
-2.659551 0.9241058 0.5109473 0.7251737 0.3191871 0.610117 8148563 male
-2.877528 -0.08295497 0.493072 -0.8076591 0.1190727 -0.577502 8018776 male
-2.59396 -0.1226186 0.5492647 0.6849034 -0.1752454 0.7072456 7096907 male
-2.853085 0.535339 0.4848226 -0.9627689 0.0560873 0.2644431 6507590 male
-2.589011 -0.3801052 0.4175605 0.4775142 -0.04060527 -0.8776852 5257783 male
-2.571585 -0.4048302 0.481284 0.7758906 0.4015422 0.4865775 8808554 male
-2.92375 0.3262048 0.5755544 0.9661551 0.1390216 -0.2172954 6702923 male
-2.815229 -0.2532832 0.5083521 0.7178926 -0.2477855 0.6505632 6769742 male
-2.501724 0.4168105 0.3797322 0.178315 -0.5856586 -0.7907009 7489866 male
-2.625599 0.4024908 0.3920076 0.6251708 -0.133687 -0.7689534 8344918 male
-2.604579 0.08516032 0.5801262 0.3841234 -0.0002984801 0.9232817 7565941 male
-2.594916 0.3942929 0.5394275 0.860568 0.005056675 0.5093104 12755617 male
-2.6566 0.9676275 0.3951127 0.6315733 0.7166918 -0.29575 1313800 male
-2.89967 0.6156307 0.408612 -0.7598408 -0.08574282 -0.6444301 7887439 male
-2.674463 0.8774775 0.3502448 0.4234971 -0.2361728 -0.87457 1380621 male
-2.741527 0.8578457 0.5361653 -0.3481032 0.1302188 0.928368 8673622 male
-2.819406 -0.05951584 0.4609982 0.1791905 -0.1847304 -0.9663154 9730419 male
-2.894652 -0.1484008 0.4920879 -0.9243295 0.2880946 -0.250233 9136741 male
-2.793802 0.2826274 0.574201 -0.5742912 -0.1273278 0.8086886 6644838 male
-2.781441 0.5017395 0.3546117 -0.2940941 -0.2539393 -0.9214247 9988451 male
-2.879762 -0.01124486 0.5072284 -0.9831503 -0.1073253 -0.1479756 7361103 male
-2.887304 -0.4555919 0.4408021 -0.5463817 -0.551066 -0.6307085 4471608 male
-2.732492 0.8613999 0.3514745 -0.353029 -0.3092994 -0.8830088 2431508 male
-2.685364 0.8843475 0.5276994 0.3518344 0.3864563 0.8525633 7819082 male
-2.696246 0.1181755 0.4161392 -0.5945142 -0.5983738 -0.5371235 5855585 male
-2.715069 0.1848052 0.5995268 0.1109447 -0.06975802 0.9913753 7434097 male
-2.598523 -0.4649856 0.4190488 -0.5161005 -0.8206224 -0.2453958 2632231 male
-2.522981 0.3789375 0.4165088 -0.5722284 -0.6167253 -0.5405595 10715522 male
-2.730581 0.04328346 0.503485 0.9720495 -0.2294542 0.04970422 3026479 male
-2.846797 -0.2873521 0.5131623 0.2756782 -0.2603765 0.9253138 7097670 male
-2.632923 0.3286921 0.3973156 0.3284147 -0.1964891 -0.9238701 8542296 male
-2.623671 0.6454616 0.5069635 0.344042 0.4698386 0.8129495 9465191 male
-2.598482 0.06099404 0.5779703 0.4527496 -0.06358954 0.8893673 6645096 male
-2.910873 0.4387629 0.3950872 0.4454576 -0.637327 -0.628794 8346718 male
