# .PCD v0.7 - Point Cloud Data file format
VERSION 0.7
FIELDS x y z normal_x normal_y normal_z rgb label
SIZE 4 4 4 4 4 4 4 4
TYPE F F F F F F U U
COUNT 1 1 1 1 1 1 1 1
WIDTH 132
HEIGHT 1
VIEWPOINT 0 0 0 1 0 0 0
POINTS 132
DATA ascii
-2.794087 0.4604786 0.6021114 -0.5551493 0.1386404 0.8201146 9598321 male
-2.877089 0.04229669 0.537456 -0.9837111 0.01069595 0.1794382 8687244 male
-2.702118 0.09535655 0.5607839 -0.8772697 -0.1035148 0.4687031 5393748 male
-2.865249 -0.003312921 0.4897716 -0.867773 -0.1080617 -0.4850698 8216672 male
-2.779946 0.3527718 0.6201587 -0.6145052 -0.003181885 0.7889063 8940137 male
-2.598829 -0.3860348 0.439099 -0.8794084 -0.01189486 -0.4759196 7162182 male
-2.818722 0.6899564 0.4001888 -0.538675 0.5913188 -0.6001427 8082762 male
-2.840907 0.6159547 0.4782864 -0.6418778 -0.6192454 0.4522478 8677731 male
-2.725507 0.8336349 0.5624117 -0.449141 -0.06697388 0.8909472 7622475 male
-2.561546 0.2166263 0.5234634 0.9820571 0.05728934 0.1796715 9936295 male
-2.829457 -0.3571051 0.4969382 0.8364315 0.006442813 0.5480337 8676715 male
-2.650476 0.8253539 0.4674423 0.9308467 -0.3592745 -0.06668056 7358273 male
-2.632404 0.5966529 0.3566968 0.2821394 -0.01032668 -0.9593179 10384488 male
-2.761444 0.4890916 0.6110532 -0.2277573 0.3047233 0.9248083 10059640 male
-2.848825 0.2864914 0.453757 -0.8938237 0.2645909 -0.362037 7566199 male
-2.801012 -0.1669066 0.497207 0.9381897 0.1673815 -0.3029579 7032652 male
-2.671229 -0.05646883 0.4858532 -0.8272152 -0.06621577 -0.55797 8478045 male
-2.918999 0.5752525 0.4511707 -0.9428417 0.3275546 -0.06129872 7560530 male
-2.694927 0.6407026 0.5552281 -0.02433515 0.478301 0.8778587 9400422 male
-2.807678 0.502903 0.5829666 -0.5925039 0.1361327 0.7939817 9993847 male
-2.760797 0.7838969 0.4871082 -0.9377831 -0.08962244 0.335456 8805204 male
-2.8769 0.07228632 0.5151657 -0.9983509 0.02097838 -0.05343656 6645352 male
-2.606081 -0.4483814 0.5719584 0.04586298 0.9023998 0.4284519 15320781 male
-2.545743 0.4944383 0.411045 -0.6113991 -0.2310219 -0.7568488 9002587 male
-2.68793 -0.004834646 0.5227127 -0.9592901 -0.2367437 0.1539966 3942955 male
-2.643043 0.2361184 0.3955375 0.2418413 0.207505 -0.9478683 8028291 male
-2.737212 0.3858225 0.3958985 0.1896234 -0.2759079 -0.9422939 9332573 male
-2.608347 0.3440716 0.5791624 0.7425525 -0.06308756 0.6668102 11899540 male
-2.567478 0.1479577 0.5592131 0.8828546 0.09516077 0.4599044 9344927 male
-2.969598 0.3149136 0.5643048 -0.5634296 0.6163821 0.5501092 6309194 male
-2.786265 0.5904748 0.3514045 -0.2499662 -0.08445849 -0.964564 10449253 male
-2.606237 0.4644163 0.5660774 0.7817625 0.1080021 0.6141521 10847876 male
-2.895019 -0.2001425 0.4844629 -0.9578606 0.1174994 -0.2621012 7362903 male
-2.954408 0.2879798 0.5284757 0.9021206 -0.3803483 0.2037485 5323575 male
-2.786551 0.862764 0.4456961 -0.6754326 0.1238577 0.7269457 8409422 male
-2.577501 0.565923 0.4606476 -0.9661384 -0.2231125 0.1296051 8741211 male
-2.851858 0.1705982 0.5565752 -0.7771873 0.2349694 0.5837545 5527382 male
-2.869949 0.5224274 0.4366545 0.850241 -0.4244371 -0.3113574 11376268 male
-2.558218 -0.1948465 0.4519249 0.739652 0.1958759 -0.6438537 7163467 male
-2.660719 0.2484295 0.3955388 0.1240359 0.2567435 -0.9584873 8358027 male
-2.708173 0.182035 0.3873042 0.0657232 -0.1600473 -0.984919 8949912 male
-2.485581 0.3448922 0.4702179 0.7289402 -0.5023807 -0.4650374 7689810 male
-2.630905 0.9336255 0.4282125 0.9451042 0.3040666 -0.1196721 1248008 male
-2.769727 0.5799833 0.5837623 -0.1110323 0.248286 0.9623024 10256244 male
-2.779089 0.9219112 0.4426484 -0.9851809 0.1601251 -0.0614692 3614496 male
-2.578276 -0.2330472 0.433039 0.3447911 0.01263749 -0.9385944 5190702 male
-2.55494 0.6536284 0.4948841 0.2385157 0.1410974 0.9608338 11636616 male
-2.628083 0.06180166 0.4435069 0.1299699 -0.2117081 -0.9686524 9410976 male
-2.743502 0.5859614 0.580347 0.2070041 0.2647926 0.941825 10453365 male
-2.585044 0.6149939 0.5013424 0.5978358 -0.6328014 0.4920923 9269356 male
-2.80974 0.643822 0.3710322 -0.4535702 0.1098587 -0.8844236 9727331 male
-2.664238 0.119882 0.5962564 -0.3248336 -0.02501876 0.9454402 5724509 male
-2.756305 0.007387221 0.4684562 0.6721027 -0.3026429 -0.6757849 7495524 male
-2.640141 0.2419702 0.5903604 0.4177909 -0.1331937 0.8987269 7040371 male
-2.838156 0.6324308 0.4693269 0.8268842 -0.4078403 0.3872063 6705486 male
-2.763948 0.9288399 0.39461 -0.8344671 0.2302334 -0.5006568 1642768 male
-2.805282 -0.105943 0.4913128 0.5088716 -0.1228215 -0.8520356 8939623 male
-2.696826 0.5192774 0.604128 -0.03912122 0.3648512 0.9302436 9598833 male
-2.656418 0.7336464 0.470486 0.9458709 0.2548276 0.2009755 8215123 male
-2.849062 -0.4613172 0.4486826 0.3020609 -0.8274039 -0.4734576 4206380 male
-2.842598 0.1102511 0.4466389 -0.7067116 -0.1708933 -0.6865523 6908529 male
-2.598997 -0.416156 0.4986984 -0.8926607 0.3459905 0.2888726 9464693 male
-2.55553 -0.3024682 0.4881098 0.9331899 -0.1947081 0.3020683 8085344 male
-2.829885 0.6654771 0.3929306 -0.6293181 0.3793419 -0.6782761 9200986 male
-2.735976 0.01345708 0.5104306 0.9412311 -0.3311757 -0.06638277 4997442 male
-2.557899 -0.4702403 0.4658052 0.002879184 -0.9984489 -0.05560145 4271656 male
-2.529335 0.4818579 0.4340789 -0.6984448 0.2818581 0.6578228 7557458 male
-2.689674 0.6834131 0.5276412 0.1125925 0.5065275 0.8548408 8479577 male
-2.633321 0.03621726 0.5939931 -0.1957755 -0.1599359 0.9675187 7302769 male
-2.540385 -0.454687 0.4508563 0.972181 -0.004226886 -0.2341928 7032145 male
-2.840516 0.6390595 0.4787622 0.5839106 -0.2737621 0.764266 8874342 male
-2.908522 0.4053664 0.4290569 0.7245193 -0.5956216 -0.3468526 6639443 male
-2.806363 0.5223578 0.579564 -0.561354 0.1716246 0.8095843 8808293 male
-2.682733 0.9231998 0.3605843 0.2800628 0.1926018 -0.9404623 2037520 male
-2.584651 0.4690591 0.4427361 0.9195139 -0.2387395 -0.3122462 10055280 male
-2.841638 0.6901672 0.440579 -0.5361645 0.8385005 -0.09718303 7164228 male
-2.574759 -0.333941 0.5035952 0.4263047 -0.1908338 0.884221 7558490 male
-2.831092 0.4969204 0.4058172 -0.7531822 -0.2147353 -0.6217759 10252138 male
-2.99938 0.2975091 0.6013958 -0.6685017 0.5332009 0.5184615 5915719 male
-2.730847 0.9856617 0.4692319 -0.3970076 0.9123254 0.1002363 2693400 male
-2.891157 -0.2635646 0.4744485 -0.9402101 -0.1128347 -0.3213617 5324345 male
-2.78798 0.2366724 0.5798894 -0.5124239 -0.1022277 0.8526261 6119263 male
-2.957025 0.4793141 0.4147812 -0.9242969 0.04592003 -0.378902 6242101 male
-2.928207 0.3122114 0.5951344 -0.02884503 -0.9891143 0.144294 5784903 male
-2.892029 -0.2650637 0.4997594 -0.9692503 -0.1712572 0.1767055 6114124 male
-2.565114 0.2203958 0.4816896 0.9576984 0.0001392949 -0.2877738 7239551 male
-2.861008 -0.09844931 0.4911308 -0.5656776 0.1587119 -0.8092091 8083802 male
-2.79312 -0.1082391 0.5581824 0.6738507 -0.3240779 0.6640022 6571594 male
-2.634178 0.8844185 0.4159167 0.9398434 -0.1875865 -0.2854919 1050624 male
-2.830815 0.3240649 0.4389723 -0.7858627 0.06241814 -0.6152428 6643551 male
-2.656086 0.7177544 0.4058368 0.2856096 0.5864258 -0.7579788 6638401 male
-2.996668 0.2812318 0.6095469 -0.3888325 -0.8206078 -0.4188221 1973022 male
-2.556723 0.1509356 0.5196543 0.9960687 0.06368818 0.06157202 9474712 male
-2.497849 0.268407 0.5600012 -0.878751 -0.3225304 -0.3518108 6307135 male
-2.677738 0.361729 0.6383757 0.2244893 0.04532557 0.9734219 9268852 male
-2.679223 0.1146207 0.5895595 -0.5304468 -0.07000009 0.8448232 4933451 male
-2.873588 -0.1086441 0.5450649 -0.961538 0.04776496 0.270487 6966606 male
-2.566691 -0.3495694 0.4493349 0.8429901 -0.1353379 -0.5206259 5917002 male
-2.688619 0.943074 0.5350488 0.2778793 0.4751378 0.8348815 6572611 male
-2.875001 -0.07975397 0.5091327 -0.9549088 0.1042958 -0.2779776 8675165 male
-2.611215 -0.08581555 0.5771366 0.2117746 -0.1007877 0.9721077 6307903 male
-2.854062 0.5292665 0.4762734 -0.9911121 -0.002122349 0.1330131 8215898 male
-2.569169 -0.386786 0.4369849 0.6229647 -0.07081793 -0.7790378 5061179 male
-2.559941 -0.4043643 0.4982193 0.7519416 0.4076894 0.5180475 8808554 male
-2.922206 0.3196226 0.579112 0.9711949 -0.03588319 -0.235569 6571594 male
-2.806387 -0.2557395 0.5169251 0.6939406 -0.2329924 0.6812937 6769742 male
-2.519586 0.5291329 0.4183861 0.4480705 -0.1479842 -0.8816652 6701629 male
-2.611686 0.382322 0.4171324 0.632462 -0.01475713 -0.7744507 8806236 male
-2.66228 0.08873391 0.5928232 -0.4108196 -0.1266576 0.902876 6249823 male
-2.585017 0.1924462 0.4396918 0.8258842 0.0140206 -0.5636654 6842992 male
-2.655119 0.9674245 0.4112841 0.6358587 0.7187006 -0.2813418 1313800 male
-2.896011 0.6152571 0.4175445 -0.7361377 -0.08140326 -0.6719187 7887439 male
-2.670612 0.8766093 0.3668731 0.456664 -0.2426138 -0.8559186 1380621 male
-2.740363 0.8404399 0.5518411 -0.3503664 -0.1320869 0.9272521 7491401 male
-2.81066 -0.06089407 0.469577 0.218996 -0.1779189 -0.9593673 9730419 male
-2.882097 -0.1244234 0.5189143 -0.9941902 0.1063633 -0.01651497 8085084 male
-2.793154 0.2808892 0.5876117 -0.6016839 -0.1395147 0.7864555 6644838 male
-2.775421 0.5010036 0.3693641 -0.2610373 -0.2572215 -0.9304283 9988451 male
-2.873425 -0.01345675 0.5143396 -0.9753055 -0.117034 -0.1873026 7361103 male
-2.866125 -0.4643151 0.4514725 -0.1656254 -0.9022234 -0.3981974 5391681 male
-2.728522 0.8600555 0.3662107 -0.3184896 -0.3223509 -0.8914338 2431508 male
-2.693797 0.8869612 0.5458322 0.5792642 0.4774102 0.660706 7949897 male
-2.686084 0.1032531 0.4446808 -0.6139458 -0.4205493 -0.6679885 6514027 male
-2.709729 0.2061741 0.6148375 0.1416943 0.01690098 0.9897661 7171957 male
-2.585919 -0.4654854 0.4489298 -0.5168645 -0.8533763 -0.0678231 5586500 male
-2.51194 0.3895049 0.4191706 -0.2285853 -0.627197 -0.744562 10122612 male
-2.724889 0.04276751 0.517236 0.9719388 -0.2190545 0.08573271 3026479 male
-2.837874 -0.2900121 0.5209957 0.2414692 -0.2454621 0.9388509 7097670 male
-2.609226 0.3319147 0.4256243 0.5413237 -0.2202118 -0.811465 7556428 male
-2.627107 0.6591877 0.5190113 0.3376471 0.5454282 0.7671392 9334629 male
-2.644011 0.03823765 0.5913348 -0.3560108 -0.1617294 0.9203804 7105644 male
-2.906584 0.4497213 0.3964566 0.408334 -0.6276007 -0.6628579 8608600 male
