# .PCD v0.7 - Point Cloud Data file format
VERSION 0.7
FIELDS x y z normal_x normal_y normal_z rgb label
SIZE 4 4 4 4 4 4 4 4
TYPE F F F F F F U U
COUNT 1 1 1 1 1 1 1 1
WIDTH 132
HEIGHT 1
VIEWPOINT 0 0 0 1 0 0 0
POINTS 132
DATA ascii
-2.796826 0.4358069 0.5876293 -0.5191644 0.09611163 0.8492531 9532016 male
-2.891372 0.04395679 0.5362891 -0.9595107 0.02645461 0.2804273 8687244 male
-2.683581 0.1091338 0.5699129 -0.3455852 -0.0714496 0.9356633 5526868 male
-2.885115 -0.003023614 0.4893515 -0.9146791 -0.1109812 -0.3886457 8216672 male
-2.792897 0.4842223 0.5809585 -0.4032927 0.2117314 0.8902386 10059639 male
-2.642342 -0.3573453 0.4045294 -0.5686172 0.04330257 -0.8214617 7033162 male
-2.835944 0.698425 0.4123644 -0.5944416 0.7834323 -0.1813088 8281682 male
-2.849015 0.6099989 0.4886142 -0.7436981 -0.451355 0.4931449 7953240 male
-2.725588 0.8335328 0.5501885 -0.4790352 0.08332699 0.8738317 6042677 male
-2.580326 0.1873691 0.4616633 0.9635787 0.03102271 -0.2656195 7237750 male
-2.858653 -0.3480979 0.5045132 0.6489837 0.0261382 0.7603531 8544353 male
-2.655813 0.8242535 0.4437195 0.936532 -0.3447644 -0.06360279 7027769 male
-2.63271 0.6674267 0.3556657 0.4359128 0.3885318 -0.8118024 7295302 male
-2.76389 0.4851821 0.5904137 -0.1588372 0.2917397 0.9432172 10059640 male
-2.865796 0.2784688 0.503317 -0.8544938 0.349559 0.384251 6843248 male
-2.818896 -0.1810775 0.495282 0.9564559 0.1669645 -0.2394054 7032396 male
-2.702777 -0.04829001 0.4780962 -0.9767199 -0.08763964 -0.1957998 7031626 male
-2.929272 0.5704077 0.4463726 -0.9540586 0.263056 -0.1434359 5980722 male
-2.69852 0.6295368 0.5376657 0.002964589 0.4374054 0.8992595 9729387 male
-2.838854 0.4842154 0.5372077 -0.7948024 0.04101882 0.6054806 9730675 male
-2.760199 0.770548 0.4843925 -0.8449437 -0.05448484 0.532073 9529184 male
-2.875315 0.09644242 0.5580243 -0.8023205 0.139047 0.5804719 4407875 male
-2.635345 -0.4597583 0.5409065 0.218653 0.8851117 0.4108142 15451336 male
-2.549771 0.4985866 0.3880766 -0.4084148 -0.2496163 -0.8780029 7883591 male
-2.681895 0.01900948 0.5511874 -0.5872043 -0.1732288 0.7906852 6052442 male
-2.667419 0.2359445 0.3696492 0.1699972 0.2019588 -0.9645276 8225671 male
-2.794425 0.4587291 0.3609836 -0.3552053 -0.2503482 -0.9006414 9856869 male
-2.600394 0.3063236 0.5104907 0.8841677 0.03639343 0.4657499 10979209 male
-2.581466 0.1423744 0.5274577 0.9189883 0.07241441 0.387578 9344927 male
-2.985878 0.3106352 0.5898429 -0.9048961 0.1256651 0.4066586 5784132 male
-2.802413 0.622664 0.3377863 -0.3805087 0.1694843 -0.909114 10252643 male
-2.603628 0.4748281 0.5156834 0.8932378 0.06586424 0.4447339 10649464 male
-2.918768 -0.1989595 0.5059407 -0.9956164 0.05442069 0.07606862 7428697 male
-2.941195 0.3077032 0.536937 0.8733093 -0.4603679 -0.1593493 4992555 male
-2.795409 0.8743629 0.4353971 -0.9207309 0.007774801 0.3901206 7949128 male
-2.585443 0.5540247 0.4394094 -0.955198 -0.1627709 0.2471891 8873574 male
-2.863705 0.1723156 0.5491421 -0.7137513 0.2585629 0.6509257 5527382 male
-2.884784 0.5230665 0.4269114 0.6788298 -0.4809479 -0.5548685 12100759 male
-2.576122 -0.2440701 0.4520494 0.9926596 -0.1073951 -0.05561544 7295569 male
-2.655061 0.2438952 0.3743958 0.2591749 0.1985444 -0.9452028 8422024 male
-2.67694 0.1757825 0.3632032 0.1106019 -0.1112096 -0.9876232 8818838 male
-2.514875 0.3018713 0.4775281 0.5975192 -0.6309972 -0.4947862 7162700 male
-2.636617 0.9316929 0.416968 0.9423938 0.2940098 -0.1595374 1248008 male
-2.726972 0.5196664 0.5776644 0.03596375 0.3651679 0.9302467 9993591 male
-2.783862 0.9217609 0.4397868 -0.9833683 0.1813885 0.009215608 3614496 male
-2.610282 -0.2367489 0.4055629 0.3432176 0.02212117 -0.9389954 4860969 male
-2.562717 0.645986 0.4661634 0.1394907 0.03393814 0.9896416 11504516 male
-2.659365 0.008623243 0.4235274 -0.1386671 -0.1251989 -0.9823933 8412508 male
-2.698611 0.4985516 0.5860574 0.05798753 0.3564715 0.932505 10059641 male
-2.590627 0.5356191 0.486471 0.9481778 -0.01916804 0.3171618 7688782 male
-2.830636 0.6723439 0.3737185 -0.570755 0.4432069 -0.6912354 8805970 male
-2.675678 0.1173284 0.5718753 -0.2502371 -0.01041961 0.9681286 5724509 male
-2.77894 0.005835909 0.4560028 0.5957972 -0.3288914 -0.7327047 7495524 male
-2.648936 0.2390311 0.562725 0.4845802 -0.1335525 0.8644916 7040371 male
-2.849726 0.632385 0.4484717 -0.1218057 -0.8098492 0.5738534 7690326 male
-2.77152 0.9313406 0.3914116 -0.8581005 0.2751017 -0.4335695 1642768 male
-2.82714 -0.114779 0.4945197 0.5084783 -0.0322848 -0.8604693 8347742 male
-2.617371 0.4877862 0.5382928 0.8063745 0.04601639 0.5896123 10651009 male
-2.663788 0.7302009 0.4501636 0.9603135 0.2298981 0.1579391 8215123 male
-2.900204 -0.4479362 0.4431752 -0.7422011 -0.158891 -0.6510693 6508618 male
-2.865815 0.1095467 0.4402055 -0.7733495 -0.1758648 -0.6090994 6908529 male
-2.637938 -0.4274217 0.4718547 -0.8184799 0.472364 0.3270518 8674667 male
-2.588006 -0.2979532 0.460427 0.9289402 -0.2323583 0.2882357 7756637 male
-2.848468 0.6874982 0.4101326 -0.6714504 0.6808155 -0.2926512 7952202 male
-2.754298 0.01277045 0.4954426 0.9262305 -0.3440255 -0.1540894 4997442 male
-2.566018 -0.4691725 0.4626387 0.9062802 -0.1121858 -0.4075176 3943212 male
-2.551006 0.4924359 0.4096325 -0.7655057 0.1783397 0.61822 7493457 male
-2.708918 0.6903002 0.5055105 0.07862446 0.4090917 0.9090996 8411734 male
-2.647593 0.03253983 0.5678594 -0.1241377 -0.1494128 0.9809514 7302769 male
-2.596038 -0.43398 0.3995622 0.8730944 0.1326449 -0.4691603 7229782 male
-2.847787 0.647541 0.4708769 0.3991519 -0.3851739 0.832057 9270900 male
-2.914817 0.3998881 0.4598478 0.9712068 -0.2260943 0.07509128 6706519 male
-2.832251 0.5196142 0.5419074 -0.7370154 0.09072388 0.6697592 10060414 male
-2.69265 0.9263405 0.3521707 0.2268744 0.2445647 -0.9427174 2037520 male
-2.608353 0.4743448 0.3888249 0.7696507 -0.2786286 -0.5744597 10252659 male
-2.856272 0.6360411 0.3795339 -0.6009711 0.08771771 -0.7944428 9135194 male
-2.599348 -0.3442455 0.4619407 0.8336693 -0.256145 0.4892702 6178374 male
-2.861005 0.4496955 0.4358205 -0.9554594 -0.1754601 -0.2372999 9200475 male
-2.984577 0.3138624 0.6099604 -0.8936326 -0.2599171 0.3658742 4335657 male
-2.732732 0.9829098 0.4670993 -0.3703181 0.9115071 0.1789393 2693400 male
-2.909153 -0.2416025 0.4679702 -0.8317446 -0.03273883 -0.5541923 5190702 male
-2.776207 0.1622715 0.5752417 -0.069966 0.05270489 0.9961561 7039339 male
-2.971804 0.4783946 0.4283549 -0.9481629 0.2862027 0.138113 6113084 male
-2.907699 0.3383484 0.5974554 0.9077792 0.270193 -0.3208312 6440263 male
-2.910052 -0.2580561 0.5145028 -0.8953694 -0.1984958 0.3986391 7035226 male
-2.579009 0.2018554 0.4682171 0.9803318 0.01198 -0.1969922 6908785 male
-2.890107 -0.08155971 0.5040791 -0.8582134 0.1096882 -0.5014362 7821139 male
-2.807724 -0.1067311 0.5558866 0.7395474 -0.3249183 0.5894893 6571594 male
-2.641694 0.8833995 0.4019471 0.9163892 -0.1870005 -0.3539232 1050624 male
-2.829439 0.2911815 0.545863 -0.6569164 0.1377415 0.7412746 5724509 male
-2.669563 0.7033769 0.3690944 0.2269438 0.4918378 -0.8405904 7229509 male
-2.975243 0.2951045 0.6465786 -0.2937588 -0.8846849 -0.3619923 1444876 male
-2.573931 0.1448444 0.4872174 0.9992052 0.0356251 -0.01788125 9474712 male
-2.534162 0.2478597 0.6006796 -0.866985 -0.3396477 0.3646593 9924476 male
-2.680902 0.3585879 0.6116878 0.2954631 0.0415748 0.9544491 9268852 male
-2.709481 0.1017096 0.5518391 -0.7384833 -0.03467912 0.6733794 5066578 male
-2.895283 -0.09830541 0.5362992 -0.9635149 0.04318248 0.2641484 6309701 male
-2.603017 -0.336076 0.4166793 0.7761403 -0.1571026 -0.6106758 5651261 male
-2.687534 0.9356174 0.5274859 0.3386904 0.4181487 0.8428763 6572611 male
-2.884445 -0.07549777 0.498091 -0.7940367 0.07971714 -0.6026201 7952210 male
-2.630641 -0.1133665 0.5514476 0.1954489 -0.2231589 0.9549868 5716798 male
-2.859429 0.5227932 0.4894028 -0.9469621 0.05406717 0.3167641 6572867 male
-2.617749 -0.3820055 0.3981018 0.4312803 -0.02621286 -0.9018371 5257783 male
-2.596363 -0.4040379 0.4528542 0.8932104 0.1781235 0.4128525 9269620 male
-2.916585 0.3296042 0.5921382 0.2719466 -0.9613712 -0.04254868 5981769 male
-2.831148 -0.2983648 0.4839659 0.9690685 -0.2342436 -0.07769288 5454130 male
-2.510101 0.4018576 0.3796206 0.2158342 -0.6516544 -0.7271603 7491407 male
-2.630533 0.3771504 0.3861523 0.5749478 -0.0314922 -0.8175837 8806236 male
-2.614862 0.0801815 0.5693171 0.4227938 -0.01541984 0.9060947 7565941 male
-2.606203 0.4057063 0.5342059 0.8558563 0.006938556 0.5171671 11769234 male
-2.661067 0.9668925 0.4036137 0.6333542 0.7228152 -0.2764067 1313800 male
-2.907243 0.5850802 0.4142351 -0.6769723 -0.07771675 -0.7318938 7360839 male
-2.68118 0.879241 0.3549009 0.3989262 -0.198057 -0.8953387 1380621 male
-2.740649 0.8437786 0.5429881 -0.4310816 0.07553437 0.8991458 7030082 male
-2.80899 -0.1215169 0.5079367 0.7657067 -0.2305504 -0.6004497 5719623 male
-2.903074 -0.135307 0.5079559 -0.9362802 0.2705068 -0.2240659 8545889 male
-2.814988 0.3006076 0.5620801 -0.6541178 -0.02868677 0.7558485 6645606 male
-2.808147 0.5148857 0.3545728 -0.4385155 -0.2214515 -0.8710129 10844531 male
-2.891258 -0.006597891 0.5136919 -0.9903219 -0.1018393 -0.09429349 7624531 male
-2.89648 -0.4537947 0.4441722 -0.5860353 -0.5496691 -0.5953374 4471608 male
-2.73937 0.8637488 0.3567556 -0.3784711 -0.2620138 -0.8877547 2431508 male
-2.695274 0.8746257 0.5406132 0.7847531 0.2907082 0.5474042 8082250 male
-2.712963 0.1160257 0.4095119 -0.628156 -0.5898639 -0.5074256 5855585 male
-2.71724 0.205565 0.592722 0.2208575 0.02685471 0.9749363 7171957 male
-2.616098 -0.4656526 0.3811482 -0.1382953 -0.7831905 -0.6062071 2364947 male
-2.544067 0.3743746 0.425095 -0.8704882 -0.383342 -0.3087058 8807269 male
-2.750939 0.01893312 0.5006118 0.9417417 -0.329979 -0.06508782 4075569 male
-2.866269 -0.2589139 0.5331829 0.2299679 -0.2823874 0.9313281 5913666 male
-2.58696 0.3568525 0.4646082 0.997131 0.0687793 -0.03160894 10187380 male
-2.630106 0.6408663 0.5018488 0.3579907 0.4461063 0.8202633 9465191 male
-2.609385 0.05585702 0.5668084 0.4889759 -0.08019044 0.8686035 6645096 male
-2.915978 0.4836786 0.4037601 0.2299659 -0.4163356 -0.8796479 7095874 male
