# .PCD v0.7 - Point Cloud Data file format
VERSION 0.7
FIELDS x y z normal_x normal_y normal_z rgb label
SIZE 4 4 4 4 4 4 4 4
TYPE F F F F F F U U
COUNT 1 1 1 1 1 1 1 1
WIDTH 132
HEIGHT 1
VIEWPOINT 0 0 0 1 0 0 0
POINTS 132
DATA ascii
-2.786286 0.4615694 0.5957977 -0.5234502 0.1429387 0.8399812 9598321 male
-2.875881 0.04482397 0.5353231 -0.9757918 0.02341493 0.2174444 8687244 male
-2.699294 0.09593994 0.5513962 -0.8591892 -0.09371548 0.5030022 5393748 male
-2.866554 -0.007373134 0.489818 -0.8972858 -0.0995333 -0.4300829 8281948 male
-2.772119 0.332563 0.6131573 -0.5781147 -0.1051748 0.8091487 8151396 male
-2.606427 -0.3860491 0.4258631 -0.8987976 -0.001595698 -0.4383609 7162182 male
-2.812866 0.6920089 0.3928043 -0.5319271 0.6001943 -0.5973444 7688772 male
-2.83605 0.614863 0.4956996 -0.7319375 -0.4472758 0.5140153 7821654 male
-2.725325 0.8544657 0.5470726 -0.5444517 0.2619369 0.7968447 6505023 male
-2.561319 0.1923954 0.4794068 0.9727703 0.04970373 -0.226379 7237750 male
-2.834183 -0.3542375 0.492237 0.8556094 -0.009047976 0.517543 8676715 male
-2.644333 0.8278683 0.4434289 0.934797 -0.3519473 -0.04783083 6897978 male
-2.629249 0.5840276 0.346503 0.2838633 -0.1083574 -0.9527225 10581351 male
-2.736112 0.3289827 0.6268231 -0.1183444 -0.1312181 0.9842644 9663859 male
-2.848194 0.2882865 0.44964 -0.9044916 0.2728537 -0.3277894 7566199 male
-2.80391 -0.1645198 0.4938842 0.9283375 0.1612585 -0.3349407 7032652 male
-2.661041 -0.05283277 0.4628845 -0.6239364 -0.08585815 -0.7767443 8874086 male
-2.923479 0.5586724 0.4509599 -0.9208037 0.3797348 -0.08900523 7427661 male
-2.70014 0.6584139 0.5354552 0.03337728 0.5186528 0.8543332 8151642 male
-2.821466 0.4901411 0.5551702 -0.7787402 0.05120205 0.6252536 9796470 male
-2.749137 0.7748693 0.48871 -0.8556878 -0.03392187 0.5163794 9529184 male
-2.876187 0.0747319 0.5129721 -0.9993443 0.03303032 -0.01482749 6645352 male
-2.617234 -0.4482592 0.5602947 -0.2576801 0.8718808 0.4164431 16772087 male
-2.53992 0.4787733 0.3901198 -0.67147 -0.2785107 -0.6867022 9002592 male
-2.663088 0.02203715 0.5640115 -0.6142598 -0.187521 0.766499 6052442 male
-2.70627 0.2764091 0.3902082 0.03282198 0.3034769 -0.9522733 8816782 male
-2.737859 0.3866397 0.3874207 0.1514594 -0.2765613 -0.9489857 9332573 male
-2.602611 0.3435166 0.5656503 0.7666339 -0.07056826 0.6381948 11899540 male
-2.564351 0.1472367 0.5444282 0.9010161 0.08804958 0.4247555 9344927 male
-2.967996 0.3196853 0.5702952 -0.5447646 0.6373813 0.5449556 6309194 male
-2.785844 0.6006352 0.3446895 -0.3008183 0.001662518 -0.95368 10843499 male
-2.599854 0.4614035 0.5536625 0.8029456 0.1001788 0.5875734 10913669 male
-2.856195 -0.1933707 0.4471926 -0.11446 0.2253229 -0.9675373 7953235 male
-2.94335 0.3099344 0.5183616 0.8606093 -0.3984732 -0.3171288 6702917 male
-2.783523 0.856502 0.4357387 -0.1679098 0.5730198 0.8021562 10445917 male
-2.57398 0.5649863 0.4476093 -0.9629016 -0.2159657 0.1618003 8741211 male
-2.84839 0.1727757 0.5530396 -0.7513443 0.2455736 0.6125156 5527382 male
-2.867867 0.522714 0.4354692 0.8361593 -0.4411004 -0.3259877 11376268 male
-2.562585 -0.1953664 0.4382226 0.7144053 0.1903463 -0.6733449 7163467 male
-2.654044 0.2481129 0.3855275 0.1462373 0.2451108 -0.9584025 7897222 male
-2.652645 0.1727264 0.3785504 0.1692244 -0.1414143 -0.9753795 8884631 male
-2.491208 0.3240291 0.4656224 0.3161876 -0.6356426 -0.7042612 8150107 male
-2.625969 0.933124 0.4140248 0.9425538 0.2952946 -0.1561845 1248008 male
-2.758388 0.5810402 0.5766244 -0.02600345 0.2441912 0.9693784 10190962 male
-2.773605 0.9227597 0.4339755 -0.9854115 0.1681855 -0.02603483 3614496 male
-2.583876 -0.2332232 0.420016 0.3054478 0.01326771 -0.9521164 5190702 male
-2.549949 0.6530194 0.479956 0.2691827 0.1498864 0.9513541 11636616 male
-2.63645 0.05445443 0.4309828 0.001725324 -0.2014872 -0.9794897 9344671 male
-2.746533 0.6065748 0.5658624 0.08565581 0.4274713 0.8999619 9728877 male
-2.579982 0.6146198 0.4874435 0.6097179 -0.6337923 0.4759742 9269356 male
-2.808819 0.6440096 0.3650522 -0.4843981 0.1050119 -0.8685223 9727331 male
-2.65985 0.120211 0.5852761 -0.2878271 -0.01887978 0.9574963 5724509 male
-2.7583 0.00821548 0.4617638 0.6415899 -0.3132018 -0.7001907 7495524 male
-2.634856 0.2419382 0.5781432 0.4510104 -0.1361008 0.8820806 7040371 male
-2.835513 0.6267897 0.4682384 0.8075394 -0.3437078 0.4793173 5916481 male
-2.76019 0.9292911 0.3853735 -0.8503817 0.2345886 -0.4709768 1642768 male
-2.805685 -0.137138 0.4963219 0.7910523 0.05724022 -0.6090647 6836564 male
-2.688551 0.5196582 0.5943056 -0.002504121 0.3656166 0.9307622 9598833 male
-2.65155 0.7336237 0.4585251 0.9543169 0.248644 0.1656973 8215123 male
-2.870191 -0.4580947 0.4401682 -0.1581856 -0.74516 -0.6478533 4799546 male
-2.844063 0.1120826 0.4430259 -0.734715 -0.1643276 -0.658172 6908529 male
-2.604716 -0.4163307 0.4850079 -0.8766282 0.3528681 0.3271193 9464693 male
-2.559691 -0.3031644 0.4737512 0.9426387 -0.2068948 0.2619674 8085344 male
-2.820813 0.6725344 0.3849342 -0.593316 0.4300335 -0.6804758 8609876 male
-2.728699 0.03726243 0.4921486 0.9305913 -0.3015748 -0.2074907 5264469 male
-2.56573 -0.4706434 0.4501016 -0.006523572 -0.9983937 -0.05628105 4271656 male
-2.526862 0.479952 0.4198219 -0.6779172 0.3027029 0.6699247 7557458 male
-2.683434 0.6851679 0.5164912 0.1442211 0.5040534 0.8515459 8611163 male
-2.629782 0.0362397 0.5821282 -0.1592383 -0.1550706 0.9749853 7302769 male
-2.548671 -0.4552125 0.4345124 0.9612294 -0.01108606 -0.2755271 7032145 male
-2.835973 0.6398121 0.4745599 0.6032189 -0.269565 0.7506407 8874342 male
-2.907752 0.4056407 0.4317139 0.7092723 -0.6155484 -0.3435594 6639443 male
-2.813115 0.5123777 0.5634372 -0.7046875 0.101034 0.7022874 9335661 male
-2.680335 0.9227678 0.3484122 0.2467885 0.1849581 -0.9512548 2037520 male
-2.582438 0.4737468 0.4270212 0.9021562 -0.2608085 -0.3436468 10055280 male
-2.838474 0.6702762 0.4021282 -0.7290719 0.4088157 -0.5489299 8872021 male
-2.569551 -0.3404694 0.4812883 0.811933 -0.2301203 0.5364788 6178374 male
-2.84754 0.4702215 0.4454285 -0.9606393 -0.1429853 -0.2381752 9727078 male
-2.995309 0.2952038 0.6231551 -0.5497099 0.5921825 0.5891851 6308167 male
-2.723886 0.9862411 0.4583902 -0.3854214 0.9162263 0.1094528 2693400 male
-2.895769 -0.2598264 0.473272 -0.952269 -0.09960511 -0.2885527 5324345 male
-2.74983 0.1562898 0.5867472 -0.1675122 -0.1358964 0.9764588 6513763 male
-2.955371 0.4800501 0.4164834 -0.9302049 0.05226238 -0.3633008 6242101 male
-2.917503 0.3239677 0.5981825 0.9958249 0.03334322 -0.0849769 5323070 male
-2.893376 -0.2486295 0.4647017 -0.8679159 -0.05377564 -0.4937917 4863535 male
-2.564335 0.2194548 0.4666746 0.9457698 -0.009604893 -0.3246955 7239551 male
-2.863373 -0.09582859 0.490044 -0.5940943 0.1689694 -0.7864486 8083802 male
-2.793115 -0.1067159 0.5543207 0.694983 -0.3339799 0.6367543 6571594 male
-2.626383 0.8842949 0.4156621 0.964038 -0.1861384 -0.1896924 919042 male
-2.830407 0.3256873 0.4340718 -0.8082401 0.06961523 -0.5847237 6643551 male
-2.653587 0.7173989 0.3939526 0.2628365 0.5808139 -0.7704363 6638401 male
-2.994792 0.2900166 0.6106721 -0.2106356 -0.8639473 -0.4574142 5918030 male
-2.555132 0.1500092 0.5044801 0.9982648 0.05443944 0.02244419 9474712 male
-2.487983 0.266539 0.5552964 -0.8489098 -0.3116677 -0.4268669 7489096 male
-2.682956 0.3913761 0.6282067 0.09309188 0.09018005 0.9915651 8940655 male
-2.675133 0.1150673 0.5792085 -0.4976758 -0.06225453 0.8651261 4933451 male
-2.874022 -0.1061483 0.5442678 -0.9503521 0.05708498 0.3058957 6966606 male
-2.573175 -0.3499297 0.4351215 0.8188652 -0.1423851 -0.5560452 5917002 male
-2.65335 0.9255471 0.5143802 0.7256027 0.3300622 0.6037878 8148563 male
-2.876439 -0.07719829 0.5081518 -0.9634457 0.1158446 -0.2415623 8675165 male
-2.58773 -0.1227526 0.5514671 0.6860902 -0.1794265 0.7050436 7096907 male
-2.850264 0.5187832 0.4767349 -0.9880945 0.004737196 0.1537749 7296084 male
-2.576889 -0.3870816 0.4224919 0.5888501 -0.07446055 -0.804805 5061179 male
-2.565497 -0.4048992 0.4830019 0.7768714 0.3997656 0.4864754 8808554 male
-2.933295 0.3175213 0.5791033 -0.03395142 -0.9862233 0.1618979 6113355 male
-2.809445 -0.2533765 0.5127494 0.7157605 -0.2485961 0.6526 6769742 male
-2.513739 0.5135463 0.4013511 0.4439723 -0.1494765 -0.8834848 6635580 male
-2.619761 0.4031221 0.3992968 0.62315 -0.1311041 -0.7710356 8344918 male
-2.598151 0.08449085 0.58498 0.3874036 -0.009628573 0.92186 7565941 male
-2.585614 0.3941704 0.5404723 0.8889096 0.006248984 0.45804 12888235 male
-2.650505 0.9670351 0.3978006 0.6310673 0.7116342 -0.3087569 1313800 male
-2.89844 0.6042637 0.422502 -0.8009305 0.002799964 -0.5987508 7689543 male
-2.668379 0.8761113 0.3545259 0.4227787 -0.2512709 -0.8707015 1380621 male
-2.735125 0.8476313 0.5416208 -0.4301665 -0.01191837 0.9026709 7360071 male
-2.813432 -0.0592035 0.4658363 0.1797994 -0.1811494 -0.96688 9730419 male
-2.883698 -0.1215968 0.5187213 -0.9929269 0.116911 0.02068722 8085084 male
-2.787467 0.2823043 0.5812109 -0.5723574 -0.1324568 0.8092356 6644838 male
-2.775735 0.501907 0.362576 -0.2966593 -0.2555198 -0.9201646 9988451 male
-2.873804 -0.01103836 0.5123917 -0.9831842 -0.1056859 -0.1489274 7361103 male
-2.874773 -0.4606881 0.4481147 -0.2032947 -0.9034702 -0.3773764 5523267 male
-2.726408 0.8600468 0.3560949 -0.3537967 -0.3246474 -0.8771727 2431508 male
-2.66287 0.8818459 0.5271155 0.4897916 0.2714823 0.8284935 8608087 male
-2.68776 0.1033137 0.4346882 -0.6436413 -0.4164068 -0.6421302 6514027 male
-2.708664 0.184274 0.6056987 0.113562 -0.07650527 0.990581 7434097 male
-2.594402 -0.4656731 0.4344662 -0.5252575 -0.8496859 -0.04624238 5586500 male
-2.511034 0.3954256 0.3999226 -0.2321481 -0.6165813 -0.7522864 10384760 male
-2.724558 0.04337513 0.5090095 0.9718497 -0.2305166 0.04868463 3026479 male
-2.841091 -0.2873951 0.5174949 0.272737 -0.2603726 0.926186 7097670 male
-2.618933 0.3261093 0.4090324 0.4249363 -0.1558302 -0.8917096 8082003 male
-2.615839 0.6393526 0.5177408 0.3551621 0.4533699 0.8175057 9334373 male
-2.640546 0.03835132 0.5798876 -0.321222 -0.1554842 0.9341526 7105644 male
-2.905757 0.4492829 0.39794 0.3861598 -0.648552 -0.6559427 8608600 male
