# .PCD v0.7 - Point Cloud Data file format
VERSION 0.7
FIELDS x y z normal_x normal_y normal_z rgb label
SIZE 4 4 4 4 4 4 4 4
TYPE F F F F F F U U
COUNT 1 1 1 1 1 1 1 1
WIDTH 132
HEIGHT 1
VIEWPOINT 0 0 0 1 0 0 0
POINTS 132
DATA ascii
-2.786449 0.4614529 0.5944615 -0.5247308 0.1431229 0.8391504 9598321 male
-2.876196 0.04475783 0.5339434 -0.9761108 0.0237078 0.215976 8687244 male
-2.667821 0.1118055 0.5819821 -0.3812213 -0.08030497 0.9209894 5526868 male
-2.866729 -0.001123983 0.486103 -0.8865818 -0.09846941 -0.4519695 8216672 male
-2.772372 0.3325055 0.6118944 -0.5792713 -0.1044675 0.8084128 8151396 male
-2.609473 -0.3559473 0.4227301 -0.5279995 0.01534098 -0.8491061 7033162 male
-2.812644 0.6919725 0.3915485 -0.5307007 0.6009074 -0.5977182 7688772 male
-2.836042 0.6146891 0.4942968 -0.7329035 -0.4482072 0.5118231 7821654 male
-2.725443 0.8541329 0.5462627 -0.5460397 0.2600147 0.7963875 6505023 male
-2.561501 0.192142 0.4784569 0.973026 0.04891209 -0.2254508 7237750 male
-2.834566 -0.3543449 0.4909443 0.8548526 -0.008975131 0.5187933 8676715 male
-2.644251 0.8277864 0.4427176 0.9349809 -0.3515957 -0.04680946 6897978 male
-2.628924 0.5840374 0.3454888 0.2857841 -0.1073282 -0.9522647 10581351 male
-2.736385 0.3289037 0.625607 -0.1197703 -0.1307711 0.9841514 9663859 male
-2.848262 0.2882233 0.4483052 -0.9038695 0.2733437 -0.3290944 7566199 male
-2.804244 -0.1646273 0.4925251 0.9288809 0.1608766 -0.3336149 7032652 male
-2.661351 -0.05305486 0.4621486 -0.6235299 -0.08648171 -0.7770015 8874086 male
-2.915773 0.5763306 0.4485957 -0.9405283 0.3370763 -0.04226015 7560530 male
-2.70022 0.6582122 0.5343935 0.0315618 0.5176346 0.8550195 8151642 male
-2.821557 0.4900215 0.5537655 -0.7797872 0.05135605 0.6239347 9796470 male
-2.749145 0.7746747 0.4876845 -0.8567652 -0.03506289 0.5145134 9529184 male
-2.876461 0.07467317 0.5116069 -0.9993092 0.03339466 -0.01630776 6645352 male
-2.617797 -0.4484155 0.5601416 -0.2565354 0.8723941 0.4160745 16772087 male
-2.539389 0.478648 0.3890142 -0.6684877 -0.2792869 -0.6892917 9002592 male
-2.663438 0.02194661 0.5631584 -0.614956 -0.1861697 0.7662702 6052442 male
-2.706264 0.2762245 0.389059 0.03428276 0.3030415 -0.9523606 8816782 male
-2.737769 0.3864891 0.3861877 0.1526185 -0.2768913 -0.9487038 9332573 male
-2.602792 0.3433256 0.5646127 0.765718 -0.07085019 0.6392623 11899540 male
-2.564616 0.1470526 0.5434971 0.9007113 0.0879546 0.4254211 9344927 male
-2.967558 0.3193616 0.5679976 -0.5470267 0.6357578 0.5445859 6309194 male
-2.785515 0.6006477 0.3433828 -0.2987952 0.002733987 -0.9543133 10843499 male
-2.59995 0.4612093 0.5526243 0.8020401 0.09981376 0.5888709 10913669 male
-2.898965 -0.1966346 0.4827431 -0.965103 0.1301308 -0.227249 7362903 male
-2.942803 0.309691 0.5160884 0.8619118 -0.3964708 -0.3160997 6702917 male
-2.78014 0.8574406 0.4384514 -0.7394823 0.2411984 0.6284816 9066071 male
-2.577468 0.5806658 0.4437486 -0.9623755 -0.2547616 0.09449816 5454138 male
-2.848688 0.1727113 0.5517405 -0.7521275 0.2458332 0.6114494 5527382 male
-2.867528 0.5226389 0.4336828 0.8376383 -0.4390658 -0.3249359 11376268 male
-2.563073 -0.1956603 0.4377251 0.7140197 0.189088 -0.674108 7163467 male
-2.654055 0.2478891 0.3844638 0.1476646 0.2445923 -0.9583161 7897222 male
-2.6527 0.1724938 0.3775228 0.1703787 -0.141969 -0.9750979 8884631 male
-2.491562 0.3200076 0.467349 0.2740868 -0.6181184 -0.7367538 7887447 male
-2.625863 0.9331141 0.4135754 0.9427624 0.2958998 -0.1537602 1248008 male
-2.761978 0.6008818 0.5669482 -0.08351885 0.4266413 0.9005564 10255731 male
-2.773533 0.922662 0.4332282 -0.9854155 0.1679294 -0.02749455 3614496 male
-2.584413 -0.233518 0.4195752 0.3046934 0.0120602 -0.9523742 5190702 male
-2.558235 0.6448648 0.476775 0.01174505 -0.01200555 0.999859 11374212 male
-2.63667 0.05418162 0.4300915 0.002450952 -0.2026701 -0.979244 9344671 male
-2.750654 0.6154742 0.5599033 0.01272014 0.4646951 0.8853794 9334637 male
-2.57994 0.6145253 0.4865422 0.6089382 -0.6341551 0.4764887 9269356 male
-2.808516 0.6440198 0.3637361 -0.4823615 0.1061734 -0.869514 9727331 male
-2.66017 0.1201333 0.5842892 -0.2886373 -0.01762826 0.9572762 5724509 male
-2.758518 0.008124634 0.4605561 0.6425248 -0.3132508 -0.6993109 7495524 male
-2.635113 0.2418019 0.5770907 0.4499048 -0.1357914 0.8826928 7040371 male
-2.835408 0.6267154 0.4668001 0.8068867 -0.3434874 0.4805729 5916481 male
-2.760028 0.9293051 0.3846656 -0.8495643 0.2353822 -0.4720547 1642768 male
-2.806014 -0.1372361 0.4949565 0.7919715 0.05683621 -0.6079069 6836564 male
-2.702312 0.5304994 0.5880628 -0.01115907 0.3699182 0.9289973 9993847 male
-2.651494 0.7335078 0.4576393 0.9539256 0.2485231 0.1681134 8215123 male
-2.885489 -0.4498341 0.4424385 -0.689736 -0.1583389 -0.7065359 6508618 male
-2.84422 0.1120225 0.4417268 -0.733825 -0.1639546 -0.659257 6908529 male
-2.605363 -0.4165458 0.4848108 -0.8759686 0.3537041 0.3279825 9464693 male
-2.559566 -0.2942591 0.4782937 0.9171149 -0.2100357 0.3387997 7756637 male
-2.820562 0.6725096 0.3836277 -0.5918158 0.4308791 -0.6812469 8609876 male
-2.728954 0.03715129 0.4910004 0.9307846 -0.3018802 -0.2061753 5264469 male
-2.566466 -0.4709158 0.4499059 -0.00716988 -0.998434 -0.055481 4271656 male
-2.521542 0.4879802 0.4242623 -0.6090076 0.3447162 0.7143393 6834759 male
-2.683481 0.6849878 0.5154923 0.1423891 0.5030361 0.8524553 8611163 male
-2.630138 0.03615543 0.5812798 -0.160063 -0.1537129 0.9750652 7302769 male
-2.549419 -0.4555073 0.4342758 0.9608106 -0.01185792 -0.2769521 7032145 male
-2.835909 0.63972 0.4731541 0.6017622 -0.2702184 0.7515745 8874342 male
-2.907847 0.4082959 0.4232878 0.6325225 -0.6417513 -0.4336712 7296086 male
-2.810723 0.5223957 0.5622187 -0.6658804 0.1473305 0.7313665 9006957 male
-2.680102 0.9228868 0.34784 0.2485221 0.1871258 -0.9503792 2037520 male
-2.582317 0.4735729 0.4260094 0.9026471 -0.2610188 -0.3421948 10055280 male
-2.837554 0.6669853 0.3978992 -0.7300227 0.3876723 -0.5628294 8872021 male
-2.570128 -0.3407112 0.480945 0.8122123 -0.2302176 0.5360141 6178374 male
-2.847453 0.4701311 0.4439798 -0.9602975 -0.1426056 -0.2397754 9727078 male
-2.998308 0.3023331 0.5971928 -0.9721255 0.006901529 0.2343597 5192510 male
-2.723879 0.9861034 0.4578749 -0.3859276 0.9158583 0.1107405 2693400 male
-2.896094 -0.2599289 0.4718205 -0.9518543 -0.0995376 -0.2899407 5324345 male
-2.750174 0.1561932 0.585603 -0.1689437 -0.1357289 0.9762355 6513763 male
-2.954963 0.4798126 0.414321 -0.9297073 0.05105038 -0.364744 6242101 male
-2.920473 0.3189666 0.6030824 0.5043911 -0.817647 0.2775662 9140346 male
-2.893686 -0.2487368 0.463248 -0.8671823 -0.05384051 -0.4950718 4863535 male
-2.564481 0.2191978 0.4657165 0.9461261 -0.01043302 -0.3236303 7239551 male
-2.863678 -0.09590401 0.4885956 -0.5928465 0.16904 -0.7873744 8083802 male
-2.793519 -0.1067998 0.5529885 0.6939205 -0.3341255 0.6378358 6571594 male
-2.626265 0.8842815 0.4151036 0.9644477 -0.1854171 -0.1883111 919042 male
-2.830428 0.3256067 0.4327412 -0.8074089 0.06991239 -0.5858355 6643551 male
-2.643009 0.7306072 0.4167212 0.642425 0.7039921 -0.3027958 7030849 male
-2.994365 0.2896256 0.6083243 -0.2076567 -0.8640544 -0.4585725 5918030 male
-2.555362 0.1497744 0.5035574 0.9982794 0.05384155 0.02322534 9474712 male
-2.491818 0.2689674 0.5525635 -0.8996391 -0.2678554 -0.3448231 6043705 male
-2.683196 0.3912439 0.627046 0.09179174 0.0903031 0.9916751 8940655 male
-2.675452 0.1149894 0.5782121 -0.4984397 -0.06100186 0.8647755 4933451 male
-2.874411 -0.1062146 0.5428114 -0.9507838 0.05739785 0.3044923 6966606 male
-2.571632 -0.3338718 0.4354376 0.8066894 -0.1632998 -0.567966 5651261 male
-2.653427 0.9253079 0.5138631 0.7243768 0.3289357 0.605871 8148563 male
-2.876763 -0.07726318 0.5067046 -0.9630484 0.1161457 -0.2429978 8675165 male
-2.588107 -0.1229065 0.5508769 0.6859776 -0.1790184 0.7052568 7096907 male
-2.850205 0.518656 0.4752475 -0.9883806 0.004716738 0.1519259 7296084 male
-2.583683 -0.3804128 0.4189659 0.4761267 -0.04248393 -0.8783498 5257783 male
-2.566138 -0.405136 0.4827403 0.7777371 0.3997097 0.4851361 8808554 male
-2.923321 0.3175772 0.5855102 0.4508202 -0.8772322 -0.1649998 6309447 male
-2.80983 -0.2534785 0.5114255 0.7147245 -0.2484199 0.6538016 6769742 male
-2.501292 0.4311473 0.3764176 0.08809672 -0.5576282 -0.8254028 7557458 male
-2.619673 0.4029018 0.3982229 0.6241253 -0.1316704 -0.7701496 8344918 male
-2.598486 0.08438929 0.5840921 0.3866678 -0.008672407 0.9221783 7565941 male
-2.585728 0.3939572 0.5394496 0.8882598 0.005792057 0.4593049 12888235 male
-2.650378 0.967054 0.3973801 0.6314219 0.7125035 -0.3060149 1313800 male
-2.893286 0.6156438 0.4138294 -0.7541819 -0.08282274 -0.6514215 7887439 male
-2.668144 0.8762197 0.3538722 0.4244865 -0.2492289 -0.8704575 1380621 male
-2.732809 0.8454259 0.5415892 -0.394643 -0.1211069 0.9108183 7688012 male
-2.813683 -0.05928042 0.4645019 0.181183 -0.1810661 -0.9666373 9730419 male
-2.884056 -0.1216664 0.5172364 -0.9929264 0.1171731 0.01917404 8085084 male
-2.787713 0.2822497 0.5799628 -0.573508 -0.131792 0.8085292 6644838 male
-2.775488 0.501818 0.3612375 -0.2951482 -0.2551632 -0.9207494 9988451 male
-2.874105 -0.01110002 0.5109968 -0.9829963 -0.1053013 -0.1504323 7361103 male
-2.875138 -0.4608058 0.4468538 -0.2028624 -0.9035757 -0.3773564 5523267 male
-2.726169 0.8601342 0.355297 -0.352044 -0.3228326 -0.8785467 2431508 male
-2.662958 0.8815761 0.5264837 0.4881605 0.2698079 0.8300018 8608087 male
-2.68795 0.1030932 0.4336853 -0.6432622 -0.4166359 -0.6423615 6514027 male
-2.709004 0.1841814 0.6045917 0.1121889 -0.07615179 0.9907646 7434097 male
-2.593279 -0.4652529 0.4205868 -0.519183 -0.8190209 -0.2442412 2632231 male
-2.510583 0.3952874 0.3990156 -0.2283418 -0.6193469 -0.7511787 10384760 male
-2.724835 0.04325869 0.5078713 0.9716867 -0.2309068 0.05007104 3026479 male
-2.84149 -0.2874874 0.5161456 0.2712876 -0.2599346 0.9267346 7097670 male
-2.618919 0.3258775 0.407983 0.4260172 -0.1564589 -0.8910835 8082003 male
-2.615875 0.6391883 0.5168214 0.3532454 0.4525507 0.8187891 9334373 male
-2.592414 0.06025232 0.5816583 0.4551824 -0.07165461 0.8875104 6645096 male
-2.905263 0.4491506 0.3958372 0.388452 -0.6472571 -0.6558684 8608600 male
