# .PCD v0.7 - Point Cloud Data file format
VERSION 0.7
FIELDS x y z normal_x normal_y normal_z rgb label
SIZE 4 4 4 4 4 4 4 4
TYPE F F F F F F U U
COUNT 1 1 1 1 1 1 1 1
WIDTH 132
HEIGHT 1
VIEWPOINT 0 0 0 1 0 0 0
POINTS 132
DATA ascii
-2.79365 0.4126112 0.5831433 -0.5187644 0.05076833 0.8534085 9334895 male
-2.786706 -0.09639973 0.5092511 0.9734924 -0.2107311 -0.08890888 7624284 male
-2.685376 0.107022 0.5586461 -0.3254155 -0.0729033 0.9427565 5526868 male
-2.885767 -0.03303031 0.4897513 -0.9467801 -0.08353576 -0.3108522 7690583 male
-2.791324 0.4611014 0.5775151 -0.4310237 0.1546236 0.8889939 9401455 male
-2.657785 -0.3639201 0.391299 -0.8010999 0.01406046 -0.5983655 6503481 male
-2.836487 0.6985828 0.4094508 -0.5978953 0.7876005 -0.1490187 8281682 male
-2.848147 0.608897 0.483732 -0.7332893 -0.4603267 0.500386 7953240 male
-2.719548 0.8247272 0.5499891 -0.3666969 -0.05751553 0.9285609 7556426 male
-2.583699 0.1847273 0.4485729 0.9577283 0.02164024 -0.2868592 7237750 male
-2.84724 -0.3492163 0.4886393 0.8514538 -0.0379843 0.5230521 8544353 male
-2.652686 0.8291276 0.428578 0.9056358 -0.4049764 -0.1257696 7226940 male
-2.634397 0.6679616 0.3476499 0.4203326 0.4047752 -0.8120822 7295302 male
-2.720361 0.3907887 0.6037034 0.0112533 0.08014868 0.9967194 10059649 male
-2.858005 0.2724044 0.5159866 -0.7130457 0.2976093 0.6348186 8093060 male
-2.864765 -0.05996733 0.4658913 -0.6053898 -0.1039494 -0.7891119 8084826 male
-2.703073 -0.04631023 0.4497958 -0.8626402 -0.07661939 -0.4999813 8544092 male
-2.932058 0.5559547 0.4479675 -0.9430737 0.3316687 0.0246531 7427661 male
-2.696593 0.6263802 0.5300817 0.0244806 0.4170864 0.9085371 9729387 male
-2.837914 0.4829414 0.5300426 -0.7817458 0.04140259 0.6222214 9730675 male
-2.764585 0.7793232 0.4722941 -0.9109148 -0.09813852 0.4007532 8805204 male
-2.894731 0.07120635 0.5071973 -0.9963901 0.02062115 0.0823495 6645352 male
-2.644642 -0.4621444 0.5230193 0.2386334 0.879271 0.4122337 15451336 male
-2.545577 0.4535395 0.3528765 -0.5679347 -0.3893905 -0.7251381 9528936 male
-2.685464 0.01695707 0.5395885 -0.5710323 -0.1693324 0.8032737 6052442 male
-2.632968 0.230999 0.371884 0.5288197 0.05902065 -0.8466796 7566459 male
-2.821381 0.4988298 0.3568749 -0.5431501 -0.2065501 -0.8138336 9923174 male
-2.601815 0.3036766 0.4978733 0.8944077 0.02739338 0.4464128 10979209 male
-2.583848 0.1392163 0.5142645 0.9285569 0.0586967 0.36652 9344927 male
-2.944741 0.3275159 0.5859212 -0.5018549 0.6322924 0.5902101 6506315 male
-2.802112 0.6398657 0.3363494 -0.3843051 0.2628905 -0.8849848 9923166 male
-2.603287 0.4718218 0.5035218 0.9027 0.05371581 0.4269043 10649464 male
-2.90823 -0.1953478 0.4667932 -0.8284259 0.1891437 -0.5271956 6112060 male
-2.920511 0.3214931 0.5284096 0.811874 -0.3868596 -0.4372644 8546153 male
-2.790128 0.8819344 0.4421745 -0.7628531 -0.07997814 0.6416063 9725283 male
-2.591734 0.5704258 0.4267697 -0.973631 -0.1820295 0.137506 7557970 male
-2.864941 0.1707232 0.542193 -0.6951984 0.2512291 0.6734859 5527382 male
-2.881874 0.5231789 0.4199955 0.6733879 -0.4508136 -0.5859316 12100759 male
-2.586154 -0.2463928 0.4363515 0.9891437 -0.1160113 -0.09020058 7295569 male
-2.668027 0.242315 0.3605251 0.157097 0.221855 -0.9623413 7962758 male
-2.682566 0.1741611 0.3520912 0.08875607 -0.1107633 -0.9898756 8818838 male
-2.517241 0.3099467 0.4687321 0.8213313 -0.5445365 -0.1699854 6966085 male
-2.643752 0.9481381 0.4102007 0.8416678 0.4932759 -0.2197138 1313804 male
-2.724902 0.5168064 0.5685292 0.05828078 0.3528482 0.9338637 9993591 male
-2.782428 0.9210314 0.4419805 -0.982033 0.1852727 0.03585083 3614496 male
-2.621774 -0.238006 0.3911767 0.312092 0.03369696 -0.9494541 4860969 male
-2.562251 0.6388626 0.4540496 0.1142467 -0.01968678 0.9932573 11703177 male
-2.675655 0.007592306 0.4138519 -0.2998696 -0.1414758 -0.9434314 7887450 male
-2.675367 0.468477 0.5820026 0.2743038 0.2510641 0.9282911 9466735 male
-2.590351 0.5330002 0.4746337 0.9544087 -0.03036436 0.2969545 7688782 male
-2.820749 0.6828509 0.3684885 -0.5059071 0.5440642 -0.669367 8279884 male
-2.677319 0.1150985 0.5604835 -0.2285015 -0.01352528 0.9734496 5724509 male
-2.779119 0.001867065 0.4496995 0.6257572 -0.3255005 -0.7088564 8086891 male
-2.643744 0.2183319 0.5451553 0.435485 -0.007972148 0.9001607 7369338 male
-2.854798 0.6103356 0.4658704 0.6880373 -0.1586449 0.7081218 8020832 male
-2.771059 0.9321286 0.3936885 -0.8657045 0.2926484 -0.4060944 1642768 male
-2.842344 -0.0777693 0.4638894 0.03449405 -0.1565307 -0.9870706 8742500 male
-2.616442 0.484629 0.526534 0.8187473 0.03287374 0.5732121 10651009 male
-2.651295 0.7109352 0.4452897 0.756108 0.5272381 0.387712 9465446 male
-2.898602 -0.4528188 0.4413837 -0.7710131 -0.1776386 -0.6115416 6508618 male
-2.877948 0.2011448 0.4548427 -0.9552677 0.09765068 -0.279156 8158595 male
-2.649842 -0.4291739 0.4543295 -0.802533 0.4724712 0.3642963 8674667 male
-2.598329 -0.3002689 0.4442786 0.9356669 -0.2456331 0.2533613 7756637 male
-2.849099 0.6876981 0.4072241 -0.6780124 0.687142 -0.2610271 7952202 male
-2.757059 0.03748114 0.4542243 0.7818908 -0.3276011 -0.5304001 5002324 male
-2.577438 -0.4750476 0.4554411 0.6706026 -0.6359644 -0.3818919 5389369 male
-2.566184 0.4963889 0.3982978 -0.9407596 0.002554485 0.3390645 8872034 male
-2.707406 0.6878802 0.4995602 0.09971136 0.3874024 0.9165026 8411734 male
-2.650596 0.02991519 0.5555091 -0.1035431 -0.1527603 0.982824 7302769 male
-2.601146 -0.4586285 0.3846415 0.922447 -0.003958344 -0.3861033 7031114 male
-2.846856 0.6405224 0.4722479 -0.06089233 -0.5253994 0.8486741 9863294 male
-2.90722 0.3985864 0.4506024 0.9822655 -0.1862896 0.02122804 6706519 male
-2.830878 0.5180171 0.5350015 -0.7221386 0.08799475 0.6861288 10060414 male
-2.706577 0.9342313 0.3523837 0.03478951 0.3448397 -0.9380167 2694168 male
-2.610624 0.4727795 0.3767478 0.7553045 -0.278513 -0.59325 10252659 male
-2.857683 0.6370496 0.3755291 -0.6187308 0.1052697 -0.7785181 9135194 male
-2.614611 -0.3117803 0.4628664 0.5289849 -0.2970501 0.7949442 5981507 male
-2.86354 0.4381874 0.4421453 -0.9777257 -0.176086 -0.1142193 8543318 male
-2.957569 0.3057021 0.6442948 -0.8954976 -0.103056 0.4329706 2103315 male
-2.730422 0.9810412 0.4701672 -0.362112 0.9067728 0.2159582 2693400 male
-2.910707 -0.2675941 0.4959273 -0.953801 -0.1837028 0.2377328 6048330 male
-2.78211 0.1846959 0.5633252 -0.2478864 0.1246848 0.960732 6578788 male
-2.968986 0.4766406 0.417436 -0.9820833 0.1772731 0.06392695 5126189 male
-2.897362 0.3375684 0.605165 -0.453589 -0.7335877 0.5060692 3877419 male
-2.90778 -0.2614512 0.5088584 -0.8771655 -0.1963084 0.4382279 7035226 male
-2.582057 0.1992691 0.4550789 0.9757801 0.003055617 -0.2187326 6908785 male
-2.890736 -0.06974668 0.5064873 -0.9935386 0.06066168 -0.09592301 8478816 male
-2.884465 -0.0199625 0.5384135 -0.8817314 -0.1547356 0.445653 6245199 male
-2.636611 0.8949974 0.40723 0.9431807 -0.1213619 -0.3093243 1050114 male
-2.855304 0.3088068 0.4179463 -0.8071803 0.3211025 -0.4953313 7039854 male
-2.661396 0.7038053 0.3644772 0.307541 0.4753201 -0.8243114 7032386 male
-2.961014 0.3105665 0.6034487 -0.2114305 -0.9725206 0.09747259 5584180 male
-2.577258 0.1418086 0.473928 0.9988983 0.02318627 -0.04079916 9474712 male
-2.53969 0.2558815 0.5787584 -0.6007856 -0.4259893 -0.6764538 9134952 male
-2.679845 0.3561824 0.6008534 0.3156061 0.03548871 0.9482264 9268852 male
-2.71175 0.1000578 0.5410331 -0.7229115 -0.03000107 0.690289 5066578 male
-2.886417 -0.09845564 0.5391886 -0.9186276 0.03674661 0.3934119 5783615 male
-2.615309 -0.3375318 0.4003224 0.7534264 -0.154606 -0.6390974 5651261 male
-2.669058 0.9204021 0.5242317 0.5928165 0.3228119 0.7378082 8674650 male
-2.870074 -0.0735934 0.4745287 -0.6415238 -0.0323552 -0.7664205 7821910 male
-2.635961 -0.1164005 0.53857 0.2180015 -0.2344573 0.9473674 5716798 male
-2.859067 0.5219043 0.483045 -0.939647 0.05536051 0.337637 6572867 male
-2.635944 -0.3882349 0.3765188 0.2528707 0.06351536 -0.965413 5389113 male
-2.636789 -0.4058253 0.4533772 -0.2262487 0.5185541 0.8245685 11701137 male
-2.896823 0.3341642 0.5964963 -0.03760057 -0.9822454 0.1837936 5258044 male
-2.829755 -0.3040661 0.479975 0.9682493 -0.2491537 0.02039258 6177853 male
-2.51292 0.4037143 0.3612599 0.2466037 -0.6767567 -0.6936764 6833735 male
-2.638145 0.3768989 0.3709584 0.5187716 -0.06410172 -0.8525063 8674395 male
-2.617141 0.07707953 0.556437 0.4427488 -0.02642523 0.8962562 7565941 male
-2.606255 0.4026819 0.5219166 0.8662241 -0.003737521 0.4996417 11769234 male
-2.660175 0.9668003 0.404708 0.6309742 0.7287051 -0.2661963 1313800 male
-2.91155 0.612659 0.4162084 -0.865069 -0.07685505 -0.4957307 7755853 male
-2.671856 0.8683274 0.3631222 0.5431132 -0.2959742 -0.7857655 1379853 male
-2.733018 0.8317234 0.5421962 -0.4405618 -0.4004537 0.8034564 7096899 male
-2.820285 -0.08804031 0.4724994 0.3620203 -0.2043947 -0.9094856 9136748 male
-2.902075 -0.1385041 0.4996744 -0.9466235 0.2588318 -0.1921197 8545889 male
-2.817791 0.3188037 0.5560841 -0.6941897 -0.08334946 0.71495 8218985 male
-2.787654 0.4998219 0.339754 -0.2652617 -0.2258255 -0.9373575 10448749 male
-2.89444 0.02351452 0.5160987 -0.9928818 -0.04666187 0.1095828 8552835 male
-2.894786 -0.4586344 0.4423454 -0.6106206 -0.5661787 -0.5537005 4471608 male
-2.739974 0.8655402 0.3561689 -0.3981348 -0.2315279 -0.887628 2431508 male
-2.686785 0.8660505 0.5357107 0.5534294 0.2791412 0.7847268 8278604 male
-2.718309 0.1153282 0.3988989 -0.6444838 -0.5834225 -0.4942255 5855585 male
-2.728674 0.1456892 0.5730361 -0.09507824 -0.5938748 0.7989198 7302767 male
-2.61919 -0.4642062 0.3615108 0.3730847 -0.5752954 -0.7279031 2496533 male
-2.553091 0.3706408 0.4288487 -0.990126 -0.1023611 -0.09577436 9138802 male
-2.740222 0.1186941 0.4251342 0.7537103 -0.4848427 -0.443676 5460571 male
-2.852363 -0.2524321 0.5244545 0.3654808 -0.228397 0.9023627 6505794 male
-2.719618 0.4371225 0.3523661 -0.2449502 -0.2438591 -0.9383668 10976629 male
-2.693568 0.6999283 0.4924849 0.391375 0.2849932 0.8749883 8938336 male
-2.612067 0.05268026 0.5537205 0.5075502 -0.09188668 0.8567086 6645096 male
-2.913659 0.4815883 0.3963484 0.209034 -0.4105978 -0.8875327 7095874 male
