# .PCD v0.7 - Point Cloud Data file format
VERSION 0.7
FIELDS x y z normal_x normal_y normal_z rgb label
SIZE 4 4 4 4 4 4 4 4
TYPE F F F F F F U U
COUNT 1 1 1 1 1 1 1 1
WIDTH 132
HEIGHT 1
VIEWPOINT 0 0 0 1 0 0 0
POINTS 132
DATA ascii
-2.869596 0.4543596 -0.4743206 -0.3875861 0.1164064 0.9144542 9598321 male
-2.874215 -0.07603274 -0.5244349 0.9751214 -0.1960705 -0.1034153 8019042 male
-2.731054 0.1041307 -0.5000929 -0.03407812 0.01209089 0.999346 6316901 male
-2.977772 0.03727875 -0.5501422 -0.9739472 -0.05322387 -0.2204408 7632505 male
-2.855463 0.3301929 -0.4614649 -0.449583 -0.09719022 0.8879354 8151396 male
-2.722463 -0.3646059 -0.6355103 -0.9890374 -0.1434969 0.03483842 7952216 male
-2.916943 0.6849994 -0.5862336 -0.001799882 0.7828694 0.6221834 8677731 male
-2.918899 0.6233638 -0.5452785 -0.406534 -0.02716874 0.9132316 10651521 male
-2.823867 0.8578242 -0.5128515 -0.1778596 0.1618951 0.9706471 9132887 male
-2.673623 0.1599759 -0.6316868 0.8888864 0.02927334 -0.4571915 7040371 male
-2.943385 -0.3486677 -0.5493917 0.9859235 0.002572428 0.1671774 7097939 male
-2.750446 0.8094924 -0.6063016 0.9465351 -0.3128223 -0.0788264 7160636 male
-2.736832 0.5955449 -0.7342353 0.3603716 -0.009947132 -0.9327558 10648171 male
-2.814472 0.3156862 -0.4550034 0.05147383 -0.1675814 0.9845136 9532021 male
-2.953358 0.2810149 -0.5617716 -0.879617 0.3351074 0.3376046 7896192 male
-2.928995 -0.07690593 -0.5604232 0.1470544 -0.2082734 -0.9669526 9136748 male
-2.772123 -0.0383557 -0.6146701 -0.8015975 -0.1796232 -0.5702428 9202027 male
-3.018738 0.5715508 -0.592685 -0.9326019 0.3418105 0.1158416 7560530 male
-2.778546 0.6462041 -0.5369383 0.2002774 0.4642737 0.8627508 8610905 male
-2.908929 0.5024192 -0.5081975 -0.6699107 0.04124947 0.7412949 9730932 male
-2.854459 0.7737673 -0.5779848 -0.8565571 -0.05566264 0.5130416 9002839 male
-2.919012 0.1261754 -0.4728278 -0.2928064 0.2419803 0.925046 6513252 male
-2.695199 -0.450268 -0.522801 0.1160047 0.9122807 0.3927936 15320781 male
-2.65518 0.5555871 -0.7018318 -0.1547286 -0.2961481 -0.9425261 10384235 male
-2.719886 0.01425741 -0.5081218 -0.01218931 -0.1457904 0.9892404 7040363 male
-2.76725 0.2563124 -0.6994723 0.02160216 0.2523725 -0.967389 8553867 male
-2.893381 0.4607966 -0.6955917 -0.4625377 -0.2265216 -0.8571738 9856869 male
-2.671233 0.2817926 -0.6186792 0.9242584 0.3551153 -0.1401414 6712175 male
-2.699456 0.1589733 -0.5178717 0.4598266 0.2843695 0.8412452 7171957 male
-3.082533 0.2916187 -0.4780349 -0.8899096 0.1191229 0.4403076 5784132 male
-2.904584 0.6250743 -0.7127086 -0.4878059 0.1920606 -0.8515621 10252643 male
-2.701907 0.4191486 -0.5163675 0.8160481 0.02667674 0.5773681 10847876 male
-2.975232 -0.1800285 -0.5750599 -0.2588843 0.2688212 -0.9277468 7953235 male
-3.040637 0.2942391 -0.5316459 0.8441848 -0.4762528 -0.2460396 4992555 male
-2.872692 0.8529927 -0.5861526 -0.9474184 -0.04565535 0.3167238 7556426 male
-2.689739 0.5957566 -0.660319 -0.9529063 -0.2797037 0.1171986 6046266 male
-2.964984 0.1462988 -0.6006836 -0.9445245 0.02288303 -0.3276427 7172469 male
-2.965319 0.5739698 -0.640756 0.2644299 -0.4598698 -0.8477007 7425866 male
-2.666522 -0.2568962 -0.5750689 0.59858 -0.2299643 0.767345 6902352 male
-2.817579 0.2830926 -0.688794 -0.1046935 0.2850446 -0.9527795 8356231 male
-2.819735 0.2166923 -0.7039627 -0.1438805 0.1022402 -0.9842994 8949136 male
-2.58476 0.318814 -0.6375461 0.9408303 -0.285533 -0.182508 7163465 male
-2.744717 0.9104103 -0.6731856 0.8322819 0.00276889 -0.5543457 1050116 male
-2.860603 0.6185404 -0.5136325 -0.0950448 0.512135 0.8536301 9334635 male
-2.87876 0.9203678 -0.6053385 -0.9767698 0.158825 0.1438586 3614496 male
-2.658616 -0.250103 -0.6423739 0.8227313 -0.06972896 -0.5641376 5521212 male
-2.647156 0.6506693 -0.6189118 0.4809812 0.1522063 0.8634178 11504774 male
-2.717932 0.05445125 -0.6533341 0.2514867 -0.1702631 -0.952767 7304576 male
-2.867255 0.6413333 -0.5309464 -0.09621202 0.5595197 0.8232138 9466219 male
-2.678662 0.5610541 -0.581145 0.9719855 -0.06548215 0.2257349 9136226 male
-2.928019 0.6736317 -0.6729815 -0.6468375 0.4586387 -0.6093043 8805970 male
-2.73763 0.1126216 -0.5005562 -0.0597108 0.03221293 0.9976958 5724511 male
-2.963148 0.1477671 -0.6049009 -0.9358259 0.01132473 -0.3522806 7106676 male
-2.684944 0.2166682 -0.5468007 0.6761779 0.1491724 0.7214783 6514027 male
-2.939344 0.6196414 -0.5946928 -0.3080836 -0.7383841 0.5998946 7690068 male
-2.8731 0.9313869 -0.654626 -0.9125205 0.2668041 -0.3100354 1642768 male
-2.934904 -0.06158217 -0.5705108 -0.09303842 -0.2087868 -0.9735255 9598833 male
-2.795845 0.5306708 -0.4928895 0.1522232 0.3261614 0.9329774 10059382 male
-2.753187 0.7202581 -0.6016899 0.9119356 0.2852833 0.2949355 8149587 male
-3.008834 -0.4364049 -0.5777162 -0.8928215 -0.06703067 -0.445395 7033170 male
-2.866828 0.001277903 -0.5879203 0.614477 -0.4006251 -0.6796451 7495008 male
-2.701058 -0.4265165 -0.5848004 -0.7887761 0.4625265 0.4048475 8674667 male
-2.672077 -0.3071586 -0.647937 0.7095432 -0.1523067 -0.6880051 5453876 male
-2.9226 0.6994895 -0.6144682 -0.3550549 0.8913373 0.2818755 9730674 male
-2.843858 0.06885245 -0.6152768 0.6361336 -0.3889027 -0.6663998 4015947 male
-2.642801 -0.472551 -0.6143686 0.4314324 -0.796856 -0.4229499 3743770 male
-2.660102 0.501151 -0.6789829 -0.8516707 -0.08394896 0.5173098 8872034 male
-2.769851 0.6283328 -0.5285233 0.1418512 0.4566107 0.8782852 9532008 male
-2.708993 0.026153 -0.5063103 0.1539343 -0.1246621 0.9801855 6711406 male
-2.65606 -0.4569702 -0.6560733 0.8927628 0.009778157 -0.4504209 7031114 male
-2.949761 0.6504828 -0.5657274 0.07759789 -0.06208807 0.9950495 10322812 male
-3.020437 0.3833886 -0.5583808 0.9212622 0.1799449 0.3448127 7099731 male
-2.945859 0.5080149 -0.56475 -0.9246119 0.02478221 0.3801035 6308929 male
-2.800035 0.9291036 -0.7040459 0.09551046 0.2724846 -0.957408 2037520 male
-2.679939 0.4473595 -0.6263134 0.9833444 -0.09107644 -0.1572858 10122097 male
-2.931307 0.6924005 -0.6501709 -0.6582791 0.6490315 -0.3813485 7688775 male
-2.670622 -0.3629496 -0.6127409 0.9752399 -0.1325997 0.1769874 7690839 male
-2.950377 0.4496636 -0.6133858 -0.9773447 -0.1711528 -0.1245153 9200475 male
-3.074027 0.2906922 -0.4354766 0.07321076 0.7748589 0.6278805 7887713 male
-2.825658 0.9819376 -0.583379 -0.3606823 0.898376 0.2506564 2693400 male
-2.990078 -0.2293478 -0.4928025 -0.5016579 -0.2391316 0.8313576 6113092 male
-2.852134 0.1651216 -0.4864117 0.04342332 0.09013879 0.9949821 7039339 male
-3.059762 0.4958069 -0.6187478 -0.9507471 0.308075 0.03420227 5783095 male
-3.007965 0.3056814 -0.4590341 0.212932 -0.9769963 0.01175302 6903384 male
-3.008884 -0.2363036 -0.5552103 -0.9308478 -0.04319419 -0.3628453 4863535 male
-2.667906 0.1862102 -0.6163424 0.9518266 0.04953655 -0.3026092 7698815 male
-2.969139 -0.08287262 -0.5406589 -0.6686196 0.1052077 -0.7361244 8215387 male
-2.904297 -0.07170374 -0.4663562 0.583079 -0.168129 0.794828 5583924 male
-2.747142 0.8716723 -0.6652739 0.8197162 -0.247344 -0.5166105 1379597 male
-2.940685 0.3179385 -0.6304209 -0.8715839 0.1704922 -0.4596454 6840932 male
-2.752084 0.7285213 -0.6328913 0.8611558 0.5082864 0.007451838 8873566 male
-3.068728 0.2704086 -0.4288738 0.2081578 -0.7303229 -0.6506141 5849667 male
-2.686359 0.1914771 -0.5403494 0.666855 0.2561692 0.6997727 6908011 male
-2.6069 0.2711628 -0.574485 -0.9297392 -0.3039525 -0.207841 6635326 male
-2.715344 0.2982356 -0.5108785 0.7669231 -0.1657005 0.6199778 7894140 male
-2.694082 0.1011356 -0.5080363 0.476198 0.08848278 0.874875 6711405 male
-2.982662 -0.178116 -0.4773686 -0.4345691 -0.1553464 0.8871399 7755869 male
-2.659961 -0.30676 -0.6196339 0.9820389 -0.1880123 -0.01584662 8085859 male
-2.74117 0.9089024 -0.5534673 0.9220594 0.1534147 0.3553455 8806234 male
-2.98099 -0.05935645 -0.5213056 -0.9924567 0.08954739 -0.08373076 8281693 male
-2.672028 -0.1314801 -0.5496791 0.8960215 -0.09891453 0.4328525 9463143 male
-2.952708 0.5469547 -0.5982772 -0.9392532 -0.09562697 0.3296345 8082770 male
-2.696564 -0.2573006 -0.5713704 -0.1386712 -0.2240591 0.9646595 6902608 male
-2.659412 -0.4078299 -0.6216403 0.9919778 0.1168984 0.04811192 9927808 male
-3.011949 0.3064631 -0.4708862 0.2180456 -0.9547238 -0.2023824 5784131 male
-2.922685 -0.2692529 -0.5543448 0.9259842 -0.2328855 -0.2971828 5190707 male
-2.608814 0.3970256 -0.7195551 0.1562477 -0.5855702 -0.7954208 7032913 male
-2.698659 0.3648123 -0.6717132 0.7461132 0.1250003 -0.6539801 8675167 male
-2.792805 0.06732933 -0.5342771 -0.7615001 -0.1819291 0.6221089 5197907 male
-2.770889 0.1405127 -0.7003672 0.01670532 -0.3301182 -0.9437918 8358288 male
-2.777297 0.9853014 -0.6212591 0.4028351 0.9114979 -0.0830389 4731947 male
-3.000462 0.5826825 -0.6304672 -0.7224994 -0.008066608 -0.6913244 7360839 male
-2.784879 0.8961886 -0.7043068 0.3025337 -0.04252076 -0.9521897 1184010 male
-2.833092 0.849072 -0.5146559 -0.4290393 0.03772555 0.9024976 8738387 male
-2.966142 -0.01516938 -0.5655119 -0.8468952 -0.1181556 -0.5184667 8545121 male
-2.991732 -0.1136548 -0.5001281 -0.9784867 0.1178254 0.1693546 8085084 male
-2.878385 0.2877396 -0.4899842 -0.4656766 -0.08753671 0.8806149 6579560 male
-2.90787 0.5165981 -0.6983466 -0.5414932 -0.202091 -0.8160542 10844531 male
-2.977626 -0.008216732 -0.5116201 -0.9762328 -0.07514495 0.2032802 8940649 male
-2.982507 -0.451277 -0.5642862 0.04128651 -0.9964696 -0.07310124 5457213 male
-2.84454 0.8653793 -0.6950529 -0.4873468 -0.2491054 -0.8369227 2431508 male
-2.737083 0.8732947 -0.5587351 0.9386162 0.05809758 0.3400356 8673618 male
-2.794499 0.106222 -0.6643639 -0.5269321 -0.6205541 -0.5807367 6383469 male
-2.788124 0.2522449 -0.4739977 0.2604643 -0.1856203 0.9474721 8092798 male
-2.689363 -0.4704938 -0.6391512 -0.1604168 -0.9855483 0.0544158 4863801 male
-2.624716 0.357451 -0.6245767 -0.83565 0.324463 0.4431849 8610402 male
-2.826527 0.0717136 -0.5843634 0.9358208 -0.1998498 -0.2903439 6316904 male
-2.963228 -0.3150021 -0.5194204 0.3149295 -0.2022052 0.9273254 7690331 male
-2.822912 0.4666346 -0.7075994 -0.232076 -0.2378319 -0.9431738 10780530 male
-2.787489 0.7139065 -0.5600889 0.4471456 -0.03850856 0.8936319 8083020 male
-2.786295 0.02451168 -0.5441366 -0.7960276 -0.2431826 0.5542583 4998464 male
-2.997748 0.5546874 -0.6315825 -0.3708428 -0.2076807 -0.9051765 8674130 male
