# .PCD v0.7 - Point Cloud Data file format
VERSION 0.7
FIELDS x y z normal_x normal_y normal_z rgb label
SIZE 4 4 4 4 4 4 4 4
TYPE F F F F F F U U
COUNT 1 1 1 1 1 1 1 1
WIDTH 132
HEIGHT 1
VIEWPOINT 0 0 0 1 0 0 0
POINTS 132
DATA ascii
-2.871703 0.4545305 -0.4761285 -0.3838863 0.1159717 0.9160687 9598321 male
-2.875254 -0.07592068 -0.5263349 0.974915 -0.193644 -0.1097396 8019042 male
-2.732739 0.1044038 -0.5025854 -0.02928342 0.01178838 0.9995016 6316901 male
-2.979299 0.03714571 -0.5513017 -0.9751526 -0.05577135 -0.2143992 7632505 male
-2.857195 0.3303639 -0.463308 -0.4451351 -0.09794638 0.8900906 8151396 male
-2.72515 -0.3646252 -0.637758 -0.9886838 -0.1445178 0.04023571 7952216 male
-2.907523 0.6932712 -0.6775293 -0.5203867 0.5818574 -0.6250117 7885638 male
-2.911445 0.6135025 -0.5340787 -0.4170147 0.1472262 0.8968964 10321532 male
-2.826275 0.8582812 -0.5152265 -0.1743824 0.1640871 0.97091 9132887 male
-2.67593 0.1603118 -0.634479 0.886614 0.02929916 -0.4615811 7040371 male
-2.944126 -0.3488635 -0.5507162 0.9871554 0.004384145 0.1597027 7097939 male
-2.753201 0.8097254 -0.608833 0.9461895 -0.3131835 -0.08149514 7160636 male
-2.740016 0.5956267 -0.7365528 0.3572494 -0.01107178 -0.9339434 10648171 male
-2.816145 0.3159196 -0.4570426 0.05652697 -0.1675703 0.9842383 9532021 male
-2.9555 0.2810484 -0.5630925 -0.8783478 0.333772 0.342201 7896192 male
-2.930259 -0.07694561 -0.5619976 0.1412252 -0.208103 -0.9678577 9136748 male
-2.771246 -0.05072756 -0.6181831 -0.7650576 -0.1374749 -0.6291164 9005159 male
-3.021226 0.5717315 -0.5940467 -0.9329674 0.3398044 0.118764 7560530 male
-2.781052 0.6464953 -0.5391821 0.2032112 0.4651051 0.8616162 8610905 male
-2.911245 0.5025826 -0.5098512 -0.6669427 0.04075793 0.7439935 9730932 male
-2.857103 0.7740694 -0.5800866 -0.8547466 -0.05462106 0.5161635 9002839 male
-2.920307 0.126183 -0.4743207 -0.2877232 0.2409437 0.9269097 6513252 male
-2.704775 -0.4496458 -0.5211457 -0.2069739 0.874536 0.4385755 16772087 male
-2.658256 0.5553172 -0.7038254 -0.1581187 -0.301516 -0.9402587 10384235 male
-2.721735 0.01452006 -0.5107058 -0.007564814 -0.1459696 0.9892601 7040363 male
-2.770052 0.2566182 -0.7017601 0.01621955 0.2523974 -0.9674877 8553867 male
-2.896422 0.460935 -0.6972926 -0.4658778 -0.2271049 -0.8552083 9856869 male
-2.673638 0.2822307 -0.6214634 0.923014 0.3564413 -0.1448958 6712175 male
-2.701179 0.1592496 -0.5205112 0.4641029 0.2838122 0.8390823 7171957 male
-3.08629 0.2884517 -0.4802633 -0.9187889 0.03109109 0.393523 6113095 male
-2.907686 0.6251787 -0.7144939 -0.4907217 0.1910391 -0.8501154 10252643 male
-2.6951 0.4374322 -0.5401477 0.8739877 0.08122562 0.4791116 11177097 male
-2.976434 -0.1803011 -0.5763329 -0.2661974 0.2673447 -0.9261024 7953235 male
-3.041757 0.2980886 -0.5371971 0.806342 -0.42514 -0.4111794 6110268 male
-2.875361 0.8533021 -0.5883447 -0.9463036 -0.04466794 0.3201786 7556426 male
-2.692658 0.5957129 -0.6624346 -0.9523589 -0.2794503 0.1221479 6046266 male
-2.967106 0.1462469 -0.6019226 -0.946499 0.02083269 -0.3220335 7172469 male
-2.967985 0.5742331 -0.6423054 0.2624924 -0.4600105 -0.8482264 7425866 male
-2.668953 -0.2566865 -0.5778739 0.6024954 -0.2272242 0.7650937 6902352 male
-2.820365 0.2833242 -0.6908187 -0.1099901 0.2848989 -0.9522262 8356231 male
-2.822502 0.2169241 -0.7059824 -0.1491103 0.1020377 -0.9835418 8949136 male
-2.587278 0.3188913 -0.6384976 0.9399675 -0.2850238 -0.1876768 7163465 male
-2.747677 0.9104881 -0.6759557 0.8303123 0.001294525 -0.5572969 1050116 male
-2.863025 0.6188446 -0.5155615 -0.09212751 0.5128996 0.8534907 9334635 male
-2.881478 0.9206355 -0.6076581 -0.9762056 0.1594627 0.1469494 3614496 male
-2.661377 -0.2500825 -0.6452342 0.8200577 -0.07066374 -0.5679014 5521212 male
-2.649958 0.6508468 -0.6215162 0.4837575 0.1559532 0.8611953 11504774 male
-2.720406 0.05476217 -0.6558889 0.2467074 -0.1702431 -0.9540192 7304576 male
-2.863604 0.6332241 -0.5256194 -0.07977609 0.567959 0.8191815 9401454 male
-2.67853 0.5363113 -0.5965961 0.9815516 -0.01859587 0.190291 7688782 male
-2.930988 0.6737443 -0.6747392 -0.6490799 0.4575674 -0.6077231 8805970 male
-2.739304 0.1129025 -0.5030158 -0.05489034 0.03189889 0.9979827 5724511 male
-2.965299 0.1477221 -0.606152 -0.9379148 0.009317073 -0.3467408 7106676 male
-2.686828 0.2170217 -0.5495263 0.6798071 0.1493885 0.7180148 6514027 male
-2.942041 0.6199372 -0.5963578 -0.3054553 -0.737778 0.6019806 7690068 male
-2.87599 0.9315434 -0.6569898 -0.9135392 0.2663842 -0.3073852 1642768 male
-2.936273 -0.06161975 -0.5720184 -0.09873071 -0.2090465 -0.972909 9598833 male
-2.798133 0.530935 -0.4949965 0.1556851 0.3263792 0.9323298 10059382 male
-2.7574 0.7244873 -0.6054955 0.9491544 0.2195797 0.2255895 8412502 male
-3.009642 -0.4367409 -0.5784518 -0.8961342 -0.06909398 -0.4383714 7033170 male
-2.868495 0.001451595 -0.589774 0.6113418 -0.3988178 -0.6835244 7495008 male
-2.703552 -0.4263277 -0.5870569 -0.7873652 0.4625576 0.4075494 8674667 male
-2.674824 -0.3071665 -0.650572 0.7063431 -0.1536805 -0.690986 5453876 male
-2.924138 0.7028601 -0.6473417 -0.6534247 0.7113189 -0.2589625 7360836 male
-2.845901 0.06910054 -0.6172285 0.6331195 -0.387207 -0.6702465 4015947 male
-2.645414 -0.4723538 -0.6168166 0.4306411 -0.7975506 -0.4224469 3743770 male
-2.667675 0.4958812 -0.69327 -0.981535 -0.156948 0.1093453 8805213 male
-2.772151 0.6180256 -0.5250056 0.06761038 0.4146017 0.9074879 9730155 male
-2.71082 0.02640081 -0.5089424 0.1585282 -0.1250383 0.979405 6711406 male
-2.658936 -0.4569689 -0.6585054 0.8901782 0.009767209 -0.4555077 7031114 male
-2.952364 0.6508081 -0.5673875 0.08118987 -0.06077887 0.9948438 10322812 male
-3.022393 0.3835831 -0.5595469 0.921961 0.1820636 0.3418198 7099731 male
-2.948418 0.5081765 -0.5662614 -0.9231299 0.02430887 0.3837191 6308929 male
-2.8031 0.9291289 -0.7066618 0.09220743 0.2703355 -0.9583405 2037520 male
-2.682676 0.4477491 -0.6289139 0.9827824 -0.08995506 -0.1613903 10122097 male
-2.934206 0.6925431 -0.6519453 -0.6598335 0.6482354 -0.3800139 7688775 male
-2.673174 -0.3628488 -0.615241 0.9762461 -0.1310345 0.1725499 7690839 male
-2.953059 0.4497403 -0.6148514 -0.977659 -0.1722963 -0.1204029 9200475 male
-3.07599 0.2883292 -0.4330637 -0.1390256 0.7006474 0.6998322 7230807 male
-2.828279 0.9822379 -0.5860226 -0.3595409 0.8990402 0.249914 2693400 male
-2.990589 -0.2295533 -0.493911 -0.4950559 -0.2389848 0.8353478 6113092 male
-2.853652 0.1653119 -0.4882834 0.04882085 0.08992108 0.9947516 7039339 male
-3.062137 0.4958656 -0.6199053 -0.9512638 0.3061566 0.03694916 5783095 male
-3.004244 0.3115513 -0.4649571 0.9423018 -0.2004554 -0.2681139 5783106 male
-3.009849 -0.2366131 -0.5561696 -0.9334596 -0.04515499 -0.3558288 4863535 male
-2.67014 0.1865648 -0.6191623 0.9502863 0.04971643 -0.3073827 7698815 male
-2.970253 -0.08301859 -0.5419881 -0.6737453 0.103415 -0.7316916 8215387 male
-2.904974 -0.0716639 -0.4680568 0.5885614 -0.1666594 0.791088 5583924 male
-2.750087 0.8717691 -0.6679497 0.8178037 -0.2487303 -0.5189704 1379597 male
-2.943224 0.317993 -0.6318228 -0.8741474 0.1692675 -0.4552085 6840932 male
-2.753385 0.7299948 -0.6498124 0.7266707 0.6716719 -0.1442447 9726820 male
-3.068998 0.2708903 -0.4295228 0.3893516 -0.659811 -0.6426934 6507340 male
-2.688187 0.1917917 -0.543049 0.670396 0.2559664 0.6964556 6908011 male
-2.602127 0.2703844 -0.5707083 -0.9426581 -0.2896783 -0.1657777 6701637 male
-2.71724 0.2986179 -0.5134185 0.7702617 -0.1646121 0.6161168 7894140 male
-2.695805 0.1013696 -0.5107012 0.4804865 0.08766451 0.8726096 6711405 male
-2.983144 -0.1782897 -0.4785903 -0.4277276 -0.1550929 0.8905029 7755869 male
-2.662568 -0.3066741 -0.6223271 0.982123 -0.1871686 -0.02005966 8085859 male
-2.743706 0.9092436 -0.5562466 0.9233599 0.1539119 0.3517352 8806234 male
-2.982049 -0.05951 -0.5225146 -0.9931995 0.08707772 -0.07727977 8281693 male
-2.674365 -0.131212 -0.5526966 0.898092 -0.09818979 0.4287068 9463143 male
-2.955414 0.5471641 -0.5998085 -0.9380398 -0.09559245 0.3330817 8082770 male
-2.698976 -0.2571062 -0.5740293 -0.1338067 -0.2213816 0.9659637 6902608 male
-2.691901 -0.4023881 -0.5908467 -0.1786467 0.547162 0.8177403 11701137 male
-3.017695 0.3068983 -0.4736454 -0.06159155 -0.995796 -0.06779984 5259072 male
-2.923591 -0.2694201 -0.55591 0.9241257 -0.2317155 -0.3038085 5190707 male
-2.61207 0.3966742 -0.7207032 0.1513681 -0.5892499 -0.793645 7032913 male
-2.701451 0.3652235 -0.6742994 0.7428526 0.1261209 -0.6574675 8675167 male
-2.794698 0.06768158 -0.5364782 -0.7586473 -0.1813111 0.625764 5197907 male
-2.752136 0.1449617 -0.7009682 0.2414027 -0.216856 -0.9458849 7568516 male
-2.780051 0.9855028 -0.6240807 0.4028021 0.9111914 -0.08649062 4731947 male
-3.00311 0.5828721 -0.6319013 -0.7248946 -0.01029994 -0.6887828 7360839 male
-2.787954 0.8962095 -0.7069032 0.2991532 -0.04470995 -0.9531571 1184010 male
-2.835509 0.8495275 -0.5169792 -0.425831 0.03984875 0.9039248 8738387 male
-2.967617 -0.01527074 -0.5667693 -0.8498003 -0.120301 -0.5131931 8545121 male
-2.992495 -0.1138506 -0.5013185 -0.977482 0.1160393 0.1762496 8085084 male
-2.88017 0.2878812 -0.4917005 -0.4610372 -0.08828858 0.8829778 6579560 male
-2.910958 0.5167418 -0.7000063 -0.5445278 -0.2026763 -0.8138869 10844531 male
-2.978781 -0.008361782 -0.5128032 -0.9747429 -0.07779904 0.2093407 8940649 male
-2.983187 -0.4515506 -0.5652081 0.04235986 -0.9964953 -0.07212967 5457213 male
-2.847594 0.8654388 -0.6973708 -0.4903711 -0.2508023 -0.8346463 2431508 male
-2.739651 0.8736228 -0.5614516 0.9398354 0.05855187 0.3365724 8673618 male
-2.796958 0.1065863 -0.6665503 -0.5298072 -0.620526 -0.5781451 6383469 male
-2.789756 0.2525236 -0.4761761 0.2655251 -0.1852709 0.9461349 8092798 male
-2.692139 -0.4704952 -0.6413592 -0.1580629 -0.9856572 0.05912757 4863801 male
-2.627215 0.3575386 -0.6254258 -0.8329472 0.3254293 0.4475429 8610402 male
-2.82839 0.07199526 -0.5864191 0.9345483 -0.1975319 -0.2959742 6316904 male
-2.963797 -0.3151928 -0.5206269 0.3222177 -0.2005899 0.9251699 7690331 male
-2.82601 0.466851 -0.7095942 -0.2357423 -0.2381667 -0.9421796 10780530 male
-2.790066 0.7142049 -0.5623531 0.4501915 -0.03728067 0.8921534 8083020 male
-2.788304 0.0248656 -0.5463848 -0.7935919 -0.2424334 0.5580664 4998464 male
-3.000334 0.5548838 -0.6330013 -0.3735431 -0.2093009 -0.9036917 8674130 male
