# .PCD v0.7 - Point Cloud Data file format
VERSION 0.7
FIELDS x y z normal_x normal_y normal_z rgb label
SIZE 4 4 4 4 4 4 4 4
TYPE F F F F F F U U
COUNT 1 1 1 1 1 1 1 1
WIDTH 132
HEIGHT 1
VIEWPOINT 0 0 0 1 0 0 0
POINTS 132
DATA ascii
-2.786708 0.4614871 0.5931618 -0.5251554 0.1434975 0.8388208 9598321 male
-2.876693 0.04486872 0.5327495 -0.9761726 0.02455278 0.2156021 8687244 male
-2.668271 0.1118088 0.5809432 -0.3816725 -0.07958847 0.9208647 5526868 male
-2.86725 -0.001012736 0.4849048 -0.8865055 -0.09757101 -0.452314 8216672 male
-2.772705 0.3325893 0.6106868 -0.579715 -0.1036952 0.8081942 8151396 male
-2.61019 -0.3561303 0.4220463 -0.5280135 0.01451992 -0.8491119 7033162 male
-2.812785 0.6920369 0.3903287 -0.5303009 0.601549 -0.5974277 7688772 male
-2.836243 0.6146597 0.4929834 -0.7331988 -0.4487232 0.5109472 7821654 male
-2.723803 0.8506604 0.5470636 -0.559573 -0.001116468 0.8287804 7293766 male
-2.561858 0.1920282 0.4774238 0.9731601 0.04819775 -0.2250251 7237750 male
-2.835477 -0.3543083 0.4897838 0.8549362 -0.0096236 0.5186438 8676715 male
-2.644426 0.8277912 0.4417906 0.9349648 -0.3515778 -0.0472642 6897978 male
-2.628994 0.5841283 0.3442856 0.286519 -0.1065538 -0.9521309 10581351 male
-2.736726 0.3289737 0.6244156 -0.1203229 -0.1301492 0.9841665 9663859 male
-2.848541 0.2882664 0.4470851 -0.9035465 0.2737119 -0.3296749 7566199 male
-2.804931 -0.1646135 0.4912632 0.9290444 0.1597706 -0.3336912 7032652 male
-2.661861 -0.05311817 0.4611781 -0.6232762 -0.08654178 -0.7771984 8874086 male
-2.915882 0.5763457 0.4471966 -0.9408149 0.3362899 -0.04214837 7560530 male
-2.701662 0.6589401 0.5327664 0.02828846 0.5194172 0.8540524 8020057 male
-2.820198 0.5050774 0.5530068 -0.7724864 0.06237958 0.63196 9862261 male
-2.749356 0.7745908 0.4865851 -0.8570952 -0.03610139 0.5138916 9529184 male
-2.876924 0.07478786 0.5104291 -0.9992729 0.0342872 -0.01667288 6645352 male
-2.618579 -0.4484198 0.5595694 -0.2561976 0.8730069 0.414996 16772087 male
-2.547502 0.5727237 0.3922229 -0.02487153 -0.3387217 -0.9405578 11700097 male
-2.66394 0.02194154 0.5621642 -0.6154141 -0.1853815 0.7660935 6052442 male
-2.68108 0.2700433 0.387109 0.05517232 0.2958181 -0.9536496 8093828 male
-2.737962 0.3864345 0.384969 0.1529693 -0.2774442 -0.9484857 9332573 male
-2.585571 0.3104207 0.5269652 0.8636456 0.04450243 0.5021312 10979209 male
-2.56503 0.1469745 0.5424778 0.90058 0.08760667 0.4257708 9344927 male
-2.967318 0.319548 0.5666504 -0.5475394 0.6360321 0.5437498 6309194 male
-2.786191 0.5909147 0.342173 -0.2818342 -0.0852965 -0.9556642 10449253 male
-2.600187 0.4611799 0.5514262 0.8017415 0.09975192 0.5892877 10913669 male
-2.89969 -0.1965307 0.4814945 -0.9649765 0.1310621 -0.2272508 7362903 male
-2.942587 0.3097967 0.5147315 0.8621778 -0.3959351 -0.3160454 6702917 male
-2.783896 0.8624482 0.4317944 -0.7981877 0.1689526 0.5782312 9788245 male
-2.577569 0.580839 0.4425109 -0.9627377 -0.2547802 0.09068189 5454138 male
-2.849079 0.1727993 0.5505869 -0.7521467 0.2464643 0.6111715 5527382 male
-2.870078 0.5099109 0.4295498 0.8776599 -0.3687285 -0.3061899 9204587 male
-2.563701 -0.1958461 0.4368586 0.7141372 0.1879493 -0.6743019 7163467 male
-2.695827 0.2646193 0.3842179 0.04202115 0.2852249 -0.957539 9080728 male
-2.627723 0.1919064 0.3831082 0.4605348 -0.03807991 -0.8868245 7042170 male
-2.491988 0.3202903 0.4666991 0.2784135 -0.6225609 -0.7313713 7887447 male
-2.626019 0.9331891 0.4129088 0.9428459 0.2961886 -0.1526892 1248008 male
-2.770824 0.6029148 0.5629113 -0.1871983 0.4254969 0.8853865 9532781 male
-2.773697 0.9227019 0.4324828 -0.9853913 0.1680806 -0.02743996 3614496 male
-2.585059 -0.2337169 0.4187528 0.3047203 0.01077624 -0.9523809 5190702 male
-2.558439 0.6450101 0.4756429 0.008452971 -0.01226711 0.999889 11374212 male
-2.637087 0.0540933 0.4290934 0.002764418 -0.2031485 -0.9791441 9344671 male
-2.750892 0.615396 0.5586463 0.0120722 0.4640345 0.8857349 9334637 male
-2.580115 0.6145552 0.4853658 0.6087431 -0.6344035 0.4764073 9269356 male
-2.808647 0.6441101 0.3624739 -0.4818729 0.1070536 -0.869677 9727331 male
-2.660616 0.1201333 0.5832494 -0.2890681 -0.01695249 0.9571584 5724509 male
-2.759019 0.008142351 0.4594105 0.6425157 -0.3136974 -0.6991191 7495524 male
-2.635482 0.2417857 0.5760003 0.4494043 -0.1356342 0.8829718 7040371 male
-2.834068 0.6330141 0.4624634 0.8329757 -0.4112887 0.3701257 6705486 male
-2.760174 0.9294627 0.3839414 -0.8493716 0.2366125 -0.4717865 1642768 male
-2.806669 -0.1372097 0.4936958 0.7920539 0.05584418 -0.6078915 6836564 male
-2.702557 0.5304748 0.5867912 -0.01167778 0.3698866 0.9290035 9993847 male
-2.65169 0.7334933 0.4565367 0.9538011 0.2482554 0.1692124 8215123 male
-2.886575 -0.4497628 0.4413846 -0.6903244 -0.1579649 -0.7060449 6508618 male
-2.844612 0.1121052 0.4405698 -0.7336952 -0.1633286 -0.6595567 6908529 male
-2.60612 -0.4166507 0.4841816 -0.8757895 0.3544754 0.3276278 9464693 male
-2.560245 -0.2943996 0.4775439 0.9170049 -0.21007 0.339076 7756637 male
-2.830848 0.6773949 0.396053 -0.6778055 0.4936715 -0.5448561 8674899 male
-2.72944 0.03713784 0.4898788 0.930598 -0.3026707 -0.2058587 5264469 male
-2.567255 -0.4710834 0.4493327 -0.007517966 -0.9985079 -0.05408707 4271656 male
-2.521272 0.4880688 0.4227102 -0.6134562 0.3486951 0.7085783 6834759 male
-2.66774 0.650629 0.5333823 0.1705566 0.5492619 0.8180598 9202531 male
-2.630638 0.03613806 0.58029 -0.160595 -0.1531282 0.9750698 7302769 male
-2.550202 -0.4557028 0.433682 0.9607538 -0.0125842 -0.2771169 7032145 male
-2.836081 0.6397862 0.4718519 0.6017411 -0.2704639 0.7515031 8874342 male
-2.907859 0.4082209 0.4216714 0.6328027 -0.6419044 -0.4330352 7296086 male
-2.810954 0.5223919 0.5608847 -0.6663031 0.1474128 0.7309648 9006957 male
-2.680235 0.9231276 0.3471295 0.2488914 0.1894248 -0.949827 2037520 male
-2.582475 0.473523 0.4248087 0.9027852 -0.2612432 -0.341659 10055280 male
-2.841733 0.6490895 0.3879412 -0.673242 0.2434186 -0.6982067 8806228 male
-2.570831 -0.3408427 0.4802487 0.8120996 -0.229945 0.5363017 6178374 male
-2.847625 0.4701383 0.4426348 -0.9601939 -0.142439 -0.2402891 9727078 male
-2.998044 0.3025549 0.5959184 -0.9719648 0.005642866 0.2350589 5192510 male
-2.724046 0.9860785 0.4573022 -0.3858915 0.9156177 0.1128362 2693400 male
-2.896889 -0.2598349 0.4706013 -0.9519801 -0.09865505 -0.2898293 5324345 male
-2.750597 0.156214 0.5844981 -0.1694691 -0.1354681 0.9761807 6513763 male
-2.955058 0.4796732 0.412665 -0.9300942 0.0495829 -0.363959 6242101 male
-2.918141 0.3201532 0.5976228 0.8014148 -0.5948432 0.06241642 7035744 male
-2.896897 -0.2616374 0.4959047 -0.9644262 -0.1628757 0.208215 6114124 male
-2.561112 0.2064033 0.4843097 0.9874375 0.02821507 -0.1554705 6908785 male
-2.864288 -0.09581113 0.4873364 -0.5925422 0.169517 -0.787501 8083802 male
-2.794153 -0.1067631 0.5517505 0.6934622 -0.3347486 0.6380075 6571594 male
-2.626426 0.884353 0.414317 0.9645002 -0.1850426 -0.1884107 919042 male
-2.830679 0.3256287 0.4315099 -0.8070764 0.07003726 -0.5862785 6643551 male
-2.643171 0.7306643 0.4156323 0.6425588 0.7045299 -0.3012573 7030849 male
-2.989696 0.2880647 0.6106002 0.3258372 -0.7851006 -0.5267326 6247250 male
-2.555759 0.1496706 0.5025387 0.9983022 0.05323414 0.02363913 9474712 male
-2.493036 0.2696957 0.552174 -0.8977334 -0.2674064 -0.350098 6043705 male
-2.683505 0.3912843 0.6258482 0.09135148 0.09073174 0.9916766 8940655 male
-2.693259 0.1038975 0.5617133 -0.7652273 -0.04889883 0.6419004 5066578 male
-2.875041 -0.1061038 0.5415575 -0.9507653 0.05837955 0.3043636 6966606 male
-2.572332 -0.3340586 0.4347322 0.8066174 -0.1643756 -0.5677579 5651261 male
-2.65362 0.9251406 0.5131673 0.7241872 0.3273833 0.6069375 8148563 male
-2.872477 -0.08271702 0.4949537 -0.8056434 0.12265 -0.579565 8018776 male
-2.588699 -0.122953 0.5499491 0.685699 -0.1788015 0.7055827 7096907 male
-2.847184 0.5356725 0.490035 -0.9627403 0.05763564 0.2642144 6507590 male
-2.584417 -0.3806109 0.4183045 0.4760678 -0.04380874 -0.8783167 5257783 male
-2.566888 -0.4052573 0.4820966 0.7779481 0.4000457 0.4845205 8808554 male
-2.920864 0.3195878 0.5833117 0.7070087 -0.670915 -0.2236331 6638412 male
-2.810615 -0.2534578 0.5101988 0.7145028 -0.2488732 0.6538714 6769742 male
-2.500763 0.4310104 0.3751824 0.09308256 -0.5617601 -0.8220471 7557458 male
-2.619862 0.4027987 0.3970513 0.6244224 -0.1323505 -0.7697921 8344918 male
-2.598957 0.08435144 0.5830985 0.3862588 -0.008468182 0.9223516 7565941 male
-2.589074 0.3942305 0.544438 0.860943 0.003092365 0.508692 12755617 male
-2.650525 0.9671711 0.3967876 0.6315964 0.7131907 -0.3040478 1313800 male
-2.893416 0.6157203 0.412485 -0.7539635 -0.08285765 -0.6516699 7887439 male
-2.668282 0.8764443 0.3530517 0.4247873 -0.247145 -0.8709047 1380621 male
-2.735593 0.8591658 0.5391248 -0.3494229 0.1418571 0.9261642 8673622 male
-2.814249 -0.05922032 0.4632931 0.1813187 -0.1811474 -0.9665967 9730419 male
-2.889691 -0.1483243 0.4935148 -0.9225616 0.290518 -0.2539278 9136741 male
-2.788057 0.2823203 0.5787829 -0.5739648 -0.131095 0.8083183 6644838 male
-2.775601 0.5018133 0.3599179 -0.2946557 -0.2551197 -0.9209191 9988451 male
-2.874645 -0.01098663 0.5097905 -0.9830369 -0.1043717 -0.1508144 7361103 male
-2.883072 -0.4556366 0.4427961 -0.5439156 -0.5500054 -0.6337585 4471608 male
-2.726309 0.86036 0.3544151 -0.3517418 -0.3206696 -0.8794593 2431508 male
-2.665242 0.8805979 0.5270596 0.4426139 0.288848 0.8489168 8673879 male
-2.690879 0.1187359 0.4196656 -0.5960109 -0.5936118 -0.5407367 5855585 male
-2.709421 0.1842099 0.6034896 0.1116559 -0.07581948 0.9908503 7434097 male
-2.59407 -0.4654522 0.4200112 -0.5195284 -0.8191745 -0.2429886 2632231 male
-2.518599 0.3789128 0.4184211 -0.5822864 -0.606056 -0.5418844 10715522 male
-2.725323 0.04323906 0.5067546 0.9714606 -0.2317809 0.05041812 3026479 male
-2.842313 -0.2874315 0.5149411 0.2710861 -0.2597748 0.9268384 7097670 male
-2.627258 0.3291268 0.4020367 0.3274236 -0.1923911 -0.9250835 8542296 male
-2.617525 0.6456606 0.5116054 0.3478388 0.4718335 0.8101736 9465191 male
-2.592899 0.06021033 0.5806769 0.4547471 -0.07151014 0.8877451 6645096 male
-2.905336 0.4490407 0.3941971 0.388771 -0.6478245 -0.6551188 8608600 male
