# .PCD v0.7 - Point Cloud Data file format
VERSION 0.7
FIELDS x y z normal_x normal_y normal_z rgb label
SIZE 4 4 4 4 4 4 4 4
TYPE F F F F F F U U
COUNT 1 1 1 1 1 1 1 1
WIDTH 132
HEIGHT 1
VIEWPOINT 0 0 0 1 0 0 0
POINTS 132
DATA ascii
-2.865569 0.4798717 -0.4659313 -0.3681377 0.168661 0.9143457 10388349 male
-2.963609 0.04529599 -0.4870525 -0.8445499 0.05840813 0.5322818 5331545 male
-2.725626 0.1057777 -0.4869278 -0.0549313 -0.003511177 0.998484 6316901 male
-2.970577 0.03887232 -0.5460954 -0.9652265 -0.05512837 -0.255536 7632505 male
-2.85062 0.3302706 -0.4487405 -0.4602059 -0.1156312 0.8802499 8479336 male
-2.714851 -0.3629139 -0.6254505 -0.9893209 -0.1447784 0.01683735 7952216 male
-2.908257 0.7051224 -0.6481454 -0.6199871 0.6353818 -0.4603325 7492681 male
-2.891495 0.5960285 -0.5026653 -0.4481687 0.2566367 0.8563191 10584695 male
-2.815329 0.8359395 -0.5063204 -0.3782357 -0.02200222 0.9254478 6833215 male
-2.665216 0.1635378 -0.6165093 0.8989182 0.03367259 -0.4368206 7040371 male
-2.934454 -0.3505301 -0.5438005 0.9779895 0.007238415 0.2085286 7097939 male
-2.746673 0.813445 -0.5984906 0.9513545 -0.3034187 -0.05349554 7160636 male
-2.729196 0.5968271 -0.7215982 0.3737207 -0.02419147 -0.9272257 10648171 male
-2.80548 0.3105693 -0.443152 0.03071863 -0.1681084 0.9852898 9269620 male
-2.951113 0.2862685 -0.574189 -0.9565837 0.2785213 0.08586861 9870754 male
-2.925613 -0.07336186 -0.5601858 0.08443511 -0.1836462 -0.9793594 9203051 male
-2.769877 -0.04335096 -0.5950698 -0.8923573 -0.1334004 -0.4311644 8544092 male
-3.012747 0.572742 -0.5832902 -0.9372898 0.3359514 0.09286816 7560530 male
-2.789979 0.6692368 -0.5343897 0.1425454 0.5083712 0.8492582 7689807 male
-2.891646 0.5060409 -0.4846864 -0.5662605 0.08683638 0.8196392 9664370 male
-2.843118 0.7727232 -0.5608137 -0.7761003 -0.07368 0.6262903 9529184 male
-2.95047 0.1042846 -0.4832156 -0.7577499 0.1808861 0.6269732 4407875 male
-2.682368 -0.4458345 -0.5159741 0.1462208 0.9112196 0.3850951 13279402 male
-2.641555 0.4677204 -0.7123751 -0.6792989 -0.3578081 -0.6407232 9528936 male
-2.714635 0.01603084 -0.4963449 -0.03245319 -0.1607573 0.9864603 7040363 male
-2.822036 0.2816541 -0.6755521 -0.09276884 0.2966456 -0.9504711 8489098 male
-2.864016 0.4186597 -0.6826327 -0.2321843 -0.2515006 -0.9395945 11042678 male
-2.663051 0.2850533 -0.581144 0.9263972 0.3431652 0.1550027 7830915 male
-2.693487 0.1609308 -0.5031673 0.44218 0.2708336 0.855059 7171957 male
-3.079423 0.2904726 -0.4651447 -0.9290456 0.03920677 0.3678819 6113095 male
-2.897333 0.6145211 -0.705094 -0.4502876 0.1097037 -0.8861187 10844523 male
-2.687124 0.4440176 -0.5224918 0.8627725 0.09041543 0.4974421 10980230 male
-2.965132 -0.1824193 -0.5757766 -0.2211002 0.2452248 -0.9439171 7953235 male
-3.033405 0.2993315 -0.5208738 0.8167016 -0.4323648 -0.3821769 6110268 male
-2.877794 0.86056 -0.5997101 -0.3360021 0.4005103 0.8524635 6305844 male
-2.683587 0.5986766 -0.6468259 -0.950904 -0.2846222 0.121539 6046266 male
-2.940825 0.1987628 -0.5083708 -0.7007377 0.2657861 0.6620607 5856354 male
-2.955735 0.5903525 -0.6357031 0.2443248 -0.3929885 -0.8864905 5913649 male
-2.660705 -0.2543788 -0.5655518 0.583602 -0.2195457 0.7817982 6902352 male
-2.806336 0.2755866 -0.6787786 -0.08581702 0.2960828 -0.9512993 8685454 male
-2.798517 0.204979 -0.6939831 -0.1426467 0.02866089 -0.9893586 9147030 male
-2.576387 0.3185249 -0.6208558 0.9364107 -0.2973872 -0.186268 7164236 male
-2.740923 0.9123034 -0.6683303 0.8416111 -0.004365527 -0.5400664 1050116 male
-2.84119 0.6105864 -0.4941286 0.0486711 0.4505832 0.8914067 9400430 male
-2.876244 0.9227409 -0.6031219 -0.9808613 0.1516526 0.122117 3614496 male
-2.662565 -0.2478616 -0.6444297 0.625336 -0.06029717 -0.7780226 6046267 male
-2.634497 0.6586742 -0.6136532 0.6486652 0.3883875 0.654514 11043961 male
-2.748495 0.01104055 -0.6332981 -0.363475 -0.1757654 -0.9148729 7887450 male
-2.837916 0.6362271 -0.5103566 0.01632736 0.5727161 0.8195912 8808545 male
-2.669744 0.5403966 -0.5793319 0.9776509 -0.007321739 0.2101075 7688782 male
-2.923065 0.6644465 -0.6696733 -0.6495358 0.3276853 -0.6860945 9266778 male
-2.732178 0.1143219 -0.4873944 -0.08069827 0.01682874 0.9965965 5724511 male
-2.954973 0.1503359 -0.5980969 -0.9243549 0.01135935 -0.3813646 7106676 male
-2.678489 0.2193075 -0.5312055 0.6598395 0.1414519 0.7379724 6514027 male
-2.933889 0.6215792 -0.5858028 -0.3108383 -0.7270949 0.6121377 7690068 male
-2.869858 0.9323028 -0.6526288 -0.9101151 0.2461397 -0.3333254 1642768 male
-2.93486 -0.05119542 -0.5700628 -0.3076057 -0.1718892 -0.9358594 8807781 male
-2.799926 0.5280501 -0.4755173 0.1522899 0.3402826 0.9279093 10257018 male
-2.748447 0.7240987 -0.5917215 0.9047119 0.3013448 0.3011439 8149587 male
-2.998834 -0.4388785 -0.5717511 -0.8716732 -0.07558497 -0.4842238 7033170 male
-2.855174 -6.895512E-06 -0.5734877 0.7102458 -0.3916016 -0.5849778 7164500 male
-2.694071 -0.4299558 -0.5656939 -0.8178756 0.4568949 0.3497523 11241361 male
-2.664649 -0.3055123 -0.6378819 0.723573 -0.1584995 -0.6718036 5453876 male
-2.915788 0.7037883 -0.6380018 -0.6554095 0.6990941 -0.2858424 7360836 male
-2.834931 0.07239867 -0.6052514 0.6597052 -0.3736431 -0.6520582 4015947 male
-2.634718 -0.4707532 -0.6008022 0.4366251 -0.8008374 -0.4098998 3743770 male
-2.658654 0.4994508 -0.6750436 -0.9797954 -0.1654085 0.1124322 8805213 male
-2.765182 0.6212515 -0.5103282 0.04091035 0.4255596 0.9040052 9729899 male
-2.703738 0.02784188 -0.4941163 0.1337899 -0.1402882 0.9810299 6711406 male
-2.647278 -0.4554413 -0.6430036 0.9009632 0.003589634 -0.4338806 7031114 male
-2.944976 0.652993 -0.5576234 0.06308253 -0.03656225 0.9973384 10322812 male
-3.002778 0.3997336 -0.5981139 0.823795 -0.5031088 -0.2612344 9204340 male
-2.929421 0.5184817 -0.5304638 -0.8507889 0.03337007 0.5244471 9664370 male
-2.795928 0.9293677 -0.7007077 0.1089234 0.2439762 -0.9636448 2037520 male
-2.672611 0.4449399 -0.6079119 0.9864935 -0.08299574 -0.1412173 9267560 male
-2.927089 0.6968667 -0.6251224 -0.6496247 0.7504963 -0.1214215 8347218 male
-2.663608 -0.3609187 -0.6018197 0.9718423 -0.1284466 0.1975449 7690839 male
-2.934928 0.496801 -0.6447341 -0.8653105 -0.194306 -0.4620422 9989994 male
-3.070365 0.2909952 -0.4177485 -0.1567783 0.7126045 0.6838241 7230807 male
-2.824225 0.9855908 -0.5821722 -0.3751466 0.9013352 0.2164712 2693400 male
-2.983315 -0.2297046 -0.492891 -0.5349169 -0.217537 0.8164199 6113092 male
-2.853119 0.2242269 -0.4820352 -0.338364 0.008123562 0.9409803 6316384 male
-3.055638 0.4841645 -0.6072064 -0.9682328 0.246845 0.03991017 5126189 male
-2.997847 0.3137796 -0.4478823 0.9488032 -0.2062728 -0.2392153 5783106 male
-2.999552 -0.2383111 -0.5557936 -0.9154332 -0.05332501 -0.3989218 4863535 male
-2.659839 0.1896124 -0.6007183 0.9584197 0.05225724 -0.2805366 7698815 male
-2.973335 -0.08539356 -0.52921 -0.7951409 0.1489664 -0.5878436 8544865 male
-2.899646 -0.08179213 -0.4625328 0.5892124 -0.2358519 0.7727888 5519420 male
-2.732704 0.8734702 -0.6337965 0.8281003 -0.2280192 0.5121105 2363921 male
-2.920516 0.3348156 -0.6377538 -0.7086681 -0.05780985 -0.7031696 8742244 male
-2.745193 0.7325888 -0.6376123 0.7227028 0.6755334 -0.1461339 9726820 male
-3.06678 0.2702935 -0.4093721 -0.344707 -0.814522 -0.4666166 1444876 male
-2.679886 0.1938684 -0.5248606 0.6515995 0.2464186 0.7174231 6908011 male
-2.56751 0.25521 -0.537396 -0.4507862 -0.581196 -0.6774977 6899017 male
-2.710059 0.3011401 -0.4952581 0.7526631 -0.1660631 0.6371195 7894140 male
-2.688478 0.1027727 -0.4941601 0.4582898 0.07288836 0.8858091 6711405 male
-2.980263 -0.1086272 -0.4895647 -0.94644 0.05597243 0.3179913 7361876 male
-2.653108 -0.3047544 -0.6093466 0.9825983 -0.185651 0.005856652 8085859 male
-2.739434 0.9145272 -0.5485656 0.914111 0.174843 0.3658294 8806234 male
-2.973956 -0.0584332 -0.5205748 -0.9892831 0.0850954 -0.1186489 8281693 male
-2.661095 -0.1389278 -0.5496157 0.9366128 -0.065087 0.3442676 8281181 male
-2.946377 0.5358986 -0.5843561 -0.9580512 -0.05252768 0.2817424 8411986 male
-2.690809 -0.2548195 -0.5624461 -0.1574348 -0.2132638 0.9642265 6902608 male
-2.651598 -0.4059422 -0.6094419 0.990907 0.1172595 0.06598105 9927808 male
-3.011063 0.3090157 -0.456862 -0.06208549 -0.9965982 -0.05419922 5259072 male
-2.907124 -0.2411753 -0.5224062 0.871699 -0.2448424 0.4244915 7164244 male
-2.596871 0.4172218 -0.7102699 0.3284964 -0.5152838 -0.7915635 6900296 male
-2.677341 0.3663762 -0.6358774 0.894668 0.1389478 -0.4245735 8082772 male
-2.786811 0.06976898 -0.5229909 -0.7746555 -0.1890861 0.6034529 5197907 male
-2.709195 0.1785602 -0.6716416 0.6190207 -0.03329666 -0.7846686 6514027 male
-2.775261 0.9883618 -0.6193315 0.3937231 0.9132624 -0.1045652 4731947 male
-2.994065 0.5829922 -0.6211354 -0.7124349 -0.03375433 -0.7009259 7360839 male
-2.780387 0.8966454 -0.6996891 0.3193187 -0.0680754 -0.9451991 1184010 male
-2.831473 0.8572888 -0.5096861 -0.4534089 0.09572847 0.886147 8804180 male
-2.963457 -0.0179781 -0.5521897 -0.8943941 -0.08624835 -0.4388854 8150619 male
-2.98486 -0.1135993 -0.5021873 -0.9843524 0.1174707 0.1313427 8085084 male
-2.876288 0.3080217 -0.4746737 -0.5660596 -0.1099426 0.8170002 6646120 male
-2.885345 0.5053562 -0.6933095 -0.4182017 -0.2250139 -0.8800433 9988451 male
-2.97148 -0.007335661 -0.5085973 -0.982302 -0.08441677 0.1672022 8940649 male
-2.973217 -0.4534811 -0.5567221 0.04323334 -0.9977323 -0.05158735 5457213 male
-2.839852 0.8654423 -0.6904721 -0.4700634 -0.2803755 -0.8369169 2431508 male
-2.741234 0.8793131 -0.5420121 0.8101072 0.2414648 0.5342481 8278604 male
-2.785327 0.110506 -0.6523211 -0.5133178 -0.6120345 -0.6015968 6383469 male
-2.780436 0.2070672 -0.465992 0.4232875 0.008676466 0.9059539 7566715 male
-2.680843 -0.4687544 -0.6265165 -0.1649693 -0.9845793 0.05821186 4863801 male
-2.619781 0.3567635 -0.6156257 -0.9592578 0.09633739 0.2656004 9730427 male
-2.818606 0.0748376 -0.5737366 0.9460665 -0.1896604 -0.2626539 6316904 male
-2.941387 -0.2775663 -0.5100361 0.3743681 -0.2797761 0.8840666 7097670 male
-2.805636 0.4619785 -0.696824 -0.3184015 -0.2275711 -0.9202347 10582129 male
-2.837223 0.7308297 -0.5571275 -0.6307701 -0.06334306 0.7733801 10845555 male
-2.780246 0.0271329 -0.533403 -0.8077295 -0.2487925 0.5344861 4998464 male
-2.991149 0.5386035 -0.620799 -0.147128 -0.3018832 -0.9419235 9332061 male
