# .PCD v0.7 - Point Cloud Data file format
VERSION 0.7
FIELDS x y z normal_x normal_y normal_z rgb label
SIZE 4 4 4 4 4 4 4 4
TYPE F F F F F F U U
COUNT 1 1 1 1 1 1 1 1
WIDTH 132
HEIGHT 1
VIEWPOINT 0 0 0 1 0 0 0
POINTS 132
DATA ascii
-2.792694 0.4605466 0.6047626 -0.5551527 0.1396838 0.8199353 9598321 male
-2.768533 -0.09366191 0.5358716 0.9284608 -0.2159291 0.3022171 6506826 male
-2.689805 0.1002587 0.5825129 -0.6930609 -0.14213 0.7067289 4672079 male
-2.863606 -0.003444931 0.4910718 -0.8657081 -0.1062626 -0.4891399 8216672 male
-2.778652 0.3527416 0.6228758 -0.6151777 -0.002855114 0.7883833 8940137 male
-2.597867 -0.3862022 0.4421174 -0.8784152 -0.01053481 -0.477782 7162182 male
-2.8175 0.68979 0.4026871 -0.5396597 0.5908453 -0.5997244 8082762 male
-2.839551 0.6158607 0.4808883 -0.6412874 -0.6186306 0.4539236 8677731 male
-2.726817 0.8267133 0.5629851 -0.4510405 0.08201893 0.8887268 7557450 male
-2.560134 0.2165012 0.526484 0.9817107 0.05707795 0.1816212 9936295 male
-2.827912 -0.3576168 0.4973476 0.8340017 0.005210464 0.5517372 8676715 male
-2.649128 0.8252337 0.4695485 0.9305382 -0.3599312 -0.06744058 7358273 male
-2.624447 0.5996759 0.3614357 0.4152593 0.01722915 -0.9095399 10121829 male
-2.742698 0.3281555 0.6379727 -0.1554307 -0.1320147 0.978986 9663859 male
-2.847351 0.2863666 0.4563246 -0.8932301 0.2644607 -0.3635938 7566199 male
-2.799204 -0.1673876 0.497752 0.9396179 0.1664876 -0.2989983 7032652 male
-2.669899 -0.05655682 0.4886944 -0.8260179 -0.06552505 -0.5598221 8478045 male
-2.917707 0.575178 0.4540193 -0.9427757 0.3278508 -0.06072776 7560530 male
-2.693471 0.6406901 0.5575814 -0.02306318 0.4791773 0.8774151 9400422 male
-2.806265 0.5029666 0.5855649 -0.5923015 0.1373939 0.7939155 9993847 male
-2.759436 0.7838613 0.4894081 -0.9373635 -0.08871648 0.3368666 8805204 male
-2.875416 0.07202947 0.5168335 -0.9981478 0.02051526 -0.05727181 6645352 male
-2.605513 -0.4483771 0.5749137 0.04673795 0.9028451 0.4274181 15320781 male
-2.544522 0.4946434 0.4124106 -0.6121946 -0.2278947 -0.7571537 9002587 male
-2.686659 -0.004905746 0.5255036 -0.9598504 -0.2358684 0.1518329 3942955 male
-2.641447 0.2360629 0.3984275 0.2434994 0.2079403 -0.9473483 8028291 male
-2.73575 0.3856488 0.3986628 0.1904683 -0.2766507 -0.9419057 9332573 male
-2.60703 0.3440448 0.5820684 0.7417903 -0.06238104 0.6677243 11899540 male
-2.566153 0.1477999 0.5622227 0.8819391 0.0946129 0.4617703 9344927 male
-2.952233 0.3211648 0.5676094 -0.5198994 0.5654873 0.6402567 6572107 male
-2.78507 0.5902464 0.3539349 -0.251112 -0.08557773 -0.9641676 10449253 male
-2.604851 0.4644665 0.5687077 0.7818047 0.1090996 0.6139044 10847876 male
-2.893195 -0.2005415 0.4845909 -0.9565927 0.118921 -0.2660604 7362903 male
-2.949938 0.2919209 0.5279179 0.8892493 -0.4255714 0.1677043 4863025 male
-2.787241 0.8646521 0.4449921 -0.8455356 0.03129784 0.5330009 8999761 male
-2.576229 0.5660107 0.462403 -0.9661722 -0.2225477 0.1303221 8741211 male
-2.850575 0.1702292 0.5588238 -0.779318 0.2323742 0.5819499 5527382 male
-2.868662 0.5223606 0.4395624 0.8497873 -0.4249254 -0.3119294 11376268 male
-2.556941 -0.1950726 0.4550541 0.741289 0.1943316 -0.6424374 7163467 male
-2.659128 0.2483658 0.398401 0.1257225 0.2571098 -0.9581693 8358027 male
-2.706536 0.1819877 0.3900494 0.06777954 -0.1594001 -0.9848845 8949912 male
-2.484553 0.3448622 0.4710523 0.7287661 -0.5021996 -0.4655057 7689810 male
-2.629534 0.9334295 0.4301299 0.9451401 0.3032696 -0.1213994 1248008 male
-2.768268 0.5800294 0.5862483 -0.1102127 0.2496468 0.9620445 10256244 male
-2.77771 0.9218367 0.4447906 -0.9851638 0.1606674 -0.06031791 3614496 male
-2.577029 -0.2332451 0.4361388 0.3467156 0.01169011 -0.9378975 5190702 male
-2.553515 0.6535922 0.4969485 0.2402307 0.1392858 0.9606709 11636616 male
-2.626577 0.06166675 0.4464093 0.1318991 -0.211978 -0.9683326 9410976 male
-2.742043 0.5859998 0.5828082 0.2079189 0.2661007 0.9412546 10453365 male
-2.583633 0.6149578 0.5035296 0.5988452 -0.6327366 0.4909468 9269356 male
-2.806306 0.6375908 0.3716835 -0.4528785 0.05943723 -0.8895889 9661017 male
-2.663026 0.1197756 0.5990594 -0.3269412 -0.02474227 0.9447207 5724509 male
-2.754597 0.007433217 0.4703261 0.6750221 -0.2988599 -0.6745576 7495524 male
-2.63887 0.2418486 0.5932436 0.4160344 -0.1333164 0.8995233 7040371 male
-2.836834 0.6323251 0.471989 0.8271734 -0.4076437 0.3867955 6705486 male
-2.762631 0.9286857 0.3967201 -0.8350177 0.2300858 -0.4998059 1642768 male
-2.80346 -0.1062201 0.4920874 0.5124238 -0.1207784 -0.8501967 8939623 male
-2.695405 0.5193775 0.6066623 -0.03869366 0.366383 0.9296592 9598833 male
-2.655089 0.733544 0.4726966 0.9462337 0.2547605 0.199346 8215123 male
-2.847425 -0.4618162 0.4489809 0.3026676 -0.8283123 -0.4714776 4206380 male
-2.8409 0.1102792 0.4486943 -0.7041413 -0.1687276 -0.6897217 6908529 male
-2.598205 -0.4162687 0.5016689 -0.8926096 0.3480003 0.2866074 9464693 male
-2.554525 -0.3026868 0.4912749 0.9322044 -0.1963247 0.3040586 8085344 male
-2.829653 0.6569508 0.3923256 -0.6155418 0.3031585 -0.7274635 8937814 male
-2.734439 0.0133151 0.5124075 0.9417438 -0.3301487 -0.06419065 4997442 male
-2.557132 -0.4704646 0.4688745 0.001096666 -0.9985221 -0.05433641 4271656 male
-2.528069 0.4819746 0.4352576 -0.6985829 0.28097 0.6580561 7557458 male
-2.688255 0.6833714 0.5299461 0.1138712 0.5073251 0.8541982 8479577 male
-2.632185 0.03611737 0.5968935 -0.1980369 -0.1595725 0.9671184 7302769 male
-2.539558 -0.4549632 0.4539633 0.9726635 -0.006368359 -0.2321317 7032145 male
-2.839176 0.6389663 0.4814141 0.5847421 -0.2731116 0.763863 8874342 male
-2.907223 0.4054109 0.4321989 0.7246543 -0.5949044 -0.3478 6639443 male
-2.804946 0.5224212 0.5821363 -0.5610544 0.1729007 0.8095204 8808293 male
-2.681468 0.9229409 0.3625899 0.2788906 0.1910413 -0.9411287 2037520 male
-2.583281 0.4689315 0.4453372 0.9194812 -0.2390475 -0.3121068 10055280 male
-2.840348 0.6900482 0.4431232 -0.5361825 0.8385064 -0.09703328 7164228 male
-2.573844 -0.3341168 0.5067172 0.4241427 -0.1912486 0.8851705 7558490 male
-2.848507 0.4684189 0.4522391 -0.9500734 -0.1518286 -0.2725962 9727078 male
-2.997775 0.2987739 0.5901232 -0.9697056 -0.0155604 0.2437806 4993588 male
-2.729388 0.9855917 0.471215 -0.396281 0.9127251 0.0994703 2693400 male
-2.889384 -0.2639776 0.4745969 -0.9390213 -0.11144 -0.3253 5324345 male
-2.753353 0.1547497 0.5968879 -0.2071742 -0.1438503 0.9676704 6513763 male
-2.955681 0.4794191 0.4180094 -0.9239136 0.04708539 -0.3796928 6242101 male
-2.930139 0.3118452 0.5953479 -0.2936693 -0.9482679 0.1206084 4798521 male
-2.890366 -0.2654751 0.4999023 -0.9702424 -0.1697927 0.1726273 6114124 male
-2.563633 0.2202939 0.4847073 0.9582617 0.0002098918 -0.2858923 7239551 male
-2.859181 -0.09871724 0.4916752 -0.5621544 0.160962 -0.8112174 8083802 male
-2.869995 -0.0199756 0.5462766 -0.9359414 -0.1633081 0.3120002 6245199 male
-2.632859 0.8842066 0.4179109 0.9393446 -0.1886052 -0.2864607 1050624 male
-2.829335 0.3239346 0.4416058 -0.7848717 0.06207864 -0.616541 6643551 male
-2.654842 0.7176037 0.4080751 0.2844501 0.5856524 -0.7590122 6638401 male
-2.994853 0.278224 0.6162216 -0.3892722 -0.7998406 -0.4568612 1643284 male
-2.555305 0.1507752 0.5226746 0.9959742 0.06310702 0.06366196 9474712 male
-2.49704 0.2681942 0.5606685 -0.8790134 -0.3201522 -0.3533243 6307135 male
-2.676457 0.3617481 0.6411754 0.2236307 0.04612041 0.9735822 9268852 male
-2.677998 0.1145154 0.592325 -0.5323758 -0.06955594 0.8436457 4933451 male
-2.872 -0.1090397 0.5455567 -0.9625726 0.04740911 0.2668451 6966606 male
-2.565691 -0.3497866 0.4524672 0.8438111 -0.1371907 -0.5188079 5917002 male
-2.687095 0.9430727 0.537039 0.2792312 0.4761599 0.8338475 6572611 male
-2.873304 -0.08002069 0.5098105 -0.9537883 0.1052094 -0.2814583 8675165 male
-2.610116 -0.0859297 0.5801134 0.2094682 -0.1007471 0.9726115 6307903 male
-2.8527 0.5291634 0.4789014 -0.9909915 -0.002007936 0.1339097 8215898 male
-2.568206 -0.3870105 0.4400683 0.6244999 -0.07256944 -0.7776461 5061179 male
-2.559132 -0.4045531 0.5012832 0.7516189 0.4066918 0.5192984 8808554 male
-2.921959 0.3206554 0.5797036 0.9707125 0.1517496 -0.1862508 6702923 male
-2.804783 -0.2562799 0.5174215 0.6907349 -0.2340174 0.6841938 6769742 male
-2.518391 0.5293012 0.4199026 0.4467372 -0.1454707 -0.8827594 6701629 male
-2.61023 0.3822021 0.4199853 0.6329125 -0.01521235 -0.7740738 8806236 male
-2.661092 0.0886385 0.5956411 -0.4128961 -0.1262369 0.9019873 6249823 male
-2.58346 0.192364 0.4426629 0.8269317 0.01423735 -0.5621221 6842992 male
-2.653751 0.9672207 0.4131874 0.6359251 0.7178677 -0.2833114 1313800 male
-2.894743 0.6151234 0.4203038 -0.7368467 -0.08186288 -0.6710851 7887439 male
-2.669367 0.8763506 0.3689282 0.4553081 -0.2441537 -0.856203 1380621 male
-2.744575 0.8664557 0.5506052 -0.4318684 0.2209802 0.874447 9067093 male
-2.808837 -0.06095251 0.4706983 0.2231154 -0.1738143 -0.9591705 9730419 male
-2.880366 -0.1247869 0.5192266 -0.9940354 0.1071483 -0.02031705 8085084 male
-2.791915 0.2807127 0.5903052 -0.6029662 -0.1402497 0.7853419 6644838 male
-2.804655 0.5280318 0.3800692 -0.5126154 -0.2430784 -0.8234915 11107959 male
-2.871876 -0.01371335 0.5155507 -0.9744546 -0.1167176 -0.1918727 7361103 male
-2.859036 -0.4655702 0.4572822 0.02751112 -0.9861149 -0.1637702 5523268 male
-2.727288 0.8598382 0.3683752 -0.3199522 -0.3234229 -0.8905213 2431508 male
-2.692295 0.8869784 0.5479055 0.580506 0.4779561 0.6592197 7949897 male
-2.68453 0.1031922 0.4474348 -0.6125672 -0.4198782 -0.6696743 6514027 male
-2.708524 0.2060004 0.6175929 0.1396277 0.01634778 0.9900691 7171957 male
-2.585106 -0.4656789 0.4519357 -0.5183873 -0.8524506 -0.06784233 5586500 male
-2.510785 0.3896437 0.4200902 -0.2285945 -0.6249471 -0.7464487 10122612 male
-2.723422 0.04260783 0.5194556 0.9717485 -0.2187999 0.08849581 3026479 male
-2.83634 -0.2905072 0.5213652 0.2371156 -0.2457243 0.9398913 7097670 male
-2.607742 0.3318275 0.428566 0.5424322 -0.2202473 -0.8107148 7556428 male
-2.625673 0.6591177 0.5212389 0.3388641 0.5459137 0.7662567 9334629 male
-2.642867 0.03814573 0.5942112 -0.3581594 -0.161231 0.9196339 7105644 male
-2.897896 0.4667388 0.4026389 0.5338805 -0.5090276 -0.6751759 8083028 male
