# .PCD v0.7 - Point Cloud Data file format
VERSION 0.7
FIELDS x y z normal_x normal_y normal_z rgb label
SIZE 4 4 4 4 4 4 4 4
TYPE F F F F F F U U
COUNT 1 1 1 1 1 1 1 1
WIDTH 132
HEIGHT 1
VIEWPOINT 0 0 0 1 0 0 0
POINTS 132
DATA ascii
-2.87075 0.4542008 -0.4753222 -0.3862063 0.115872 0.9151056 9598321 male
-2.874806 -0.07609528 -0.5250542 0.9749789 -0.1951289 -0.1064938 8019042 male
-2.731867 0.1041508 -0.5013098 -0.03162934 0.01239334 0.9994228 6316901 male
-2.97857 0.03707854 -0.5505544 -0.9745871 -0.0544952 -0.2172791 7632505 male
-2.856396 0.3301027 -0.4624785 -0.4475768 -0.09747708 0.8889169 8151396 male
-2.723557 -0.3647247 -0.6365206 -0.9887964 -0.1444241 0.03772902 7952216 male
-2.918405 0.6848617 -0.5872124 -0.002035161 0.7829695 0.6220567 8677731 male
-2.920286 0.623251 -0.546234 -0.4057162 -0.02725967 0.9135925 10651521 male
-2.825305 0.8577688 -0.5139448 -0.1769208 0.1621743 0.9707721 9132887 male
-2.674783 0.1599868 -0.6330726 0.8877427 0.02948942 -0.4593945 7040371 male
-2.943859 -0.3487721 -0.5496611 0.9865978 0.00355265 0.1631319 7097939 male
-2.751966 0.8094287 -0.607455 0.9465513 -0.3125552 -0.07968564 7160636 male
-2.738383 0.5954584 -0.7353519 0.3596268 -0.01010133 -0.9330416 10648171 male
-2.815371 0.3156408 -0.4561 0.05380951 -0.1673905 0.9844211 9532021 male
-2.954449 0.2808342 -0.5625145 -0.879079 0.3344899 0.3396123 7896192 male
-2.929709 -0.07705215 -0.5608501 0.1439361 -0.2088958 -0.9672874 9136748 male
-2.773232 -0.03837981 -0.6157539 -0.8029943 -0.1799064 -0.5681847 9202027 male
-3.020001 0.5713136 -0.5936124 -0.9332339 0.3399746 0.1161544 7560530 male
-2.779941 0.6461418 -0.5380309 0.2008673 0.4644758 0.8625048 8610905 male
-2.910187 0.5022429 -0.5091334 -0.6688816 0.04055908 0.7422616 9730932 male
-2.855935 0.7736785 -0.5790232 -0.856034 -0.05580628 0.5138982 9002839 male
-2.919664 0.1261114 -0.4735207 -0.290136 0.242573 0.9257318 6513252 male
-2.703495 -0.44998 -0.5201095 -0.2078545 0.8739535 0.4393198 16772087 male
-2.656662 0.5552958 -0.7026345 -0.1550702 -0.2991455 -0.9415228 10384235 male
-2.72072 0.01427192 -0.5093416 -0.009744574 -0.1454739 0.9893141 7040363 male
-2.768653 0.2562459 -0.7006549 0.01901121 0.2519957 -0.9675416 8553867 male
-2.894896 0.4606765 -0.6965504 -0.4637741 -0.2266611 -0.8564685 9856869 male
-2.672457 0.2818422 -0.6201043 0.9236103 0.3558581 -0.1425091 6712175 male
-2.700326 0.1590014 -0.5191892 0.4618396 0.2847553 0.8400111 7171957 male
-3.083379 0.2912364 -0.4790417 -0.8904027 0.1176126 0.4397163 5784132 male
-2.906118 0.6249359 -0.7136837 -0.4886242 0.1916426 -0.8511871 10252643 male
-2.693992 0.4370403 -0.5388891 0.8727884 0.08064207 0.4813909 11177097 male
-2.975946 -0.1801728 -0.5752397 -0.2627981 0.2683442 -0.9267839 7953235 male
-3.041425 0.2939579 -0.5326133 0.8450246 -0.4749362 -0.2457011 4992555 male
-2.878005 0.8530756 -0.5963547 -0.8054527 0.3128851 0.5033378 7359300 male
-2.691213 0.5955735 -0.6612456 -0.9526892 -0.2799065 0.1184717 6046266 male
-2.966054 0.1460753 -0.6012636 -0.9455168 0.0216713 -0.3248514 7172469 male
-2.966606 0.5738519 -0.641697 0.2650564 -0.4591191 -0.847912 7425866 male
-2.667494 -0.2569011 -0.5763147 0.6007903 -0.2286485 0.7660096 6902352 male
-2.818979 0.2829862 -0.6898654 -0.1072526 0.2846152 -0.9526232 8356231 male
-2.821113 0.216575 -0.7049986 -0.1463945 0.1016899 -0.9839857 8949136 male
-2.58596 0.3187118 -0.6377336 0.9407678 -0.2846977 -0.1841279 7163465 male
-2.746334 0.9103255 -0.6743767 0.8317139 0.002831576 -0.5551973 1050116 male
-2.861962 0.6184447 -0.5146413 -0.09444986 0.5121753 0.8536718 9334635 male
-2.880311 0.9202656 -0.6063964 -0.9766675 0.1585977 0.1448016 3614496 male
-2.65977 -0.2501766 -0.643647 0.8212927 -0.0697048 -0.5662327 5521212 male
-2.648647 0.6506202 -0.6200415 0.4811967 0.1542917 0.8629274 11504774 male
-2.719116 0.05442579 -0.6545643 0.2491662 -0.1705205 -0.9533305 7304576 male
-2.868639 0.641237 -0.5319558 -0.09570939 0.5595976 0.8232195 9466219 male
-2.677236 0.5360105 -0.5952677 0.9810634 -0.01860473 0.1927911 7688782 male
-2.929538 0.6734675 -0.6739506 -0.6476855 0.4579687 -0.6089073 8805970 male
-2.738444 0.1126416 -0.5017598 -0.05726661 0.03251073 0.9978294 5724511 male
-2.964231 0.1475427 -0.6054891 -0.9368755 0.01010908 -0.349517 7106676 male
-2.685914 0.2167137 -0.548176 0.6779013 0.1498069 0.7197275 6514027 male
-2.940767 0.6195386 -0.5956212 -0.3068689 -0.7384779 0.6004014 7690068 male
-2.874705 0.9312698 -0.6556931 -0.9129151 0.2664298 -0.3091947 1642768 male
-2.913715 -0.1509799 -0.5280339 0.9259949 0.06448891 -0.3719875 6243654 male
-2.797107 0.5305669 -0.4939734 0.1532801 0.3259429 0.9328807 10059382 male
-2.754666 0.7201977 -0.6028162 0.9120788 0.2856957 0.2940924 8149587 male
-3.009358 -0.4365846 -0.5776865 -0.8946506 -0.06815136 -0.4415379 7033170 male
-2.867708 0.001160262 -0.588657 0.6127535 -0.4006532 -0.6811829 7495008 male
-2.702064 -0.4265318 -0.5858859 -0.7882606 0.4620235 0.4064229 8674667 male
-2.673208 -0.3072489 -0.6491167 0.707844 -0.1525016 -0.6897102 5453876 male
-2.924094 0.6993408 -0.6154461 -0.3555938 0.8910941 0.2819651 9730674 male
-2.844899 0.06873982 -0.6161647 0.6345347 -0.388875 -0.6679385 4015947 male
-2.643855 -0.4725184 -0.6155788 0.4314796 -0.7969009 -0.4228172 3743770 male
-2.66604 0.4958661 -0.692292 -0.9819461 -0.1572568 0.1051298 8805213 male
-2.771229 0.6282742 -0.5296209 0.1424642 0.4567762 0.8780999 9532008 male
-2.709824 0.02616788 -0.5075604 0.1563556 -0.1243377 0.9798434 6711406 male
-2.657261 -0.4570429 -0.6572644 0.8913628 0.01041265 -0.4531709 7031114 male
-2.951184 0.6503575 -0.5666559 0.07820422 -0.06196858 0.9950095 10322812 male
-3.021357 0.383103 -0.5593159 0.9207886 0.1809491 0.3455513 7099731 male
-2.947205 0.5078459 -0.5656397 -0.9241254 0.02414589 0.3813257 6308929 male
-2.801689 0.928992 -0.7051867 0.09445263 0.2721982 -0.9575943 2037520 male
-2.681331 0.447383 -0.62762 0.9831578 -0.09032974 -0.158875 10122097 male
-2.932825 0.6922373 -0.6511413 -0.6591228 0.6483704 -0.3810156 7688775 male
-2.671637 -0.3629954 -0.6138826 0.975834 -0.1314982 0.1745171 7690839 male
-2.95175 0.4494828 -0.6142571 -0.9774168 -0.1718478 -0.1229828 9200475 male
-3.074918 0.2902782 -0.436487 0.07190026 0.774402 0.6285951 7887713 male
-2.827204 0.9818581 -0.5845114 -0.3606938 0.8983545 0.2507171 2693400 male
-2.990423 -0.2294837 -0.4929136 -0.4981341 -0.2393878 0.8334002 6113092 male
-2.852895 0.1650993 -0.487349 0.04622262 0.0909315 0.9947839 7039339 male
-3.060812 0.4955058 -0.6196673 -0.9512239 0.3066261 0.03396222 5783095 male
-3.008832 0.3053803 -0.4599568 0.2141687 -0.9767341 0.01105658 6903384 male
-3.009472 -0.236472 -0.5552451 -0.9322463 -0.04413251 -0.3591229 4863535 male
-2.669039 0.1862357 -0.6177514 0.9510513 0.04988733 -0.3049799 7698815 male
-2.969782 -0.08303667 -0.5409289 -0.6713465 0.1040322 -0.733806 8215387 male
-2.904697 -0.07174853 -0.4668808 0.5859498 -0.1668171 0.7929912 5583924 male
-2.748741 0.8715893 -0.6664497 0.8192522 -0.2472887 -0.5173724 1379597 male
-2.941975 0.3177428 -0.6312193 -0.8728271 0.1695737 -0.4576217 6840932 male
-2.752033 0.7297482 -0.6485241 0.7267591 0.67213 -0.1416415 9726820 male
-3.069599 0.2699945 -0.4298989 0.2094281 -0.7295201 -0.6511069 5849667 male
-2.687299 0.1915134 -0.5417109 0.6685011 0.2566829 0.6980116 6908011 male
-2.601176 0.269996 -0.5701584 -0.9419803 -0.2889257 -0.1708654 6701637 male
-2.716338 0.2982764 -0.5121976 0.7685152 -0.1648837 0.6182215 7894140 male
-2.694912 0.1011539 -0.5093397 0.4783385 0.08877341 0.873677 6711405 male
-2.982992 -0.1782421 -0.4775226 -0.4309372 -0.1555001 0.8888829 7755869 male
-2.661015 -0.3068087 -0.620845 0.9821461 -0.1872342 -0.01823247 8085859 male
-2.742664 0.9088573 -0.5546616 0.922372 0.1538205 0.3543575 8806234 male
-2.981587 -0.05952771 -0.5215802 -0.9928256 0.08843884 -0.0804729 8281693 male
-2.673001 -0.1314642 -0.5510175 0.8971774 -0.09815903 0.4306246 9463143 male
-2.954113 0.5468102 -0.5991803 -0.9388676 -0.09606502 0.3306044 8082770 male
-2.697526 -0.2573249 -0.5725368 -0.1359449 -0.2231049 0.9652684 6902608 male
-2.6605 -0.4078562 -0.6228308 0.9919629 0.1182314 0.04506748 9927808 male
-3.012805 0.3061679 -0.4718122 0.2194519 -0.9542596 -0.2030503 5784131 male
-2.92324 -0.2693412 -0.554715 0.9250056 -0.2321108 -0.3008144 5190707 male
-2.610308 0.3967519 -0.7198218 0.1550305 -0.5868231 -0.7947353 7032913 male
-2.700072 0.364832 -0.6730597 0.7446582 0.1256181 -0.6555182 8675167 male
-2.793699 0.06733489 -0.5353273 -0.7599424 -0.1817802 0.6240542 5197907 male
-2.772194 0.1404465 -0.7014941 0.01462742 -0.3305043 -0.9436911 8358288 male
-2.778882 0.9852238 -0.6224414 0.4024838 0.9115881 -0.0837495 4731947 male
-3.001761 0.5824917 -0.6313971 -0.7226671 -0.009276506 -0.691134 7360839 male
-2.786524 0.8960817 -0.7054517 0.3015805 -0.04275322 -0.9524816 1184010 male
-2.834529 0.8490137 -0.5157369 -0.4281286 0.03791949 0.9029219 8738387 male
-2.966933 -0.01537121 -0.5659 -0.8484454 -0.1195684 -0.5156004 8545121 male
-2.992203 -0.1138049 -0.5002791 -0.9779632 0.1169802 0.1729265 8085084 male
-2.879314 0.2876512 -0.4909214 -0.4634948 -0.08761971 0.881757 6579560 male
-2.909397 0.5164784 -0.6992851 -0.5424339 -0.2022489 -0.8153901 10844531 male
-2.978248 -0.008378255 -0.5119845 -0.9754926 -0.07599579 0.2064917 8940649 male
-2.982958 -0.451423 -0.5643667 0.04215698 -0.9964308 -0.07313406 5457213 male
-2.846168 0.8652572 -0.6961281 -0.4881238 -0.2495343 -0.8363419 2431508 male
-2.738573 0.8732492 -0.5599218 0.9389481 0.05847245 0.3390538 8673618 male
-2.795713 0.1061682 -0.6654258 -0.5281503 -0.6210338 -0.5791151 6383469 male
-2.788975 0.2522479 -0.4751286 0.2629213 -0.1850175 0.9469112 8092798 male
-2.690508 -0.4705912 -0.6402287 -0.1585312 -0.9857204 0.05677296 4863801 male
-2.625936 0.3573266 -0.6247376 -0.8349916 0.3242646 0.4445688 8610402 male
-2.827478 0.07164438 -0.5853065 0.9351408 -0.1991712 -0.2929889 6316904 male
-2.963604 -0.3151189 -0.5196168 0.3188568 -0.2017192 0.9260884 7690331 male
-2.824446 0.4665676 -0.7086719 -0.2334107 -0.2377741 -0.9428589 10780530 male
-2.788928 0.7138422 -0.5611824 0.4479608 -0.03814985 0.893239 8083020 male
-2.787219 0.0245146 -0.5451921 -0.7946392 -0.2430546 0.556303 4998464 male
-2.99899 0.5545033 -0.6325195 -0.3706902 -0.2081312 -0.9051355 8674130 male
