# .PCD v0.7 - Point Cloud Data file format
VERSION 0.7
FIELDS x y z normal_x normal_y normal_z rgb label
SIZE 4 4 4 4 4 4 4 4
TYPE F F F F F F U U
COUNT 1 1 1 1 1 1 1 1
WIDTH 132
HEIGHT 1
VIEWPOINT 0 0 0 1 0 0 0
POINTS 132
DATA ascii
-2.793524 0.4612229 0.5871123 -0.5250224 0.1432007 0.8389547 9598321 male
-2.882738 0.0449568 0.5305322 -0.975098 0.02484394 0.2203787 8687244 male
-2.674621 0.1127277 0.5774398 -0.3817489 -0.07048053 0.9215749 5526868 male
-2.873497 -0.001289417 0.4831019 -0.8887135 -0.1024946 -0.4468593 8216672 male
-2.779588 0.3542662 0.6050456 -0.5853416 0.007362662 0.8107533 8940137 male
-2.616225 -0.3554171 0.4215823 -0.5288887 0.01706241 -0.8485196 7033162 male
-2.82046 0.6917925 0.3849584 -0.5347625 0.602021 -0.5929584 7688772 male
-2.844709 0.6042516 0.4912029 -0.8139932 -0.37497 0.4436356 7034960 male
-2.72669 0.8438749 0.5439104 -0.4822477 -0.1815489 0.8570164 6504252 male
-2.568334 0.19203 0.4731718 0.9730048 0.04735289 -0.2258746 7237750 male
-2.835767 -0.3521783 0.477297 0.9750421 -0.107336 0.1943498 6637388 male
-2.651902 0.8276685 0.43712 0.9349922 -0.3506798 -0.0530411 6897978 male
-2.642152 0.5683152 0.3398921 0.2240085 -0.2378874 -0.9451084 10975861 male
-2.743246 0.3296664 0.6189995 -0.119462 -0.1241638 0.9850442 9663859 male
-2.859221 0.2881427 0.4573222 -0.9493472 0.2776137 -0.1472089 9342869 male
-2.81104 -0.1639632 0.4909028 0.9263909 0.1643355 -0.3388123 7032652 male
-2.684391 -0.05891604 0.4838494 -0.9535757 -0.06408814 -0.2942552 7556430 male
-2.923055 0.5761061 0.4435541 -0.9418083 0.3344273 -0.03399337 7560530 male
-2.70765 0.6577656 0.5275569 0.03005212 0.5139256 0.8573082 8151642 male
-2.827106 0.504585 0.5469549 -0.7723228 0.06033765 0.6323581 9862261 male
-2.756764 0.773911 0.4813873 -0.8570545 -0.04256545 0.5134645 9529184 male
-2.883154 0.07469246 0.5080169 -0.9993938 0.03268635 -0.01198894 6645352 male
-2.624792 -0.4483041 0.5582721 -0.2593897 0.871123 0.4169672 16772087 male
-2.552881 0.557276 0.3932336 -0.1450612 -0.4093986 -0.9007497 10779249 male
-2.670225 0.02267577 0.5596728 -0.6156996 -0.1780402 0.7676038 6052442 male
-2.687731 0.2691987 0.3821858 0.05386346 0.288248 -0.9560396 8093828 male
-2.762115 0.4155449 0.3703113 -0.1008408 -0.27739 -0.9554507 11042678 male
-2.592131 0.3107913 0.5216304 0.8639954 0.049392 0.5010713 10979209 male
-2.571436 0.1475811 0.5387831 0.9004631 0.09271967 0.4249344 9344927 male
-2.955822 0.3276901 0.5664204 -0.4975128 0.5949146 0.6313143 6572107 male
-2.792919 0.6007766 0.3362671 -0.299589 0.005700286 -0.9540513 10843499 male
-2.607021 0.4611962 0.5452918 0.8018329 0.1013981 0.5888823 10913669 male
-2.90575 -0.196104 0.4816411 -0.9669982 0.1280672 -0.2202575 7362903 male
-2.954847 0.2968458 0.5278766 0.89051 -0.4258825 0.1600504 4863025 male
-2.791404 0.862406 0.4277462 -0.7970133 0.1618729 0.5818651 9788245 male
-2.584328 0.5811517 0.4378631 -0.9635781 -0.2565068 0.07564037 5454138 male
-2.855311 0.1730518 0.5472107 -0.7500415 0.2501831 0.6122468 5527382 male
-2.853257 0.6275666 0.3881248 0.3925474 -0.4513674 -0.8013576 6372152 male
-2.569828 -0.1951684 0.4371227 0.7131397 0.1914887 -0.6743617 7163467 male
-2.702477 0.2637284 0.379371 0.04067028 0.2774933 -0.9598663 9080728 male
-2.634279 0.1910675 0.3788241 0.4597757 -0.04486608 -0.886901 7042170 male
-2.489372 0.3381082 0.4653024 0.7378242 -0.4973956 -0.4563038 7558481 male
-2.633577 0.9334258 0.4095447 0.9425599 0.2983313 -0.1502639 1248008 male
-2.738368 0.5280844 0.5820329 0.03031834 0.3524777 0.935329 10060664 male
-2.781217 0.9226489 0.4292009 -0.9854839 0.1680913 -0.02380795 3614496 male
-2.591157 -0.2329629 0.4188908 0.3037125 0.01518664 -0.9526427 5190702 male
-2.5659 0.6456548 0.4704948 -0.007826098 -0.002407555 0.9999665 11374212 male
-2.64333 0.05348275 0.4261515 0.003428993 -0.2131708 -0.9770089 9344671 male
-2.772105 0.6274651 0.5423985 -0.169644 0.565604 0.8070397 9466218 male
-2.587307 0.6146805 0.4795896 0.6084059 -0.6333405 0.4782489 9269356 male
-2.821048 0.6463578 0.3606916 -0.513304 0.1281282 -0.8485883 9332567 male
-2.666974 0.1210803 0.5796629 -0.2891835 -0.00740012 0.9572451 5724509 male
-2.765394 0.0078097 0.4568706 0.6394928 -0.3185073 -0.6997157 7495524 male
-2.641931 0.2425719 0.5713153 0.4502137 -0.127481 0.8837739 7040371 male
-2.840702 0.6398281 0.4490088 0.7711993 -0.5949904 0.2263584 8678503 male
-2.767767 0.9300314 0.3807305 -0.8500848 0.2423682 -0.4675612 1642768 male
-2.812834 -0.1367286 0.4933233 0.7883341 0.05938657 -0.6123744 6836564 male
-2.695869 0.5191251 0.5857686 -0.00467542 0.3640703 0.9313597 9598833 male
-2.659045 0.7333128 0.451017 0.9533286 0.2482908 0.1718031 8215123 male
-2.891713 -0.4490763 0.4398626 -0.6963559 -0.1581159 -0.7000626 6508618 male
-2.851177 0.1115169 0.437642 -0.7362968 -0.1695692 -0.6550674 6908529 male
-2.612228 -0.4161929 0.4833148 -0.8765987 0.350585 0.3296436 9464693 male
-2.566201 -0.2938448 0.4773866 0.9176455 -0.2101059 0.3373165 7756637 male
-2.838556 0.67713 0.3908572 -0.6824269 0.4937516 -0.5389832 8674899 male
-2.735692 0.03708877 0.4868949 0.9300486 -0.3030376 -0.2077927 5264469 male
-2.573303 -0.4703529 0.4482116 -0.003826871 -0.9983433 -0.05741187 4271656 male
-2.550766 0.4902015 0.4094821 -0.939704 -0.003325826 0.3419728 8413789 male
-2.690988 0.6846322 0.5087471 0.1403 0.4994568 0.8549028 8611163 male
-2.636948 0.03709431 0.577659 -0.1610045 -0.1431102 0.9765229 7302769 male
-2.556278 -0.4548598 0.4326269 0.960569 -0.008094517 -0.2779239 7032145 male
-2.843121 0.6426166 0.474077 -0.08855391 -0.4834279 0.8708937 9863294 male
-2.912601 0.4007212 0.4428023 0.8981339 -0.4378597 -0.04042908 6705749 male
-2.831134 0.5122141 0.5409067 -0.7955658 0.05981328 0.6029075 10059640 male
-2.687878 0.9241882 0.3437276 0.2475261 0.2015246 -0.9476912 2037520 male
-2.589384 0.4735448 0.4186509 0.9031304 -0.2595776 -0.3420161 10055280 male
-2.853626 0.6310298 0.3781156 -0.4807005 0.02332342 -0.8765746 9463647 male
-2.576746 -0.3403035 0.4798686 0.8130012 -0.2309681 0.534493 6178374 male
-2.838374 0.494194 0.3953066 -0.7939252 -0.2139521 -0.5691286 9989994 male
-3.001483 0.3066085 0.6005086 -0.7553699 0.4579676 0.4687025 5718599 male
-2.731548 0.9857173 0.4547467 -0.386025 0.9139786 0.1250113 2693400 male
-2.902759 -0.2593156 0.4703909 -0.9534591 -0.1012385 -0.2840186 5324345 male
-2.789964 0.2386327 0.5667297 -0.4796806 -0.08750903 0.8730685 6119263 male
-2.957855 0.5015492 0.4163608 -0.9442796 0.2421562 -0.2229268 5388337 male
-2.923798 0.3210453 0.5948157 0.6430818 -0.7655917 0.01775172 6902613 male
-2.902584 -0.2612491 0.4956871 -0.9623255 -0.16805 0.2137496 6114124 male
-2.57132 0.2189777 0.460113 0.9460712 -0.01282455 -0.3237048 7239551 male
-2.877017 -0.09195039 0.4923532 -0.7220857 0.1515765 -0.674994 8544865 male
-2.799986 -0.106396 0.5509718 0.698394 -0.3312066 0.6344667 6571594 male
-2.633965 0.8845765 0.4103252 0.9642439 -0.1823884 -0.1922712 919042 male
-2.82288 0.3325239 0.4088786 -0.6067048 -0.07213354 -0.7916476 8742244 male
-2.650477 0.730802 0.4101393 0.6415023 0.7078723 -0.2956209 7030849 male
-2.997626 0.2871417 0.6178222 -0.4099651 -0.8133261 -0.4128309 1643284 male
-2.562178 0.1499022 0.498859 0.9982404 0.0545895 0.02315355 9474712 male
-2.497091 0.2668372 0.5657848 -0.778154 -0.3718343 -0.5061774 7490641 male
-2.690159 0.3917544 0.6200392 0.09170436 0.09510791 0.9912339 8940655 male
-2.682242 0.1158583 0.573638 -0.4988291 -0.0519233 0.8651437 4933451 male
-2.880941 -0.1059665 0.5412923 -0.9493014 0.05623135 0.3092974 6966606 male
-2.578313 -0.3333247 0.4343852 0.8062398 -0.1606796 -0.5693499 5651261 male
-2.661023 0.9240959 0.509729 0.7249337 0.3198648 0.6100471 8148563 male
-2.878682 -0.08274341 0.4944558 -0.8093058 0.11872 -0.575265 8018776 male
-2.594804 -0.1225613 0.5497238 0.6864259 -0.1756734 0.7056617 7096907 male
-2.854177 0.5351998 0.4840266 -0.9626804 0.05544689 0.2649001 6507590 male
-2.590491 -0.3798361 0.4176556 0.4752584 -0.03930178 -0.8789681 5257783 male
-2.572982 -0.4046793 0.4812456 0.777231 0.4004771 0.4853145 8808554 male
-2.925197 0.3274079 0.5776864 0.9661388 0.1360699 -0.2192277 6702923 male
-2.816245 -0.2527747 0.5094683 0.7199373 -0.2491559 0.6477743 6769742 male
-2.50269 0.4163525 0.3805199 0.1816497 -0.5926422 -0.7847157 7489866 male
-2.626647 0.4024159 0.3911689 0.6243541 -0.1344825 -0.769478 8344918 male
-2.605319 0.08538441 0.5799259 0.3858498 0.001677502 0.9225601 7565941 male
-2.595782 0.3944747 0.5385624 0.8611775 0.006455537 0.5082633 12755617 male
-2.658111 0.9676049 0.3938903 0.6310151 0.7171354 -0.2958662 1313800 male
-2.899913 0.5849116 0.4078857 -0.6231703 -0.06583586 -0.7793102 7360839 male
-2.675904 0.8774353 0.3490363 0.423663 -0.2359492 -0.87455 1380621 male
-2.742943 0.857775 0.5349615 -0.3481466 0.1301236 0.9283651 8673622 male
-2.820595 -0.05944037 0.4620038 0.1763278 -0.1865427 -0.9664938 9730419 male
-2.895851 -0.1479962 0.493752 -0.9253131 0.2877077 -0.2470221 9136741 male
-2.794508 0.2828605 0.573861 -0.5727251 -0.1253843 0.8101016 6644838 male
-2.78258 0.5015297 0.3538072 -0.2944794 -0.2552398 -0.9209422 9988451 male
-2.880737 -0.01107687 0.5080998 -0.9836417 -0.107112 -0.1448307 7361103 male
-2.888167 -0.4549437 0.4412126 -0.5477608 -0.5497903 -0.6306258 4471608 male
-2.733918 0.8613092 0.3502684 -0.3528045 -0.3097276 -0.8829483 2431508 male
-2.672612 0.8793788 0.5230681 0.4437274 0.2782003 0.8518865 8673879 male
-2.694693 0.1024436 0.4291578 -0.6430978 -0.4234887 -0.6380304 6514027 male
-2.715728 0.1851152 0.5992852 0.1129766 -0.06730139 0.9913157 7434097 male
-2.600147 -0.464716 0.4189458 -0.5166232 -0.8202974 -0.2453827 2632231 male
-2.524194 0.3788243 0.4175012 -0.5702184 -0.6205729 -0.5382753 10715522 male
-2.731498 0.04333599 0.5036713 0.9720393 -0.229937 0.04762896 3026479 male
-2.847745 -0.2869047 0.5142183 0.2784717 -0.2634563 0.923604 7097670 male
-2.633965 0.3285398 0.3965915 0.3268613 -0.1984342 -0.9240052 8542296 male
-2.623486 0.6390812 0.5100034 0.3475232 0.4515526 0.8217834 9334373 male
-2.599233 0.06120391 0.5778309 0.4543929 -0.06179178 0.8886557 6645096 male
-2.91238 0.4381216 0.396047 0.4443665 -0.6437041 -0.6230438 8346718 male
