# .PCD v0.7 - Point Cloud Data file format
VERSION 0.7
FIELDS x y z normal_x normal_y normal_z rgb label
SIZE 4 4 4 4 4 4 4 4
TYPE F F F F F F U U
COUNT 1 1 1 1 1 1 1 1
WIDTH 132
HEIGHT 1
VIEWPOINT 0 0 0 1 0 0 0
POINTS 132
DATA ascii
-2.844224 0.3485543 -0.4428246 -0.5292608 -0.01736487 0.8482815 8414567 male
-2.956846 0.0497442 -0.5012987 -0.9467375 0.05245143 0.3177057 8687244 male
-2.714415 0.1033695 -0.4779611 -0.0795195 -0.0215156 0.996601 6316901 male
-2.953451 -0.004070485 -0.5456235 -0.9391424 -0.09331543 -0.3306111 8281948 male
-2.837733 0.310124 -0.4431191 -0.4470349 -0.2443653 0.8604913 6379349 male
-2.703809 -0.3633929 -0.6319408 -0.9462998 -0.1117931 -0.3033464 6964289 male
-2.888749 0.6944644 -0.5809745 -0.2204736 0.79752 0.5615631 9400681 male
-2.879282 0.5974129 -0.4968915 -0.4847085 0.2473073 0.8389856 10584695 male
-2.801718 0.8469876 -0.4965271 -0.4071334 0.02609318 0.9129959 7030082 male
-2.650188 0.1629519 -0.6051197 0.9098274 0.03199604 -0.4137517 7040371 male
-2.923073 -0.3483636 -0.5386361 0.8993094 -0.002503767 0.4373057 8676715 male
-2.729576 0.8136337 -0.588208 0.9526827 -0.3032378 -0.0210359 7160636 male
-2.719962 0.5668654 -0.7093067 0.2046893 -0.2486661 -0.946714 10975605 male
-2.794343 0.3092117 -0.4331807 0.004740989 -0.1761927 0.9843444 9269620 male
-2.933567 0.2907051 -0.5943002 -0.9295892 0.2891216 -0.2286321 7566199 male
-2.903729 -0.09428247 -0.5525487 0.3325654 -0.1324132 -0.9337382 9333869 male
-2.758058 -0.04320795 -0.5902939 -0.8832203 -0.1158331 -0.4544277 8544092 male
-2.99555 0.5729188 -0.5836978 -0.9436513 0.3255785 0.05933813 7560530 male
-2.792572 0.686406 -0.5308826 0.07965375 0.4174475 0.9052032 8674650 male
-2.863277 0.5085556 -0.4667864 -0.4061327 0.1452664 0.9021939 9927286 male
-2.827067 0.7733318 -0.5528599 -0.7933483 -0.06566239 0.6052164 9529184 male
-2.93849 0.1019414 -0.481134 -0.7745801 0.1631674 0.6110664 4407875 male
-2.675234 -0.4396779 -0.5216023 -0.06360502 0.9060888 0.418279 14923714 male
-2.625425 0.4678971 -0.699851 -0.6773103 -0.3469235 -0.6487641 9528936 male
-2.704347 0.0137297 -0.48893 -0.05783988 -0.1778787 0.9823511 7040363 male
-2.805093 0.2825411 -0.6663778 -0.06727976 0.3074645 -0.949178 8489098 male
-2.828761 0.3886418 -0.6673185 0.04358876 -0.2611437 -0.9643153 9332573 male
-2.66104 0.3110294 -0.5477642 0.934083 0.008853058 0.3569462 10122871 male
-2.681224 0.1585723 -0.4923976 0.4236648 0.2504291 0.8705133 7171957 male
-3.062849 0.2900728 -0.4745421 -0.9176016 0.1088587 0.382305 5784132 male
-2.87831 0.6048027 -0.6982622 -0.402151 0.03352657 -0.9149593 10843499 male
-2.673327 0.4435558 -0.5088019 0.8499213 0.08767897 0.5195633 10980230 male
-2.949856 -0.1879486 -0.581947 -0.2026237 0.2210886 -0.9539725 7953235 male
-3.01754 0.2937856 -0.5251202 0.86138 -0.4687514 -0.1956952 4992555 male
-2.857727 0.854191 -0.5856428 -0.7782453 0.3626969 0.5126259 9331806 male
-2.667508 0.6114866 -0.6355761 -0.9571921 -0.2774065 0.08263686 6177596 male
-2.928531 0.1974627 -0.5040641 -0.7176458 0.2521881 0.6491423 5856354 male
-2.932714 0.6215752 -0.6401229 0.2882779 -0.3390164 -0.8955243 6241594 male
-2.651891 -0.2561381 -0.5610245 0.5631533 -0.2187811 0.7968646 6902352 male
-2.789337 0.2764508 -0.6692901 -0.06031261 0.3069775 -0.9498038 8685454 male
-2.798389 0.2054643 -0.6831109 -0.09964545 0.02209612 -0.9947776 8489873 male
-2.56111 0.3170215 -0.6100695 0.9359106 -0.2964235 -0.1902743 7164236 male
-2.721755 0.9114783 -0.6592587 0.8572937 -0.01137548 -0.5147019 1050116 male
-2.813753 0.5960606 -0.4796695 0.2157035 0.3588668 0.9081226 9532783 male
-2.858984 0.9227262 -0.5982887 -0.9841514 0.1525391 0.09043124 3614496 male
-2.640993 -0.2505323 -0.6279942 0.8467371 -0.08244214 -0.5255849 5521212 male
-2.614175 0.6525869 -0.6018091 0.646726 0.1897781 0.7387353 11306876 male
-2.735001 0.01165745 -0.6266005 -0.3435228 -0.1555597 -0.9261712 7887450 male
-2.802451 0.6125031 -0.4900005 0.2379386 0.3874563 0.890653 9927538 male
-2.657469 0.5653458 -0.553261 0.9616954 -0.05462833 0.268622 9136226 male
-2.898203 0.6475568 -0.6744385 -0.5713047 0.1330363 -0.8098841 9727331 male
-2.720847 0.1120159 -0.478439 -0.1050412 -0.0009634446 0.9944674 5724511 male
-2.940433 0.1850607 -0.5838485 -0.9442657 0.1152244 -0.3083596 7500922 male
-2.665182 0.2176349 -0.5192626 0.6425637 0.1264049 0.7557338 6514027 male
-2.913304 0.6376264 -0.5800209 0.792379 -0.5950361 0.1344148 8678503 male
-2.851129 0.9315709 -0.6477233 -0.9000254 0.2402533 -0.3636382 1642768 male
-2.893567 -0.1206037 -0.5390928 0.610456 -0.06313512 -0.7895299 6968146 male
-2.658566 0.4946703 -0.5528026 0.9522111 -0.03411576 0.3035293 11176070 male
-2.731657 0.7241078 -0.580696 0.8970226 0.3018603 0.3228481 8149587 male
-2.98773 -0.4467735 -0.5640031 -0.8608941 -0.2298276 -0.4539169 6901584 male
-2.927046 0.0956352 -0.6037966 -0.6974409 -0.2202597 -0.6819545 6579052 male
-2.685728 -0.4313689 -0.5609908 -0.8214474 0.4656213 0.3292733 11241361 male
-2.667791 -0.3153737 -0.643104 0.3846731 -0.1365496 -0.9128969 4863025 male
-2.892347 0.699031 -0.6458504 -0.5827575 0.6207497 -0.5244648 7886407 male
-2.815062 0.03741258 -0.5602434 0.8973797 -0.3287277 -0.29436 5264469 male
-2.62596 -0.4729243 -0.5946316 0.4383934 -0.8070924 -0.3954909 3743770 male
-2.642423 0.4993372 -0.6625546 -0.9814014 -0.1606762 0.1050447 8805213 male
-2.750967 0.608221 -0.4928193 -0.04719115 0.3892431 0.9199255 9729387 male
-2.693364 0.02534529 -0.4862125 0.1085995 -0.1595717 0.9811947 6711406 male
-2.668317 -0.3994085 -0.6485412 0.5429386 -0.005468332 -0.8397545 5783360 male
-2.913433 0.6426354 -0.5617124 0.6025997 -0.3280688 0.7274918 8611174 male
-2.98794 0.4067327 -0.6186669 0.5985636 -0.6074637 -0.5222161 7296086 male
-2.907181 0.5301025 -0.5133635 -0.8186562 0.04406634 0.5725908 10257537 male
-2.775794 0.9280045 -0.6935247 0.1374722 0.2299576 -0.9634422 2037520 male
-2.659682 0.4652657 -0.6189029 0.9502466 -0.1757025 -0.2572159 9266531 male
-2.887815 0.6892905 -0.6589492 -0.5275974 0.5541934 -0.643825 8082762 male
-2.654499 -0.362891 -0.5967683 0.9660897 -0.1332407 0.2211731 7690839 male
-2.929524 0.4720744 -0.5957359 -0.9822246 -0.1276416 -0.1376313 9727078 male
-3.061581 0.2898469 -0.454233 -0.9226264 -0.2625106 0.282575 4335657 male
-2.807637 0.9859297 -0.5767115 -0.3819879 0.9040311 0.191867 2693400 male
-2.986503 -0.2544395 -0.5522649 -0.9738058 -0.1055211 -0.2014141 5324345 male
-2.82371 0.1583131 -0.4677935 -0.06220999 -0.1161017 0.9912872 6513763 male
-3.030867 0.5005296 -0.6119556 -0.9573388 0.2530243 -0.1395754 5388337 male
-2.987537 0.3051535 -0.4491543 0.4116558 -0.9113129 0.006949438 7100763 male
-2.984967 -0.2432571 -0.5610251 -0.9085334 -0.0598001 -0.4135105 4863535 male
-2.645007 0.1887908 -0.5887936 0.9654788 0.04825032 -0.2559738 7698815 male
-2.952869 -0.09158516 -0.5407943 -0.6677678 0.1600831 -0.7269523 8083802 male
-2.874839 -0.09286589 -0.4824497 0.7786092 -0.3138642 0.5433756 5914689 male
-2.713504 0.8767889 -0.621864 0.7655341 -0.3683279 0.527534 2559767 male
-2.916837 0.337193 -0.6157531 -0.8478242 -0.03453908 -0.5291514 9002592 male
-2.727144 0.7322124 -0.6265674 0.7280566 0.6726245 -0.1323253 9726820 male
-3.055798 0.2679637 -0.4239309 -0.369738 -0.7748004 -0.5128139 1576462 male
-2.666784 0.1919227 -0.5131695 0.635934 0.2289109 0.7370127 6908011 male
-2.564376 0.2660394 -0.5460131 -0.8442088 -0.4733416 -0.251514 6635844 male
-2.713666 0.34489 -0.4506052 0.6480052 -0.06273964 0.7590474 8282214 male
-2.67712 0.100039 -0.4843247 0.4372795 0.05055973 0.8979033 6711405 male
-2.966398 -0.1111792 -0.4962585 -0.9520757 0.05957596 0.3000044 7361876 male
-2.643545 -0.3068152 -0.6043411 0.9810067 -0.1915566 0.03052587 8085859 male
-2.737522 0.9289517 -0.5259563 0.6754342 0.3663669 0.6399719 8674650 male
-2.95987 -0.07861216 -0.5332896 -0.8592114 0.1188901 -0.4976152 8018776 male
-2.651803 -0.1406152 -0.5450841 0.9274446 -0.07313167 0.36674 8281181 male
-2.932106 0.5467253 -0.5898816 -0.9683805 -0.1296108 0.2131672 7622475 male
-2.682063 -0.2563804 -0.5586479 -0.1820503 -0.2069579 0.9612627 6902608 male
-2.642358 -0.4079926 -0.6039211 0.9899935 0.1106635 0.08755814 9927808 male
-2.988451 0.3138333 -0.4673937 0.949496 0.1577634 -0.2712345 6702923 male
-2.893182 -0.2456561 -0.5259468 0.8625807 -0.2373014 0.4468139 7164244 male
-2.581053 0.4171778 -0.6980041 0.3288558 -0.5037992 -0.7987742 6900296 male
-2.661093 0.365882 -0.6221238 0.9058602 0.1361127 -0.4011116 8082772 male
-2.775172 0.06882443 -0.5161862 -0.7910132 -0.1908538 0.5812683 5197907 male
-2.690355 0.1865083 -0.6591721 0.6595086 -0.02867349 -0.75115 6711406 male
-2.741228 0.9705951 -0.645815 0.5844394 0.7348577 -0.3441145 1313800 male
-2.976633 0.6144693 -0.6181074 -0.8077796 -0.05748502 -0.586675 7887439 male
-2.762685 0.881332 -0.6908577 0.3265863 -0.2065937 -0.9223126 1380621 male
-2.816409 0.86602 -0.5037232 -0.4429475 0.200398 0.8738639 8673618 male
-2.948913 -0.01896373 -0.5538289 -0.8822182 -0.08112518 -0.4637994 8150619 male
-2.970685 -0.1164246 -0.5093006 -0.9863921 0.1206818 0.1116531 8085084 male
-2.861849 0.3012403 -0.466487 -0.5603332 -0.1191048 0.819659 6514791 male
-2.895046 0.5323451 -0.671694 -0.6277105 -0.2140857 -0.7484296 11107959 male
-2.958355 -0.00684285 -0.5222377 -0.9951461 -0.08909203 -0.04179453 7361103 male
-2.965667 -0.4594613 -0.5445394 0.05151472 -0.9984868 -0.01924822 4931382 male
-2.819974 0.8642065 -0.6836529 -0.4448662 -0.2928289 -0.8463718 2431508 male
-2.747714 0.8903196 -0.5166953 0.2703027 0.2060985 0.9404573 6701888 male
-2.769836 0.1118187 -0.6446091 -0.5024987 -0.5976354 -0.6247615 6383469 male
-2.769066 0.2053352 -0.4567368 0.3989773 -0.004840704 0.916948 7566715 male
-2.671573 -0.470774 -0.6214185 -0.174639 -0.9826879 0.06185273 4863801 male
-2.604309 0.3553053 -0.6043029 -0.9593901 0.09451069 0.265779 9730427 male
-2.808967 0.04387765 -0.5442104 0.9668891 -0.2508827 -0.04672712 3026479 male
-2.927915 -0.2815373 -0.5130236 0.3568979 -0.256513 0.8982343 7097670 male
-2.787161 0.4618077 -0.6861739 -0.2959836 -0.2277752 -0.9276379 10582129 male
-2.82692 0.736596 -0.5532312 -0.7218245 -0.02147923 0.6917427 9530209 male
-2.768905 0.02635726 -0.5272263 -0.8230961 -0.2484304 0.510681 4998464 male
-2.986696 0.4390796 -0.6396627 0.4004413 -0.5903706 -0.700792 8346718 male
