# .PCD v0.7 - Point Cloud Data file format
VERSION 0.7
FIELDS x y z normal_x normal_y normal_z rgb label
SIZE 4 4 4 4 4 4 4 4
TYPE F F F F F F U U
COUNT 1 1 1 1 1 1 1 1
WIDTH 132
HEIGHT 1
VIEWPOINT 0 0 0 1 0 0 0
POINTS 132
DATA ascii
-2.790641 0.3887436 0.5761751 -0.5294626 0.0251335 0.8479609 8940911 male
-2.787925 -0.09493357 0.5224894 0.9649733 -0.2142821 0.1513594 6506826 male
-2.70561 0.09596785 0.5423746 -0.61345 -0.09441379 0.7840696 4672079 male
-2.887847 -0.03426104 0.4937296 -0.9546164 -0.0799638 -0.2869031 7690583 male
-2.791434 0.4387954 0.5711649 -0.4538319 0.1231566 0.8825355 9533040 male
-2.651895 -0.3875585 0.3917845 -0.9337615 0.04237565 -0.3553784 7162182 male
-2.830445 0.6894261 0.3737928 -0.5640349 0.633701 -0.529422 7688772 male
-2.849365 0.599215 0.476841 -0.7941508 -0.3738198 0.4791485 7034960 male
-2.725311 0.8339797 0.5372745 -0.5074546 0.004549714 0.8616664 7096647 male
-2.579677 0.2058524 0.4680867 0.9972425 0.03034416 0.06772472 9936295 male
-2.847064 -0.338378 0.487534 0.9123288 -0.1817769 0.3668969 7887455 male
-2.652104 0.825175 0.4173456 0.9032027 -0.4083153 -0.1323007 7226940 male
-2.651237 0.5931301 0.3108262 0.2108596 0.02591091 -0.9771729 10384488 male
-2.737016 0.3615116 0.5959887 0.01311513 0.03522155 0.9992935 9204083 male
-2.83429 0.2604726 0.5308724 -0.5163538 0.04626561 0.8551247 7041395 male
-2.867697 -0.06163759 0.47133 -0.6253571 -0.1112179 -0.7723724 8084826 male
-2.694917 -0.04186729 0.4412086 -0.7534209 -0.1417104 -0.6420865 9202027 male
-2.938179 0.5446868 0.4507477 -0.8004278 0.5159939 0.3050667 7427146 male
-2.729338 0.6657336 0.4975286 0.02086215 0.4572885 0.8890737 7295310 male
-2.838466 0.4800848 0.5203208 -0.7769674 0.0453968 0.6279019 9730675 male
-2.764286 0.7755258 0.4605959 -0.9117308 -0.09680171 0.3992196 8805204 male
-2.895146 0.07032761 0.5076249 -0.9940077 0.03468337 0.1036621 6645352 male
-2.654456 -0.4664789 0.5318759 0.5556377 0.7957118 0.2410593 16766942 male
-2.550567 0.5595735 0.366367 0.2644136 -0.3001883 -0.9165002 8148306 male
-2.712161 -0.01131341 0.4899549 -0.9440054 -0.1971094 0.2645784 3942955 male
-2.674316 0.2293645 0.3500492 0.1392811 0.1852451 -0.9727718 8225671 male
-2.840772 0.5481637 0.3543014 -0.699353 -0.2372193 -0.6742643 10252906 male
-2.616852 0.3344606 0.5245364 0.8066141 -0.08025146 0.5856052 11899540 male
-2.583599 0.1382549 0.5077357 0.9307453 0.07768449 0.3573211 9344927 male
-2.95351 0.341931 0.6097242 -0.5252421 0.6318386 0.5700006 6176581 male
-2.805622 0.6615952 0.3370377 -0.3775231 0.3602992 -0.8530304 9069392 male
-2.602502 0.4129306 0.5018641 0.8946074 0.0192367 0.4464386 11111048 male
-2.912446 -0.1923997 0.4764527 -0.8372009 0.2122724 -0.504019 6112060 male
-2.931942 0.3126239 0.5669936 0.952347 -0.2971495 0.06882787 5389369 male
-2.78669 0.8793498 0.4343436 -0.0263765 0.1726067 0.9846376 9331556 male
-2.59143 0.5663422 0.4170882 -0.9763026 -0.1824933 0.1163157 7557970 male
-2.863638 0.1700084 0.5390744 -0.6794629 0.2745305 0.680414 5527382 male
-2.877734 0.572633 0.3951638 0.1421813 -0.5142841 -0.8457519 9465191 male
-2.582306 -0.2467685 0.4421595 0.9879478 -0.1189904 -0.09899748 7295569 male
-2.661757 0.2373071 0.3542371 0.2291748 0.1816913 -0.9562778 8422024 male
-2.708219 0.1618731 0.3471696 -0.09845553 -0.1902632 -0.9767838 9345695 male
-2.515345 0.3184114 0.4728784 0.918999 -0.3716127 0.1316997 7163465 male
-2.634613 0.9271836 0.4063141 0.941601 0.2922619 -0.1672441 1248008 male
-2.739996 0.517419 0.5582635 0.09339856 0.3200366 0.9427902 10060664 male
-2.781383 0.9175625 0.4319564 -0.981136 0.1892733 0.03934244 3614496 male
-2.618126 -0.2370646 0.3974841 0.3069606 0.05553951 -0.9501002 4860969 male
-2.562916 0.6355647 0.4434886 0.09108631 0.002724909 0.9958392 11703177 male
-2.633056 0.04833033 0.4065222 0.3315717 -0.1827318 -0.9255643 7304576 male
-2.69677 0.4925537 0.5652479 0.08782399 0.3487708 0.9330841 10059641 male
-2.591223 0.5291238 0.4632726 0.955635 -0.03339424 0.2926544 7688782 male
-2.808285 0.5540946 0.32692 -0.3915543 -0.2205267 -0.8933383 11304050 male
-2.708744 0.1139369 0.5393298 -0.6625316 -0.09497906 0.7429878 4935251 male
-2.784108 0.001257313 0.4454127 0.553957 -0.3477582 -0.7564363 7495524 male
-2.639943 0.2003113 0.5354334 0.3761482 0.1435386 0.9153738 7369336 male
-2.86053 0.6024639 0.4618291 0.6269988 -0.05967893 0.776731 8678245 male
-2.770006 0.9291729 0.38379 -0.8644413 0.3018311 -0.4020438 1642768 male
-2.845498 -0.07934179 0.4699753 0.00991735 -0.1700632 -0.9853832 8742500 male
-2.620178 0.471857 0.5214913 0.799181 0.06037073 0.5980511 10651009 male
-2.658588 0.7090514 0.4421373 0.804733 0.4338917 0.4051452 8675930 male
-2.867289 -0.4599485 0.4547447 0.3580056 -0.9177549 -0.1719243 5127737 male
-2.871262 0.1048581 0.4317018 -0.8041068 -0.1870007 -0.5643075 6908529 male
-2.647477 -0.4296664 0.4558814 -0.8016106 0.4667247 0.3736155 8674667 male
-2.596171 -0.3094834 0.4433405 0.9545746 -0.2494266 0.1630144 8085344 male
-2.848699 0.6749609 0.3809776 -0.711961 0.5259189 -0.4653179 8674899 male
-2.759066 0.03350861 0.4519403 0.7665101 -0.3516292 -0.537419 5002324 male
-2.575587 -0.475918 0.4558977 0.6575997 -0.6427902 -0.3929164 5389369 male
-2.558205 0.4868997 0.3881125 -0.8825697 0.1195374 0.4547324 8282973 male
-2.714722 0.670973 0.4945345 0.08004908 0.4442026 0.8923431 8477783 male
-2.648941 0.03012437 0.552942 -0.09609673 -0.1199385 0.9881195 7302769 male
-2.608112 -0.4338332 0.3819708 0.8569751 0.1428859 -0.4951539 7229782 male
-2.846045 0.6329218 0.4538584 0.7797843 -0.2510905 0.5734893 7363159 male
-2.916106 0.4005357 0.4789093 0.9480065 0.2436978 0.2046828 6114123 male
-2.835328 0.5052119 0.5223014 -0.7570453 0.06031461 0.6505725 10059640 male
-2.70556 0.9314476 0.3424392 0.03549582 0.3555847 -0.9339697 2694168 male
-2.625958 0.4751378 0.3492462 0.5948935 -0.2498775 -0.7639784 9924206 male
-2.866782 0.6293555 0.3683521 -0.5577334 0.04603008 -0.8287429 9463647 male
-2.606855 -0.3468207 0.4487781 0.8478259 -0.2878439 0.4453505 6178374 male
-2.848615 0.4734518 0.376038 -0.7958281 -0.216193 -0.5656132 9924454 male
-2.974742 0.3012066 0.5975523 -0.7509663 -0.5550849 -0.3576734 4731440 male
-2.729077 0.9769785 0.4607775 -0.3574454 0.9058457 0.2273243 2693400 male
-2.915097 -0.2653001 0.503486 -0.9506196 -0.1807256 0.2523109 6048330 male
-2.784195 0.1899016 0.5556343 -0.2513956 0.1694584 0.9529344 6250847 male
-2.970107 0.4838452 0.4157995 -0.9700507 0.2422879 0.01727279 5783095 male
-2.908123 0.3569346 0.6021544 -0.8894882 0.06415007 0.4524328 6045763 male
-2.91892 -0.2532472 0.4941414 -0.9918926 -0.1201519 0.04138306 6639951 male
-2.587802 0.2084523 0.426525 0.9190053 -0.03957133 -0.3922541 7239551 male
-2.885833 -0.07698037 0.4954192 -0.8193847 0.05672169 -0.5704308 7755346 male
-2.885253 -0.01990987 0.5414038 -0.8729604 -0.1312549 0.4698003 6245199 male
-2.635748 0.8912225 0.396722 0.9421883 -0.1223461 -0.3119497 1050114 male
-2.867397 0.3051898 0.4526026 -0.9415252 0.3321344 0.05671924 8159109 male
-2.66153 0.6996364 0.3527447 0.3094843 0.4727069 -0.8250865 7032386 male
-2.944474 0.3283331 0.6110346 0.8785365 -0.4438153 -0.1766396 5913401 male
-2.599125 0.1952758 0.5141926 0.6895297 0.1881916 0.6993802 6776939 male
-2.542949 0.2782655 0.5741101 -0.8560947 0.1186332 -0.503019 6899268 male
-2.666374 0.3272784 0.5847096 0.5110798 -0.1221908 0.8508037 8676715 male
-2.673501 0.1207414 0.5554621 -0.1719832 0.04978792 0.9838409 5921890 male
-2.888087 -0.0984285 0.5470754 -0.9104061 0.04960898 0.4107305 5783615 male
-2.615287 -0.3528905 0.4020952 0.7624962 -0.1243118 -0.6349379 5917002 male
-2.667964 0.9154052 0.5140378 0.5950271 0.3114449 0.7409081 8674650 male
-2.889764 -0.0598689 0.5035809 -0.9717361 0.01427197 -0.2356379 7557457 male
-2.599643 -0.148092 0.5099456 0.914067 -0.1203498 0.3872952 8478303 male
-2.859994 0.5191142 0.4732409 -0.9374127 0.06083061 0.342866 6572867 male
-2.622776 -0.3889135 0.3857743 0.5136468 -0.03600414 -0.857246 5061179 male
-2.605899 -0.4060333 0.4365187 0.909918 0.1521529 0.385874 9269620 male
-2.903231 0.3542947 0.6092639 -0.6669012 -0.5789224 0.4691393 3220000 male
-2.83495 -0.2997769 0.4809412 0.9619479 -0.2355421 -0.1384778 5454130 male
-2.511364 0.3782671 0.3736189 0.2795219 -0.7544406 -0.5938745 7032913 male
-2.637393 0.3521705 0.3625129 0.4293802 -0.1384902 -0.8924422 9463143 male
-2.676122 0.08380174 0.5524821 -0.3150957 -0.08022556 0.945663 6249823 male
-2.618021 0.1612775 0.3837201 0.7142306 -0.02068213 -0.6996048 6711918 male
-2.658981 0.9631686 0.3950646 0.6344623 0.7285505 -0.2582088 1313800 male
-2.913754 0.597107 0.4128582 -0.8661487 -0.02782627 -0.4990111 7557957 male
-2.671154 0.865249 0.3523529 0.5408705 -0.2894371 -0.7897375 1379853 male
-2.730327 0.8222811 0.5313538 -0.5891719 0.08591702 0.8034269 6569274 male
-2.814021 -0.1319225 0.5079971 0.8045551 -0.180975 -0.5656316 5455423 male
-2.889573 -0.1503761 0.4767476 -0.4710487 0.4643106 -0.7500192 8412759 male
-2.818578 0.3511066 0.5487382 -0.6984402 -0.01955075 0.7154014 9204075 male
-2.767797 0.4742419 0.3306239 -0.02230046 -0.2511837 -0.9676825 11831425 male
-2.895244 0.02302195 0.5178213 -0.9905555 -0.03119585 0.1335161 8552835 male
-2.883777 -0.4623204 0.4592291 0.02778632 -0.9912868 -0.1287575 5786698 male
-2.73928 0.8628649 0.3454449 -0.3999926 -0.219367 -0.8898786 2431508 male
-2.678939 0.8605809 0.521499 0.4189551 0.295947 0.8584241 8475471 male
-2.715712 0.09424891 0.4069192 -0.6981226 -0.4241593 -0.5768134 6514027 male
-2.733752 0.1239145 0.543156 -0.7171999 -0.6736248 0.1784768 6447714 male
-2.628144 -0.4614241 0.3596607 -0.1376728 -0.6057708 -0.7836378 2759192 male
-2.554765 0.3583333 0.4492013 -0.9916286 0.08298188 -0.09892724 10058110 male
-2.741497 0.1136546 0.4198731 0.7441363 -0.5015258 -0.4412857 5460571 male
-2.855991 -0.2515886 0.5312451 0.3815981 -0.2587338 0.887378 6505794 male
-2.590586 0.3478115 0.4281207 0.9843535 0.05353166 -0.1678769 5914946 male
-2.639879 0.6656571 0.4669651 0.4633604 0.589467 0.661684 10255731 male
-2.65987 0.03240653 0.5513484 -0.2604928 -0.1173304 0.9583199 7105644 male
-2.927791 0.4453331 0.3861072 0.207852 -0.70672 -0.6762724 9463393 male
