# .PCD v0.7 - Point Cloud Data file format
VERSION 0.7
FIELDS x y z normal_x normal_y normal_z rgb label
SIZE 4 4 4 4 4 4 4 4
TYPE F F F F F F U U
COUNT 1 1 1 1 1 1 1 1
WIDTH 132
HEIGHT 1
VIEWPOINT 0 0 0 1 0 0 0
POINTS 132
DATA ascii
-2.853416 0.4883142 -0.4546408 -0.409566 0.1939364 0.8914283 10322554 male
-2.952472 0.04720135 -0.4949487 -0.9530384 0.03987575 0.3002129 8687244 male
-2.716743 0.08268916 -0.4668602 -0.1928648 -0.07804709 0.9781165 6645354 male
-2.94763 -0.0003665015 -0.5417383 -0.9235396 -0.1055809 -0.3686832 8216672 male
-2.840296 0.3323789 -0.4326927 -0.5207283 -0.09429935 0.8484985 8151396 male
-2.70272 -0.3701186 -0.6166071 -0.9785306 -0.1096246 -0.1745286 8281178 male
-2.89711 0.7010878 -0.6177601 -0.6069894 0.7857798 -0.118802 8084818 male
-2.898233 0.6267298 -0.5313805 -0.505232 -0.05528668 0.8612108 10782592 male
-2.789715 0.8210328 -0.4866883 -0.3659343 0.03305298 0.9300535 7557450 male
-2.644774 0.1611831 -0.5897812 0.9232616 0.02480346 -0.3833703 7040371 male
-2.910107 -0.3498516 -0.5428305 0.9880589 -0.09584837 0.1206343 6637388 male
-2.721141 0.8249595 -0.5869349 0.9217247 -0.3475662 -0.1721084 7358273 male
-2.702982 0.6211745 -0.6996455 0.4426996 0.1059234 -0.8903917 9398622 male
-2.814086 0.3248168 -0.4230081 -0.18864 -0.1554492 0.9696652 8809072 male
-2.932749 0.2851665 -0.5636482 -0.9592488 0.2807296 0.03213418 9870754 male
-2.886173 -0.1616261 -0.5337602 0.8964035 0.1648335 -0.4114495 7032652 male
-2.755525 -0.04402219 -0.5787998 -0.8693455 -0.1045512 -0.4830192 8544092 male
-2.989147 0.5734517 -0.5886137 -0.9495856 0.3123234 0.02722839 7560530 male
-2.668081 0.505779 -0.5130189 0.8583088 -0.04487078 0.5111679 11374220 male
-2.913384 0.50695 -0.5222284 -0.8809236 0.03923611 0.4716291 9072233 male
-2.829111 0.7818573 -0.5586487 -0.9015428 -0.1102379 0.4184114 8805204 male
-2.935288 0.09967832 -0.4743767 -0.7880964 0.1535408 0.596095 4407875 male
-2.678539 -0.4488262 -0.5005592 0.140675 0.9073853 0.3960586 13279402 male
-2.614353 0.4769694 -0.6827513 -0.5896088 -0.2647794 -0.7630553 8738908 male
-2.700401 0.01663474 -0.4743871 -0.03101973 -0.1750586 0.9840693 7566715 male
-2.766566 0.2724855 -0.6606815 -0.01613783 0.2975336 -0.9545749 7896448 male
-2.838163 0.4163022 -0.6680236 -0.1735357 -0.2645222 -0.9486377 11042678 male
-2.654993 0.3217322 -0.5314512 0.9329407 -0.1501891 0.3272077 10978182 male
-2.655228 0.1612692 -0.4956942 0.7342848 0.2007251 0.6484869 6317161 male
-3.009926 0.3192507 -0.4802453 -0.4735706 0.5557759 0.6832598 6572107 male
-2.86771 0.6038594 -0.6968886 -0.3582589 0.03479491 -0.9329737 10843499 male
-2.67992 0.4373902 -0.4823864 0.7939971 0.08587154 0.601826 11768466 male
-2.981009 -0.1944097 -0.5352537 -0.9820281 0.117038 -0.1480643 7362903 male
-3.013477 0.2856465 -0.5162874 0.9258525 -0.3576151 0.122101 5323575 male
-2.855961 0.8632288 -0.5933704 -0.2313232 0.2344672 0.9442006 7225666 male
-2.658629 0.5980901 -0.6232028 -0.9614966 -0.2706509 0.04766962 6046266 male
-2.923063 0.1750361 -0.4841068 -0.6959157 0.2698021 0.6655135 5527382 male
-2.928504 0.5939347 -0.6354827 0.3232792 -0.3623365 -0.8741869 5913649 male
-2.652615 -0.2581919 -0.5472643 0.5375012 -0.2329579 0.8104463 6902352 male
-2.74123 0.2650464 -0.6622615 0.0543554 0.279088 -0.9587259 8356487 male
-2.799761 0.2007767 -0.672048 -0.04642317 -0.008552599 -0.9988852 9081240 male
-2.561011 0.3114299 -0.5941895 0.8191528 -0.4441769 -0.362899 6966085 male
-2.705965 0.9352734 -0.6224775 0.9277434 0.3188353 -0.1940006 1248008 male
-2.773658 0.5068974 -0.4523456 0.06593829 0.3653534 0.9285306 9468022 male
-2.852001 0.9213769 -0.5946534 -0.9873635 0.1532899 0.04019438 3614496 male
-2.650135 -0.2511658 -0.6261238 0.6657368 -0.0647032 -0.7433761 6046267 male
-2.611166 0.6569421 -0.5859244 0.60079 0.3803021 0.7031513 11043961 male
-2.730573 0.01068058 -0.6142678 -0.3147953 -0.1499932 -0.9372331 7887450 male
-2.84424 0.632924 -0.5007876 -0.1776904 0.5711296 0.801397 9532272 male
-2.654033 0.5637088 -0.5417063 0.9479551 -0.05724695 0.3132155 9136226 male
-2.892861 0.6493118 -0.6701579 -0.5547336 0.1586367 -0.816765 9332567 male
-2.707929 0.1147869 -0.4649339 -0.0004579266 0.05808957 0.9983113 6316130 male
-2.93513 0.1888934 -0.5780743 -0.9352612 0.1118293 -0.3358282 7895681 male
-2.698536 0.228002 -0.4838805 0.4769121 -0.03154665 0.8783847 8620435 male
-2.909097 0.6251956 -0.5711625 0.8391339 -0.3479071 0.4181088 5916481 male
-2.841551 0.9307773 -0.6435035 -0.8795793 0.2456885 -0.4074032 1642768 male
-2.887888 -0.1346507 -0.5318023 0.7376881 0.05195008 -0.67314 6836564 male
-2.658567 0.4803868 -0.5336156 0.929741 0.03726509 0.3663235 9925742 male
-2.726232 0.7224676 -0.5725921 0.8807181 0.29711 0.3688649 8149587 male
-2.961159 -0.4596591 -0.5636593 -0.2279321 -0.9414879 -0.2482889 5459275 male
-2.921467 0.09347475 -0.5968986 -0.6805071 -0.2292512 -0.6959555 6579052 male
-2.688178 -0.4329341 -0.5513503 -0.8276825 0.4668162 0.3114873 11241361 male
-2.65642 -0.3178178 -0.6219894 0.7229781 -0.1713617 -0.6692816 5455162 male
-2.900269 0.6945524 -0.629317 -0.6305872 0.6973227 -0.3407357 8214603 male
-2.816487 0.01409898 -0.5385674 0.9190438 -0.355586 -0.1700503 4997442 male
-2.62782 -0.4744766 -0.5838984 0.4451604 -0.8058864 -0.3903578 3743770 male
-2.632973 0.4982212 -0.6510202 -0.9880844 -0.1494668 0.03672546 8805213 male
-2.749126 0.6438382 -0.506791 0.1413977 0.4901571 0.8600887 9203043 male
-2.764109 -0.02920765 -0.5456622 -0.9753043 -0.1552636 0.1570819 6703941 male
-2.638248 -0.4590334 -0.6266122 0.9204252 -0.008728758 -0.3908212 7031114 male
-2.909649 0.6378049 -0.5639215 0.6463396 -0.2947411 0.7038272 8874342 male
-2.975399 0.3982435 -0.6026401 0.9036876 -0.4129729 -0.1131466 6705749 male
-2.850159 0.5237012 -0.4620883 -0.2848794 0.1876555 0.9400156 9598061 male
-2.763916 0.9276148 -0.6853149 0.1881883 0.240782 -0.9521603 2037520 male
-2.666668 0.4932567 -0.6509156 0.7699733 -0.2352717 -0.5931174 10121073 male
-2.908057 0.6753634 -0.6425163 -0.7095653 0.4567247 -0.5365815 8674899 male
-2.654623 -0.3592249 -0.5816102 0.9337753 -0.1733838 0.3130522 7559514 male
-2.910317 0.4956546 -0.6373346 -0.8321603 -0.1949085 -0.5191531 9989994 male
-3.05214 0.2955719 -0.4440561 -0.7383887 0.4172909 0.5297645 5718599 male
-2.801789 0.9842584 -0.5696736 -0.3904563 0.9024504 0.1820088 2693400 male
-2.978259 -0.2577312 -0.54592 -0.9712329 -0.1132178 -0.2094957 5324345 male
-2.840216 0.2221315 -0.4661065 -0.3886843 -0.002861216 0.9213665 6316384 male
-3.024318 0.4989302 -0.6207612 -0.9601933 0.2301518 -0.1583 5388337 male
-2.978408 0.3119981 -0.4483435 0.3052268 -0.9259444 0.2224041 7100763 male
-2.976145 -0.2593135 -0.520666 -0.9417166 -0.173395 0.2882779 6114124 male
-2.639985 0.1870867 -0.5734206 0.9736478 0.04194884 -0.2241658 7698815 male
-2.939018 -0.08720406 -0.540358 -0.6104492 0.09235357 -0.7866528 8215387 male
-2.870227 -0.1037535 -0.4764077 0.7473032 -0.3188448 0.5829888 6571594 male
-2.710129 0.8866915 -0.6368219 0.9091405 -0.1645525 -0.3826043 1050624 male
-2.899163 0.3244705 -0.6214218 -0.6843242 0.09060476 -0.7235269 6776424 male
-2.71939 0.730791 -0.6181067 0.7360029 0.6706054 -0.09267186 9726820 male
-3.043541 0.2792632 -0.4342412 0.3131539 -0.7608079 -0.568424 6247250 male
-2.664087 0.1904241 -0.4984833 0.6132264 0.2266079 0.7567049 6908011 male
-2.556111 0.2539721 -0.5066949 -0.2988506 -0.6518084 -0.6970181 7030346 male
-2.722307 0.3569989 -0.4329441 0.5189541 0.0172093 0.8546289 9400694 male
-2.726156 0.114871 -0.4664507 -0.1727892 -0.002520432 0.9849556 5855580 male
-2.951753 -0.1034682 -0.4796585 -0.9219242 0.06316931 0.382185 6966606 male
-2.64746 -0.3137086 -0.6087385 0.9075403 -0.2031831 -0.3675423 5783102 male
-2.727302 0.9217641 -0.5212994 0.7549331 0.3088042 0.5785465 8148563 male
-2.953455 -0.06291934 -0.5183695 -0.9849905 0.07152042 -0.1570937 8281693 male
-2.652004 -0.142838 -0.5301535 0.9154074 -0.08555142 0.3933322 8281181 male
-2.923394 0.5588108 -0.6302605 -0.8518799 -0.3602063 -0.3802001 10253675 male
-2.692209 -0.2502709 -0.5475591 -0.3116754 -0.1966777 0.9296108 6506826 male
-2.643369 -0.4094589 -0.5925382 0.9878355 0.1036116 0.1159553 9927808 male
-2.97847 0.3137054 -0.4662006 0.7108032 -0.6394426 -0.2930392 6638412 male
-2.88911 -0.249901 -0.5135503 0.7691867 -0.2342036 0.5945591 6769742 male
-2.569914 0.414794 -0.6818476 0.3804212 -0.5275146 -0.7596104 6900296 male
-2.660448 0.3415528 -0.6245838 0.8060458 -0.1770374 -0.5647548 8937831 male
-2.770735 0.07375541 -0.4990301 -0.7573604 -0.1814435 0.6272827 5198164 male
-2.684872 0.1685577 -0.6458705 0.64617 -0.01078122 -0.7631174 6711406 male
-2.731844 0.9696066 -0.6353574 0.6025077 0.7377493 -0.3044842 1313800 male
-2.969465 0.6154832 -0.621936 -0.7856126 -0.0659207 -0.6151969 7887439 male
-2.751009 0.8808951 -0.6825013 0.3744186 -0.1964332 -0.9062145 1380621 male
-2.808765 0.8611647 -0.4953512 -0.3491885 0.1730015 0.920944 9067093 male
-2.897477 -0.05926796 -0.5652526 0.09458679 -0.2108743 -0.9729262 9730419 male
-2.970613 -0.1461277 -0.524627 -0.9434543 0.278297 -0.1801245 9136741 male
-2.858442 0.2830941 -0.463119 -0.5126253 -0.1152143 0.8508472 6644838 male
-2.857506 0.5032185 -0.6822855 -0.3582338 -0.2341759 -0.9037866 9988451 male
-2.952829 -0.009414948 -0.5159103 -0.9930072 -0.1019071 -0.0595949 7361103 male
-2.972032 -0.4595987 -0.5510844 -0.4030928 -0.8753583 -0.2669532 6180167 male
-2.808633 0.8637787 -0.6785372 -0.4001798 -0.2822036 -0.8719044 2431508 male
-2.757096 0.8823378 -0.5018699 0.6370757 0.4507891 0.625239 7949897 male
-2.772917 0.12417 -0.6417212 -0.4883112 -0.7224112 -0.4895654 8357004 male
-2.773249 0.2295546 -0.4443933 0.2240165 -0.06985861 0.9720784 7041395 male
-2.672751 -0.4719288 -0.6118592 -0.1805836 -0.9822809 0.05013777 4863801 male
-2.605489 0.3733979 -0.6198409 -0.9850879 -0.1693581 0.0303268 9138802 male
-2.803984 0.04324637 -0.5347738 0.9706237 -0.2390495 -0.02729473 3026479 male
-2.93765 -0.3099864 -0.5069296 0.07712164 -0.2039279 0.9759434 7361103 male
-2.649973 0.3750324 -0.567596 0.9974487 0.06756975 -0.02303083 10582907 male
-2.777516 0.7264262 -0.5314867 0.07126477 -0.194885 0.9782337 10057584 male
-2.767967 0.04179729 -0.5099079 -0.8010638 -0.2314608 0.5520169 4867394 male
-2.963959 0.5407673 -0.6252322 -0.06574077 -0.2795338 -0.9578826 9332061 male
