# .PCD v0.7 - Point Cloud Data file format
VERSION 0.7
FIELDS x y z normal_x normal_y normal_z rgb label
SIZE 4 4 4 4 4 4 4 4
TYPE F F F F F F U U
COUNT 1 1 1 1 1 1 1 1
WIDTH 132
HEIGHT 1
VIEWPOINT 0 0 0 1 0 0 0
POINTS 132
DATA ascii
-2.792944 0.4615874 0.6013899 -0.5445575 0.1424284 0.8265417 9598321 male
-2.877059 0.0430195 0.538633 -0.981131 0.01140849 0.1930071 8687244 male
-2.619278 0.1120093 0.6013178 0.1170236 0.07227851 0.9904954 7567739 male
-2.865924 -0.002566108 0.4907897 -0.8745234 -0.1069962 -0.4730335 8216672 male
-2.778598 0.3537563 0.619553 -0.6039662 -0.0005224717 0.7970097 8940137 male
-2.598808 -0.3786301 0.4295327 -0.7390184 0.002875068 -0.6736792 6569274 male
-2.819719 0.689903 0.3982692 -0.5444341 0.5865333 -0.5996417 8082762 male
-2.845536 0.6024213 0.4709132 -0.7277424 -0.4935711 0.4762128 7363927 male
-2.727024 0.8463832 0.555817 -0.5016648 -0.1657048 0.8490433 6504252 male
-2.561579 0.217129 0.5203272 0.9844404 0.05658638 0.1663585 9936295 male
-2.830232 -0.3561042 0.4964096 0.8439416 0.002865072 0.5364274 8676715 male
-2.649593 0.8283126 0.4512114 0.9380828 -0.345666 -0.02271293 6897978 male
-2.641568 0.6085097 0.3511039 0.1866298 0.07977431 -0.9791861 9727586 male
-2.76018 0.4902546 0.6098046 -0.2158456 0.3090273 0.9262359 10059640 male
-2.84974 0.2871108 0.4543021 -0.8983913 0.2645403 -0.3505874 7566199 male
-2.801746 -0.1659693 0.4974234 0.933973 0.1685516 -0.3150949 7032652 male
-2.672061 -0.05581539 0.4844853 -0.8349851 -0.06440154 -0.5464909 8478045 male
-2.927185 0.5578876 0.4521419 -0.9216313 0.372799 -0.1077811 7427661 male
-2.694063 0.6356192 0.5555894 -0.04537088 0.4702352 0.8813741 9729387 male
-2.807029 0.4897755 0.5851648 -0.6228999 0.1259192 0.772101 10059640 male
-2.760646 0.7846816 0.4838017 -0.9337692 -0.08423058 0.3478223 8805204 male
-2.877151 0.07302456 0.5163882 -0.998977 0.02183427 -0.03960194 6645352 male
-2.615024 -0.447807 0.5694731 -0.2743508 0.8682568 0.4133543 16772087 male
-2.550586 0.5223464 0.4170675 -0.4979801 -0.3268638 -0.8032284 9462110 male
-2.688212 -0.004204412 0.5214463 -0.9573638 -0.2355493 0.1672452 3942955 male
-2.644799 0.2364204 0.3934156 0.2292477 0.2051702 -0.9514992 8028291 male
-2.756283 0.415671 0.3854055 -0.07692195 -0.2784067 -0.957378 11042678 male
-2.605854 0.3412417 0.5739966 0.7603813 -0.07411594 0.6452341 11899540 male
-2.56708 0.1484515 0.5562894 0.8891919 0.09430262 0.4477107 9344927 male
-2.961409 0.3203112 0.5716456 -0.4173402 0.5804206 0.6992418 7033170 male
-2.787536 0.599997 0.3498085 -0.2783967 -0.00219973 -0.9604637 10843499 male
-2.605571 0.4651987 0.5629755 0.7895612 0.1097741 0.6037738 10847876 male
-2.852715 -0.1957304 0.4497105 -0.09500176 0.2177253 -0.9713755 7953235 male
-2.94815 0.3016792 0.5267136 0.8430721 -0.5376419 -0.01306322 5518899 male
-2.789016 0.8619152 0.4377501 -0.8125145 0.1685898 0.5580301 9788245 male
-2.57827 0.5657872 0.4570259 -0.9647511 -0.2192185 0.1455975 8741211 male
-2.851458 0.1713185 0.5574974 -0.7688645 0.2356765 0.5943938 5527382 male
-2.86628 0.546016 0.4303248 0.6779066 -0.571144 -0.4628576 8612450 male
-2.56476 -0.1875446 0.4458058 0.6306357 0.2519899 -0.7340297 7557966 male
-2.662462 0.2487428 0.3936186 0.1113754 0.2544844 -0.960642 8358027 male
-2.710078 0.1823902 0.3861639 0.05243427 -0.1621651 -0.9853696 8949912 male
-2.486343 0.348755 0.463615 0.7370757 -0.5010884 -0.4534642 7492689 male
-2.631215 0.933552 0.4217578 0.9440423 0.3012911 -0.1341928 1248008 male
-2.76871 0.575069 0.5835252 -0.09627397 0.1950505 0.9760568 10848379 male
-2.779237 0.9222402 0.4380815 -0.9855908 0.1611459 -0.05140698 3614496 male
-2.594699 -0.1907251 0.4337343 0.00658703 0.2743942 -0.9615947 8412759 male
-2.562835 0.6593165 0.4937296 0.3086404 0.393374 0.8660243 10912885 male
-2.629389 0.06233697 0.4413862 0.1164028 -0.2122022 -0.9702683 9410976 male
-2.702463 0.5103198 0.6057658 -0.01303598 0.3889997 0.9211457 9665658 male
-2.585091 0.6153918 0.4972399 0.6021651 -0.6303306 0.4899801 9269356 male
-2.811125 0.6434978 0.3694416 -0.4631354 0.1023921 -0.8803531 9727331 male
-2.694166 0.1188311 0.5760663 -0.7298505 -0.1382216 0.6694872 4935251 male
-2.757274 0.008046674 0.4679698 0.6624437 -0.3029467 -0.6851217 7495524 male
-2.632233 0.2244188 0.5825222 0.3548845 -0.004081911 0.9349013 7369338 male
-2.851509 0.6079599 0.4788826 0.5788019 -0.1760757 0.7962322 8020832 male
-2.764662 0.9286333 0.3897947 -0.8400636 0.2262909 -0.4930371 1642768 male
-2.803831 -0.1384675 0.4998076 0.8040413 0.06283079 -0.5912443 6836564 male
-2.61113 0.4949749 0.5655074 0.7724516 0.0769523 0.6303943 10651009 male
-2.656579 0.734024 0.4663834 0.9487552 0.2547313 0.1870171 8215123 male
-2.861108 -0.4663017 0.4815134 0.06869284 -0.9975743 0.01125831 5061938 male
-2.84377 0.1109752 0.4474282 -0.7162661 -0.1702788 -0.6767334 6908529 male
-2.60067 -0.4153684 0.4946385 -0.8878213 0.3459578 0.3034577 9464693 male
-2.55684 -0.3017322 0.4843929 0.936745 -0.1996108 0.287514 8085344 male
-2.839923 0.6622773 0.3988075 -0.7046773 0.3604621 -0.6111439 8806228 male
-2.728794 0.03729364 0.4992866 0.9388434 -0.2902796 -0.1852314 5264469 male
-2.560196 -0.4692985 0.460793 0.0002174163 -0.9980617 -0.06223208 4271656 male
-2.550909 0.4832105 0.4175489 -0.9874479 -0.08220629 0.1348654 7755861 male
-2.703513 0.6941085 0.5214316 0.03104316 0.4506469 0.8921623 8609113 male
-2.632574 0.0367578 0.59192 -0.1826916 -0.1597493 0.9701052 7302769 male
-2.554952 -0.4233664 0.4379774 0.8924547 0.05816821 -0.4473712 5914946 male
-2.839036 0.6367722 0.4967767 -0.4213403 -0.2714273 0.8653321 10257537 male
-2.910038 0.4051781 0.4323928 0.7199586 -0.6074233 -0.3357031 6639443 male
-2.807498 0.5134761 0.579888 -0.580209 0.1631559 0.7979584 9730419 male
-2.68387 0.9224948 0.3548628 0.2690915 0.1821256 -0.9457378 2037520 male
-2.585544 0.4692959 0.4393746 0.9152381 -0.2411284 -0.3227947 10055280 male
-2.854891 0.6453387 0.396393 -0.565003 0.2223773 -0.7945564 9200986 male
-2.575961 -0.3332619 0.4999004 0.4380928 -0.1984281 0.876756 7558490 male
-2.832392 0.4971975 0.4054616 -0.7610497 -0.2172135 -0.611246 10252138 male
-3.002181 0.2957709 0.6153111 -0.7419361 0.388032 0.546774 5390147 male
-2.730583 0.9861897 0.4634118 -0.3943166 0.9140182 0.0953159 2693400 male
-2.892247 -0.2624092 0.4753884 -0.944671 -0.1106308 -0.3088001 5324345 male
-2.78722 0.2374431 0.57976 -0.500856 -0.1008239 0.8596382 6119263 male
-2.954084 0.48272 0.4133013 -0.886774 0.01368969 -0.4620006 6176313 male
-2.921636 0.321939 0.6024024 0.9918184 -0.1112596 0.0625902 5588045 male
-2.889767 -0.2512486 0.4667888 -0.8562132 -0.06544801 -0.5124604 4863535 male
-2.565714 0.2208415 0.4785647 0.9537455 -0.001093909 -0.3006133 7239551 male
-2.861773 -0.0975842 0.4923441 -0.5768586 0.1617142 -0.8006764 8083802 male
-2.792952 -0.1076466 0.5583739 0.6828364 -0.326434 0.6535866 6571594 male
-2.631338 0.8847297 0.4236309 0.969749 -0.1801991 -0.1646671 919042 male
-2.831896 0.3246268 0.4391764 -0.7939581 0.06159809 -0.604844 6643551 male
-2.657055 0.7175787 0.4018266 0.2773772 0.5796893 -0.7661737 6638401 male
-2.997145 0.2917625 0.5995839 6.187176E-05 -0.8926607 -0.4507293 5982283 male
-2.585099 0.2044704 0.5638172 0.6120854 0.183933 0.7691035 6776939 male
-2.490883 0.2629474 0.5660844 -0.8464187 -0.2868024 -0.4486869 7817805 male
-2.67616 0.3626717 0.6363919 0.2373312 0.04779736 0.9702522 9268852 male
-2.660599 0.1262456 0.5956307 -0.2662676 0.009372716 0.9638535 5921890 male
-2.873603 -0.1079429 0.5463757 -0.9576986 0.04749956 0.2838258 6966606 male
-2.560662 -0.3316349 0.4673352 0.9649758 -0.243898 -0.09662044 6507338 male
-2.661046 0.9262638 0.5214386 0.708069 0.338019 0.619985 8148563 male
-2.875489 -0.07897474 0.5104408 -0.9585774 0.1056488 -0.264514 8675165 male
-2.610803 -0.08537006 0.5749532 0.2249786 -0.1027003 0.9689362 6307903 male
-2.855077 0.5161222 0.4585989 -0.9954171 -0.09529924 -0.00792529 7162691 male
-2.568657 -0.3799748 0.436955 0.6419033 -0.09168192 -0.7612849 4667447 male
-2.561566 -0.4036691 0.4937205 0.7599599 0.4024054 0.5104222 8808554 male
-2.929053 0.3151186 0.5923621 0.22732 -0.972529 -0.05012949 6112325 male
-2.806882 -0.254865 0.5167136 0.7033181 -0.2372152 0.6701287 6769742 male
-2.504961 0.413866 0.3979093 0.1007815 -0.5543743 -0.826143 7819859 male
-2.617033 0.3842269 0.4105457 0.5860233 -0.04950892 -0.8087803 8674395 male
-2.661498 0.08932833 0.5911196 -0.3985878 -0.1260431 0.9084278 6249823 male
-2.585737 0.2052967 0.4371501 0.8243241 -0.01666493 -0.5658728 7041395 male
-2.655582 0.9672098 0.4047624 0.6335866 0.7145786 -0.2965559 1313800 male
-2.901832 0.6037267 0.424372 -0.7875308 -0.001756522 -0.6162727 7689543 male
-2.671747 0.8759542 0.3615045 0.4460258 -0.2524404 -0.8586821 1380621 male
-2.743144 0.8599781 0.5461722 -0.3711857 0.1481321 0.9166668 8673622 male
-2.811679 -0.06012885 0.4699419 0.2056177 -0.1766492 -0.9625572 9730419 male
-2.882495 -0.1236054 0.520402 -0.9942625 0.106944 -0.002252483 8085084 male
-2.792271 0.2817465 0.5873973 -0.5910636 -0.1374034 0.7948359 6644838 male
-2.777184 0.5010659 0.3682914 -0.2729597 -0.2615153 -0.9257985 9988451 male
-2.873764 -0.01272103 0.5154611 -0.9779109 -0.1160473 -0.1738485 7361103 male
-2.855346 -0.4640419 0.4633909 0.08134393 -0.989008 -0.1234763 5523268 male
-2.729689 0.8594946 0.3617119 -0.3296731 -0.3312502 -0.8840752 2431508 male
-2.672683 0.8817742 0.5354924 0.4213358 0.2998242 0.8559098 8673879 male
-2.687313 0.1038517 0.4433175 -0.6234757 -0.4201706 -0.6593442 6514027 male
-2.713026 0.2048039 0.6142951 0.07245734 0.01918252 0.997187 7170925 male
-2.587995 -0.4646319 0.4460109 -0.4880613 -0.8718123 -0.04170556 5783879 male
-2.514016 0.3889541 0.4161778 -0.2426464 -0.6295193 -0.7381248 10122612 male
-2.725153 0.04338234 0.5162996 0.9728402 -0.2199179 0.0722371 3026479 male
-2.838319 -0.289151 0.5210063 0.254466 -0.2510957 0.9339154 7097670 male
-2.707008 0.4190243 0.3940724 -0.05321797 -0.2865533 -0.9565851 10713969 male
-2.633235 0.6765929 0.5054956 0.4262145 0.6293016 0.6498621 10255731 male
-2.643295 0.03878805 0.589408 -0.3435609 -0.1613341 0.9251688 7105644 male
-2.900439 0.4659876 0.4016573 0.5291053 -0.5246384 -0.6669348 8083028 male
