# .PCD v0.7 - Point Cloud Data file format
VERSION 0.7
FIELDS x y z normal_x normal_y normal_z rgb label
SIZE 4 4 4 4 4 4 4 4
TYPE F F F F F F U U
COUNT 1 1 1 1 1 1 1 1
WIDTH 132
HEIGHT 1
VIEWPOINT 0 0 0 1 0 0 0
POINTS 132
DATA ascii
-2.843579 0.3495935 -0.4385141 -0.5321185 -0.01465421 0.8465431 8414567 male
-2.955578 0.04981186 -0.4974963 -0.9476196 0.04891604 0.315633 8687244 male
-2.71368 0.1034942 -0.4731031 -0.08347479 -0.02581117 0.9961755 6316901 male
-2.951959 -0.003833828 -0.5420098 -0.9381642 -0.09437518 -0.3330783 8281948 male
-2.837038 0.3110104 -0.4386796 -0.4496598 -0.2420951 0.8597651 6379349 male
-2.704976 -0.3639768 -0.6189572 -0.9905945 -0.136333 -0.0116509 7952216 male
-2.896894 0.7076676 -0.6126378 -0.6055391 0.7940153 0.05349831 7558731 male
-2.894135 0.6034614 -0.5090414 -0.6318604 0.04937062 0.7735083 10650497 male
-2.79067 0.8365514 -0.4900454 -0.4552157 0.1085477 0.8837398 6898239 male
-2.648836 0.1635183 -0.5997997 0.9114936 0.03148808 -0.4101071 7040371 male
-2.920769 -0.3481655 -0.5362539 0.8988407 -0.0008810512 0.4382744 8676715 male
-2.727576 0.8301353 -0.6052027 0.9289049 -0.3339522 -0.1600363 6897978 male
-2.716478 0.5809268 -0.7084648 0.2541216 -0.1703849 -0.9520458 10515820 male
-2.793688 0.3101657 -0.4285928 0.001354453 -0.1729829 0.984924 9269620 male
-2.932389 0.2911201 -0.5901793 -0.928975 0.2881822 -0.2322853 7566199 male
-2.902066 -0.09393784 -0.5492427 0.3347019 -0.1285248 -0.9335181 9333869 male
-2.754351 -0.05524882 -0.5881482 -0.8485847 -0.0705336 -0.5243367 8609373 male
-2.994767 0.5738627 -0.5806969 -0.9440286 0.3247116 0.05807284 7560530 male
-2.773507 0.6643265 -0.5178146 0.1199878 0.5090419 0.8523375 8084818 male
-2.918156 0.5052738 -0.5248187 -0.8818516 0.03210511 0.4704329 8677475 male
-2.826516 0.7739886 -0.5509324 -0.7961735 -0.0635671 0.6017201 9529184 male
-2.937413 0.1019945 -0.4770595 -0.7764766 0.1592125 0.6097012 4407875 male
-2.675315 -0.4466604 -0.5079158 0.1466804 0.9095203 0.3889187 13279402 male
-2.624537 0.4798521 -0.6916749 -0.6309065 -0.2576541 -0.7318274 8738908 male
-2.703835 0.01386637 -0.48451 -0.06193824 -0.1823848 0.9812744 7040363 male
-2.798126 0.281611 -0.6625931 -0.06031618 0.3027786 -0.9511504 8817806 male
-2.827367 0.3887154 -0.6631128 0.0475283 -0.2658341 -0.9628465 9332573 male
-2.651176 0.2960535 -0.5616207 0.9231528 0.3262054 0.2034183 10069673 male
-2.680278 0.1587844 -0.4871635 0.4208007 0.2463298 0.8730685 7171957 male
-3.062846 0.2888633 -0.4698096 -0.9415378 0.02253995 0.3361526 6113095 male
-2.877764 0.5948247 -0.6957515 -0.3830128 -0.05986779 -0.921801 10449253 male
-2.672719 0.4421887 -0.5036557 0.846901 0.09147565 0.5238233 11177097 male
-2.986902 -0.1911519 -0.5384002 -0.9827198 0.1222717 -0.1389654 7362903 male
-3.014975 0.2990355 -0.5238041 0.8339067 -0.418239 -0.3601052 6110268 male
-2.86014 0.8559481 -0.590099 -0.6964221 0.3994621 0.5961764 8080716 male
-2.665406 0.5993719 -0.6311377 -0.9555829 -0.27632 0.1025113 6046266 male
-2.927619 0.1977481 -0.4997164 -0.7196014 0.2496423 0.6479604 5856354 male
-2.93013 0.6291617 -0.6381955 0.3303181 -0.4057984 -0.852184 6372152 male
-2.651882 -0.2557947 -0.5576787 0.5587913 -0.2229879 0.798767 6902352 male
-2.763542 0.2637706 -0.6696385 -0.02504476 0.2864802 -0.9577588 8620434 male
-2.796845 0.2058092 -0.6784264 -0.09604287 0.02058337 -0.9951644 8489873 male
-2.56393 0.3127727 -0.6100202 0.7990565 -0.4198636 -0.4303756 6966085 male
-2.720757 0.9117036 -0.6574446 0.8601903 -0.01306953 -0.5098057 1050116 male
-2.770685 0.5028802 -0.4531238 0.1026695 0.3549618 0.929226 9205107 male
-2.858355 0.9231108 -0.5973277 -0.9848204 0.1519519 0.08390087 3614496 male
-2.651404 -0.2494031 -0.6366196 0.6473651 -0.06683486 -0.759244 6046267 male
-2.616373 0.6586728 -0.5967568 0.6382703 0.3835075 0.6674826 11043961 male
-2.734019 0.01255616 -0.6222128 -0.3406442 -0.1504708 -0.9280733 7887450 male
-2.711581 0.4520231 -0.454066 0.5398505 0.1515975 0.8279974 9860981 male
-2.656801 0.5661443 -0.5496013 0.9607167 -0.05259852 0.2725008 9136226 male
-2.895343 0.6416898 -0.6743312 -0.5678471 0.08027554 -0.8192103 9661017 male
-2.720085 0.1121774 -0.4735648 -0.1089538 -0.005042095 0.9940341 5724511 male
-2.939302 0.1854875 -0.579595 -0.9435573 0.1144393 -0.3108107 7500922 male
-2.66409 0.2180878 -0.5139104 0.6400664 0.1250831 0.7580693 6514027 male
-2.915395 0.631579 -0.5790443 -0.08420493 -0.8196844 0.5665925 7690326 male
-2.850228 0.931702 -0.6467634 -0.8982656 0.2371862 -0.369948 1642768 male
-2.891876 -0.1202905 -0.5359102 0.6118295 -0.05916606 -0.7887738 6968146 male
-2.786574 0.5298613 -0.4617447 0.1245857 0.3501897 0.9283564 10257018 male
-2.730936 0.7247087 -0.5781111 0.8954309 0.3040285 0.3252232 8149587 male
-2.972226 -0.4551012 -0.5712444 -0.4022821 -0.8394822 -0.3652928 5260868 male
-2.925679 0.09611662 -0.5996963 -0.6951925 -0.2199694 -0.6843398 6579052 male
-2.685999 -0.4309488 -0.5586055 -0.8221512 0.4660566 0.3268923 11241361 male
-2.65413 -0.3070416 -0.6300359 0.7416302 -0.165594 -0.6500487 5453876 male
-2.904501 0.6949356 -0.5829942 -0.2103209 0.89268 0.3986069 10124919 male
-2.813632 0.03803245 -0.5560256 0.8988541 -0.325693 -0.2932327 5264469 male
-2.626144 -0.4725089 -0.5920963 0.4387412 -0.8065776 -0.3961549 3743770 male
-2.640783 0.4999732 -0.6584641 -0.9789835 -0.1499806 0.1381925 8805212 male
-2.750616 0.6225474 -0.4964053 0.01356032 0.4347164 0.9004653 9729899 male
-2.692829 0.02543474 -0.4816969 0.1045185 -0.1645937 0.9808083 6711406 male
-2.668108 -0.3987094 -0.6459166 0.5472159 -0.003536674 -0.836984 5783360 male
-2.912777 0.6437742 -0.5594555 0.6032429 -0.3219135 0.7297052 8611174 male
-2.983016 0.398837 -0.5916809 0.893229 -0.4292703 -0.1336749 6705749 male
-2.918276 0.5154226 -0.5273164 -0.8895039 0.04020789 0.4551551 9005928 male
-2.774629 0.9279804 -0.6921126 0.1427193 0.2250058 -0.9638483 2037520 male
-2.655577 0.4449125 -0.589433 0.9899825 -0.08711272 -0.1111123 9267560 male
-2.903449 0.6804243 -0.650453 -0.6310278 0.4977642 -0.5950082 8609880 male
-2.6545 -0.3624093 -0.593872 0.9647385 -0.1359257 0.2253972 7690839 male
-2.928584 0.4723666 -0.592521 -0.9815199 -0.1299236 -0.1404935 9727078 male
-3.055509 0.2888533 -0.4220868 -0.1914976 0.7003625 0.6876198 7230807 male
-2.807204 0.9864944 -0.5757869 -0.3839881 0.9046293 0.1849293 2693400 male
-2.984474 -0.2543835 -0.5495993 -0.9733138 -0.1076942 -0.2026378 5324345 male
-2.822819 0.1587407 -0.4631997 -0.06537234 -0.1178899 0.9908726 6513763 male
-3.027053 0.5086834 -0.6043075 -0.9456601 0.3036188 -0.1163725 6046267 male
-2.987527 0.3071804 -0.4449198 0.2222859 -0.9746524 0.02533054 6903384 male
-2.98296 -0.2431753 -0.5583302 -0.9079556 -0.0612588 -0.4145648 4863535 male
-2.64369 0.1893218 -0.5834219 0.9665241 0.04747695 -0.2521449 7698815 male
-2.957059 -0.08760693 -0.5319071 -0.7805144 0.1482124 -0.6073141 8544865 male
-2.873281 -0.09266853 -0.4790726 0.7781923 -0.3137508 0.5440379 5914689 male
-2.716596 0.8815686 -0.6382742 0.9112974 -0.1959241 -0.3621473 1181189 male
-2.915592 0.3375103 -0.6116495 -0.8459086 -0.03680867 -0.5320562 9002592 male
-2.72622 0.7325962 -0.6239837 0.7282436 0.6724046 -0.132413 9726820 male
-3.049646 0.2712455 -0.4183991 0.2564955 -0.7292578 -0.6343446 5849667 male
-2.665703 0.1922799 -0.5078086 0.6336234 0.2263271 0.7397956 6908011 male
-2.557648 0.2616868 -0.5363286 -0.5241967 -0.665013 -0.5319545 10317685 male
-2.712995 0.346048 -0.4458215 0.6453142 -0.05868598 0.7616598 8282214 male
-2.676357 0.1000898 -0.4793375 0.4339855 0.04522759 0.8997839 6711405 male
-2.956544 -0.100898 -0.4826025 -0.9168253 0.06758562 0.3935271 6966606 male
-2.643418 -0.3063235 -0.6011589 0.9804879 -0.1935097 0.0346046 8085859 male
-2.737323 0.9298641 -0.5243341 0.6713985 0.3704791 0.6418484 8674650 male
-2.958264 -0.07846121 -0.5300236 -0.8585722 0.1183847 -0.4988374 8018776 male
-2.651624 -0.1403288 -0.5412518 0.9256727 -0.07691451 0.3704245 8281181 male
-2.931649 0.5503504 -0.6043315 -0.9742731 -0.2253499 -0.003048356 9200986 male
-2.682067 -0.2559868 -0.5554544 -0.1872688 -0.2104198 0.9595071 6902608 male
-2.642388 -0.4075113 -0.601207 0.9897653 0.1083041 0.09292391 9927808 male
-2.990818 0.3079161 -0.4569895 0.2386844 -0.9526972 -0.1881433 5784131 male
-2.895054 -0.2471768 -0.5179195 0.7731171 -0.2422197 0.5861906 6769742 male
-2.588113 0.4218897 -0.698582 0.1346563 -0.5305539 -0.8368872 6833735 male
-2.671836 0.3685501 -0.6372097 0.7782413 0.1254257 -0.615312 8675167 male
-2.774414 0.06931087 -0.5117244 -0.7935528 -0.1915027 0.5775817 5197907 male
-2.703779 0.1639377 -0.6645055 0.5059828 -0.07241061 -0.8594988 6844276 male
-2.740378 0.9708665 -0.6444241 0.5855815 0.7336766 -0.3446924 1313800 male
-2.97461 0.5848734 -0.6175354 -0.682075 -0.03060937 -0.7306413 7360839 male
-2.76148 0.8813397 -0.6891197 0.3321025 -0.2110635 -0.9193259 1380621 male
-2.820852 0.8769856 -0.5076752 -0.4794211 0.2694282 0.8352029 8672848 male
-2.892764 -0.06071695 -0.5659885 0.2409345 -0.2305807 -0.942753 9334893 male
-2.976236 -0.1430364 -0.5274912 -0.9437159 0.2840511 -0.169456 9136741 male
-2.861085 0.3019705 -0.4621082 -0.5628437 -0.1176249 0.8181511 6514791 male
-2.893944 0.5323281 -0.6687237 -0.6248133 -0.2187352 -0.7495087 11107959 male
-2.956903 -0.006702597 -0.5186589 -0.9948341 -0.09127929 -0.04441942 7361103 male
-2.995671 -0.4502099 -0.5376363 -0.840281 -0.1442841 -0.5225991 6703689 male
-2.818796 0.8641894 -0.6821536 -0.4397602 -0.2977415 -0.8473257 2431508 male
-2.75274 0.8889132 -0.5132874 0.2762559 0.3130805 0.9086602 6898496 male
-2.768445 0.1127364 -0.6398656 -0.5009342 -0.5954075 -0.628136 6383469 male
-2.771549 0.2534769 -0.4459666 0.2087848 -0.2026018 0.9567451 8092798 male
-2.671615 -0.4701635 -0.6191041 -0.1772127 -0.9824861 0.05759011 4863801 male
-2.61067 0.374603 -0.6309759 -0.9788411 -0.184063 0.08939239 9138802 male
-2.807595 0.04446056 -0.5399518 0.9675682 -0.2485494 -0.045111 3026479 male
-2.925846 -0.2814211 -0.5103927 0.3565873 -0.2576693 0.8980268 7097670 male
-2.653379 0.3763982 -0.5613118 0.9969507 0.04265793 0.06534177 11372939 male
-2.768853 0.7305238 -0.5363899 0.4030687 -0.09521953 0.9102027 9333349 male
-2.768662 0.04315501 -0.5165941 -0.782871 -0.239161 0.5743822 4867394 male
-2.98622 0.4393445 -0.6358394 0.3984017 -0.5980776 -0.6953987 8346718 male
