# .PCD v0.7 - Point Cloud Data file format
VERSION 0.7
FIELDS x y z normal_x normal_y normal_z rgb label
SIZE 4 4 4 4 4 4 4 4
TYPE F F F F F F U U
COUNT 1 1 1 1 1 1 1 1
WIDTH 132
HEIGHT 1
VIEWPOINT 0 0 0 1 0 0 0
POINTS 132
DATA ascii
-2.86534 0.4798321 -0.4662193 -0.3732663 0.1707948 0.911867 10388349 male
-2.962923 0.04403431 -0.4890923 -0.8487618 0.05194229 0.5262179 5331545 male
-2.725129 0.1055318 -0.4862581 -0.06086078 -0.003446756 0.9981403 6316901 male
-2.969425 0.0380138 -0.5482515 -0.9631149 -0.0562137 -0.2631533 7632505 male
-2.850615 0.3299841 -0.448741 -0.4652333 -0.1152207 0.8776572 8479336 male
-2.712589 -0.3634485 -0.6238142 -0.9890172 -0.1472808 0.01238328 7952216 male
-2.906929 0.7048421 -0.6489706 -0.6174493 0.6345605 -0.464854 7492681 male
-2.892144 0.5986967 -0.5055363 -0.4484262 0.2581898 0.8557172 10782074 male
-2.812488 0.8344741 -0.5056443 -0.5151743 0.1037233 0.8507861 6832446 male
-2.664006 0.163348 -0.6154907 0.9014959 0.03471489 -0.4313931 7040371 male
-2.933139 -0.352652 -0.5458507 0.9774051 0.008989643 0.2111837 7097939 male
-2.745718 0.8132129 -0.5986228 0.9517775 -0.3029638 -0.04829618 7160636 male
-2.738032 0.5672632 -0.7209904 0.1849595 -0.2449483 -0.9517301 10975605 male
-2.805504 0.3102658 -0.4428919 0.02485694 -0.1674398 0.9855689 9269620 male
-2.949734 0.2901431 -0.5854936 -0.9563828 0.290897 -0.02666434 9342869 male
-2.923943 -0.07432073 -0.5636247 0.09107695 -0.1812345 -0.9792135 9203051 male
-2.768558 -0.04369531 -0.594637 -0.8895927 -0.135139 -0.4363052 8544092 male
-3.011496 0.5720089 -0.5864386 -0.9395491 0.3314729 0.08586718 7560530 male
-2.789395 0.6689907 -0.5345145 0.1373692 0.5090972 0.8496763 7689807 male
-2.891295 0.505997 -0.4851946 -0.5709041 0.08890057 0.8161894 9664370 male
-2.842328 0.772535 -0.5613207 -0.7790213 -0.07242981 0.6228 9529184 male
-2.94999 0.1030871 -0.4847235 -0.7628857 0.174306 0.6225935 4407875 male
-2.680058 -0.446062 -0.5135418 0.1439662 0.9120389 0.3840037 13279402 male
-2.640992 0.4673458 -0.7117388 -0.6804956 -0.3568419 -0.6399919 9528936 male
-2.71397 0.01583304 -0.4955829 -0.03795743 -0.1602891 0.98634 7040363 male
-2.82061 0.2813278 -0.675408 -0.08715101 0.2967075 -0.9509833 8489098 male
-2.862662 0.4182404 -0.6827539 -0.2270193 -0.2527935 -0.9405093 11042678 male
-2.674097 0.3095812 -0.5630555 0.9445409 0.05984975 0.3228939 7889763 male
-2.692953 0.1607118 -0.5023062 0.4366798 0.2712926 0.8577361 7171957 male
-3.079196 0.2868273 -0.4745037 -0.9344766 0.02832853 0.3548957 6113095 male
-2.896531 0.6045886 -0.7062476 -0.4241838 0.03537688 -0.9048848 10843499 male
-2.686611 0.4437502 -0.5217106 0.8600572 0.09098943 0.5020184 10980230 male
-2.963482 -0.1847581 -0.5799128 -0.2181047 0.2364413 -0.9468505 7953235 male
-3.03243 0.2972074 -0.5293082 0.8224714 -0.4215652 -0.3818685 6110268 male
-2.8773 0.8652347 -0.6028373 0.2432878 0.3558595 0.9023165 6502714 male
-2.682561 0.5983521 -0.6463684 -0.9512435 -0.2833019 0.1219666 6046266 male
-2.940399 0.197935 -0.509205 -0.7058328 0.2610781 0.6585122 5856354 male
-2.950902 0.6039196 -0.6407369 0.289503 -0.3429233 -0.8936395 4925730 male
-2.659188 -0.2545502 -0.5641984 0.5800695 -0.2147915 0.7857378 6902352 male
-2.80488 0.2752776 -0.6785415 -0.08015312 0.296151 -0.951772 8685454 male
-2.796867 0.2047203 -0.6937298 -0.1363365 0.02903984 -0.9902369 9147030 male
-2.57574 0.3132164 -0.6172827 0.9639724 -0.2543146 -0.07798301 6769994 male
-2.739702 0.9118794 -0.6687288 0.8440341 -0.00539487 -0.5362624 1050116 male
-2.840811 0.6103801 -0.4945256 0.04304383 0.4516484 0.891157 9400430 male
-2.875319 0.9224221 -0.6041565 -0.9814886 0.1513843 0.1173151 3614496 male
-2.649618 -0.2487484 -0.6313645 0.8372235 -0.07393207 -0.5418402 5521212 male
-2.639546 0.649255 -0.6083102 0.4208858 0.03859055 0.9062924 11701637 male
-2.747014 0.01072452 -0.6327232 -0.3577748 -0.1769225 -0.9168946 7887450 male
-2.837463 0.6359843 -0.5107486 0.01106436 0.5734676 0.8191535 8808545 male
-2.668849 0.5400999 -0.5786589 0.9764805 -0.006645342 0.2155031 7688782 male
-2.920525 0.6492444 -0.6772228 -0.6191814 0.1518895 -0.7704181 9332567 male
-2.73169 0.1140606 -0.486773 -0.08664151 0.0167495 0.9960988 5724511 male
-2.953714 0.1843688 -0.5887686 -0.9500629 0.1094565 -0.2922323 7500922 male
-2.677886 0.2191067 -0.5302618 0.6551647 0.1423824 0.7419477 6514027 male
-2.931478 0.629618 -0.5881157 -0.06740269 -0.8236997 0.5630059 7690326 male
-2.868717 0.9318504 -0.6536634 -0.9087703 0.2447009 -0.3380208 1642768 male
-2.933197 -0.05194978 -0.5731012 -0.3003621 -0.1684234 -0.9388376 8807781 male
-2.799623 0.5279635 -0.4755456 0.1471673 0.3421867 0.9280356 10257018 male
-2.747507 0.7238428 -0.5916719 0.9031688 0.3018678 0.3052244 8149587 male
-2.997753 -0.4412317 -0.5724983 -0.8703752 -0.0794486 -0.4859372 7033170 male
-2.8537 -0.0003305288 -0.5750278 0.7157913 -0.3852751 -0.582414 7164500 male
-2.691648 -0.430292 -0.5634296 -0.8200191 0.4566022 0.3450842 11241361 male
-2.662595 -0.3059777 -0.636331 0.7274737 -0.1590638 -0.6674434 5453876 male
-2.914533 0.7034756 -0.6389022 -0.6547394 0.6978194 -0.2904554 7360836 male
-2.833515 0.07231529 -0.6058209 0.6654571 -0.3676387 -0.6496219 4015947 male
-2.632041 -0.4711143 -0.5981336 0.4391855 -0.8011423 -0.4065551 3743770 male
-2.657956 0.4990718 -0.6744404 -0.9797692 -0.1645925 0.1138489 8805213 male
-2.764699 0.6093482 -0.5045391 -0.02474878 0.3919432 0.9196565 9532264 male
-2.703102 0.02765753 -0.4932937 0.1282456 -0.1396149 0.9818659 6711406 male
-2.644463 -0.4558936 -0.6404512 0.9028658 0.003681641 -0.4299068 7031114 male
-2.930768 0.6480975 -0.5520262 -0.07317162 -0.001393544 0.9973184 10454142 male
-3.001023 0.397159 -0.596941 0.8867987 -0.4352663 -0.1553427 6705749 male
-2.928793 0.5183212 -0.5312495 -0.853792 0.0345531 0.5194664 9664370 male
-2.794569 0.928822 -0.7014014 0.113124 0.2413194 -0.9638298 2037520 male
-2.671617 0.4445157 -0.6070564 0.9872212 -0.08361495 -0.1356572 9267560 male
-2.925919 0.6964923 -0.6261601 -0.6508634 0.7487561 -0.1254633 8347218 male
-2.661532 -0.3612485 -0.5999948 0.9711703 -0.1250871 0.2029322 7690839 male
-2.933642 0.4964426 -0.6454869 -0.8626133 -0.1949755 -0.4667793 9989994 male
-3.068839 0.2854338 -0.4261695 0.06804454 0.7513768 0.6563557 7428696 male
-2.823427 0.9853557 -0.5831512 -0.3767339 0.9016868 0.2122083 2693400 male
-2.981951 -0.2312857 -0.4966132 -0.5373574 -0.2093486 0.8169579 6113092 male
-2.868221 0.240801 -0.4857785 -0.3685566 -0.06786338 0.9271249 6119263 male
-3.053496 0.4841517 -0.6113337 -0.9690138 0.2449093 0.03212168 5126189 male
-2.997947 0.3097354 -0.4554483 0.9523011 -0.1992267 -0.2311523 5783106 male
-2.998001 -0.2404976 -0.5594773 -0.9143113 -0.05688286 -0.4009978 4863535 male
-2.658762 0.1894353 -0.5996639 0.9600187 0.05345241 -0.2747852 7698815 male
-2.971821 -0.08667598 -0.5332766 -0.7919567 0.1473638 -0.5925272 8544865 male
-2.898603 -0.08291966 -0.465682 0.5844385 -0.2368016 0.7761164 5519420 male
-2.731616 0.8731477 -0.6340448 0.8275769 -0.2259565 0.5138679 2363921 male
-2.919394 0.3344164 -0.6381556 -0.7041972 -0.05839718 -0.7075987 8742244 male
-2.744021 0.7322599 -0.6375672 0.7232857 0.6754655 -0.1435418 9726820 male
-3.063992 0.2686159 -0.4232976 0.4162822 -0.6538491 -0.6318151 6507340 male
-2.679259 0.1936609 -0.5239042 0.6469318 0.247163 0.7213805 6908011 male
-2.569643 0.2614096 -0.5459644 -0.5131952 -0.6598971 -0.5487864 10120821 male
-2.725321 0.345839 -0.4622332 0.6631007 -0.05458808 0.7465371 8282214 male
-2.687936 0.1025863 -0.4932667 0.4528915 0.0737128 0.8885131 6711405 male
-2.978909 -0.1099609 -0.4938495 -0.9476932 0.05604105 0.3142244 7361876 male
-2.651209 -0.3050764 -0.6077425 0.9830766 -0.1828206 0.01170852 8085859 male
-2.738739 0.9144399 -0.5489637 0.9124309 0.1762209 0.3693454 8806234 male
-2.972939 -0.07770319 -0.5318182 -0.8678442 0.1168746 -0.4828942 8018776 male
-2.659962 -0.1390391 -0.548632 0.9348725 -0.06165116 0.3495891 8281181 male
-2.94541 0.5355871 -0.5853243 -0.9597393 -0.05255624 0.2759319 8411986 male
-2.689306 -0.2550684 -0.561249 -0.1618671 -0.209927 0.9642249 6902608 male
-2.649158 -0.4062791 -0.6071782 0.9903464 0.119414 0.07038594 9927808 male
-3.011028 0.3052045 -0.4647399 -0.06027691 -0.9948255 -0.08178587 5259072 male
-2.90568 -0.2430745 -0.5258055 0.8703676 -0.2410399 0.4293716 7164244 male
-2.596344 0.4168288 -0.7097351 0.3264281 -0.5134503 -0.7936078 6900296 male
-2.676253 0.3660226 -0.6348923 0.8970571 0.1385249 -0.4196419 8082772 male
-2.786052 0.06943069 -0.5226899 -0.777928 -0.190064 0.5989187 5197907 male
-2.707657 0.178357 -0.6708577 0.6237727 -0.03228526 -0.7809387 6514027 male
-2.774297 0.9880555 -0.6200979 0.3935927 0.9132183 -0.1054381 4731947 male
-2.992404 0.5828084 -0.6239395 -0.7037139 -0.02684459 -0.7099761 7360839 male
-2.781419 0.8821177 -0.6996244 0.303117 -0.1957074 -0.9326407 1380621 male
-2.830927 0.8572543 -0.5103398 -0.4574864 0.0977634 0.8838261 8804180 male
-2.962059 -0.01880391 -0.5548816 -0.8908495 -0.08605936 -0.4460727 8150619 male
-2.983434 -0.1150347 -0.5066018 -0.9849222 0.1172451 0.1272078 8085084 male
-2.876139 0.3076265 -0.4748126 -0.5707021 -0.11005 0.8137494 6646120 male
-2.88381 0.5048945 -0.6937617 -0.4133638 -0.2265062 -0.8819441 9988451 male
-2.970451 -0.008467474 -0.5111734 -0.9832498 -0.08850063 0.1593348 8940649 male
-2.972192 -0.4557147 -0.5572565 0.04498028 -0.9978939 -0.04674083 5457213 male
-2.8385 0.8649033 -0.6911796 -0.4661413 -0.282997 -0.8382273 2431508 male
-2.744606 0.8812982 -0.5385054 0.7605367 0.2553901 0.5969589 7885642 male
-2.783818 0.1102545 -0.6520523 -0.5085172 -0.6123146 -0.6053769 6383469 male
-2.780231 0.2066837 -0.4656233 0.4171644 0.008626622 0.9087901 7566715 male
-2.678052 -0.4692119 -0.6240506 -0.1642972 -0.9846252 0.05932587 4863801 male
-2.618969 0.3561514 -0.6151342 -0.9584342 0.09533108 0.2689162 9730427 male
-2.817422 0.07461932 -0.5741837 0.9484796 -0.1853625 -0.2569576 6316904 male
-2.954199 -0.3178649 -0.5184416 0.2736433 -0.1686892 0.9469231 7690331 male
-2.812657 0.4683554 -0.6943068 -0.2072643 -0.2498772 -0.9458346 10780530 male
-2.836491 0.7306058 -0.5575526 -0.634906 -0.06226051 0.7700766 10845555 male
-2.779369 0.026817 -0.5330281 -0.8105388 -0.2497097 0.5297847 4998464 male
-3.004798 0.4380971 -0.640811 0.3785275 -0.5949271 -0.709069 8346718 male
