# .PCD v0.7 - Point Cloud Data file format
VERSION 0.7
FIELDS x y z normal_x normal_y normal_z rgb label
SIZE 4 4 4 4 4 4 4 4
TYPE F F F F F F U U
COUNT 1 1 1 1 1 1 1 1
WIDTH 132
HEIGHT 1
VIEWPOINT 0 0 0 1 0 0 0
POINTS 132
DATA ascii
-2.866223 0.4538077 -0.4726251 -0.4002967 0.11288 0.9094067 9598321 male
-2.966146 0.04496382 -0.4934757 -0.8334508 0.0767026 0.5472444 5331545 male
-2.727837 0.1032237 -0.4989623 -0.04575541 0.004776987 0.9989412 6316901 male
-2.97432 0.03753004 -0.5522025 -0.9703634 -0.05000418 -0.2364203 7632505 male
-2.852509 0.3293428 -0.4604243 -0.4620557 -0.1021383 0.8809497 8151396 male
-2.72357 -0.349169 -0.6313058 -0.9768853 -0.1809457 0.1138147 7624019 male
-2.911716 0.6851993 -0.5845755 -0.008450946 0.7856776 0.6185784 8677731 male
-2.898453 0.6138929 -0.5264755 -0.3800058 0.259715 0.8877746 10518902 male
-2.811087 0.8281884 -0.5075393 -0.5043967 0.07325485 0.8603591 6766654 male
-2.668724 0.1598887 -0.6294535 0.8945351 0.0307349 -0.4459399 7040371 male
-2.942727 -0.3423636 -0.5430244 0.9142514 -0.02063981 0.4046214 8676715 male
-2.744936 0.8093879 -0.6015951 0.9478091 -0.3119998 -0.06568118 7160636 male
-2.740579 0.5666638 -0.7304089 0.1766734 -0.2249182 -0.9582267 10975605 male
-2.811625 0.3147084 -0.4534931 0.0376943 -0.1743612 0.98396 9532021 male
-2.949049 0.2810082 -0.5624701 -0.8834753 0.3350492 0.3274346 7896192 male
-2.93089 -0.0746595 -0.5634749 0.06419861 -0.1918393 -0.9793244 9203051 male
-2.76785 -0.03835896 -0.6152803 -0.7952228 -0.1743122 -0.5807201 9202027 male
-3.013852 0.5719387 -0.5908244 -0.9328013 0.3474331 0.09577042 7560530 male
-2.788489 0.6584482 -0.5374992 0.1523091 0.4802984 0.8637797 8084818 male
-2.905006 0.5021315 -0.5068171 -0.680286 0.0393512 0.7318897 9730932 male
-2.849361 0.7734805 -0.5750777 -0.8644603 -0.05873322 0.4992583 9002839 male
-2.916522 0.126206 -0.4739397 -0.3068238 0.2428166 0.9202713 6513252 male
-2.692158 -0.4509479 -0.5219687 0.1134572 0.9113708 0.3956396 15320781 male
-2.6461 0.5694944 -0.6987139 0.08285744 -0.2175957 -0.9725158 8148306 male
-2.716733 0.01338153 -0.5076084 -0.0239472 -0.1530353 0.9879306 7040363 male
-2.761177 0.2568364 -0.6977423 0.03495869 0.2585368 -0.9653686 8553867 male
-2.886876 0.4613711 -0.6942107 -0.4508356 -0.2212362 -0.8647553 9856869 male
-2.666222 0.2815962 -0.6154856 0.9268193 0.3539649 -0.1253594 6712175 male
-2.695945 0.1581395 -0.5159526 0.4502411 0.2775186 0.8486851 7171957 male
-3.052764 0.3152527 -0.4716554 -0.4674403 0.6403586 0.609459 6309194 male
-2.893768 0.631685 -0.7109923 -0.4449376 0.2381821 -0.8633075 10186850 male
-2.688532 0.4364821 -0.5335045 0.8652816 0.0763152 0.495443 11177097 male
-2.971343 -0.1806347 -0.5770862 -0.2355341 0.2619553 -0.9358969 7953235 male
-3.035264 0.3053153 -0.5262884 0.8106681 -0.4026823 -0.4250461 6702917 male
-2.875561 0.8579735 -0.6008945 -0.33064 0.3725147 0.8671275 6305844 male
-2.684686 0.6087601 -0.6563781 -0.9569432 -0.2796806 0.07770716 6177596 male
-2.960319 0.1465152 -0.6024657 -0.9391462 0.02611927 -0.3425234 7172469 male
-2.964594 0.5587239 -0.6323646 0.3122905 -0.5481564 -0.7758861 8280406 male
-2.679421 -0.242361 -0.5674694 0.1241727 -0.2069722 0.9704348 6572875 male
-2.811588 0.2836391 -0.687558 -0.09142287 0.2914494 -0.9522075 8356231 male
-2.813683 0.21732 -0.7031881 -0.1306341 0.1087741 -0.9854456 8949136 male
-2.580232 0.336006 -0.6417755 0.8117803 -0.3648858 -0.4559288 7164492 male
-2.738201 0.9107165 -0.6677673 0.8409549 0.006372134 -0.5410677 1050116 male
-2.763005 0.4827107 -0.4755988 0.1942525 0.3074361 0.9315304 9730935 male
-2.873309 0.9202155 -0.6019935 -0.9789935 0.157661 0.129285 3614496 male
-2.654394 -0.2508627 -0.6428748 0.8289838 -0.07204448 -0.5546128 5521212 male
-2.640602 0.6458517 -0.6158855 0.4130421 0.0226215 0.9104309 11701637 male
-2.713001 0.05464192 -0.6523947 0.2623496 -0.163646 -0.9509956 7304576 male
-2.862911 0.6411555 -0.5285423 -0.1074213 0.5578983 0.8229278 9466219 male
-2.67366 0.560789 -0.5762973 0.9685802 -0.06722341 0.2394438 9136226 male
-2.919043 0.662081 -0.6811476 -0.6174934 0.3201625 -0.7184691 9529945 male
-2.693488 0.0937838 -0.5048558 0.3998502 0.04802491 0.9153214 7237746 male
-2.958414 0.1479867 -0.6066478 -0.9301086 0.01459557 -0.3669946 7106676 male
-2.681015 0.2160286 -0.5443506 0.6672801 0.1428617 0.7309773 6514027 male
-2.932697 0.6279864 -0.5944661 -0.07389504 -0.8294567 0.5536617 7690326 male
-2.866874 0.9315325 -0.6511171 -0.9076102 0.2683396 -0.3228585 1642768 male
-2.931355 -0.061583 -0.5720461 -0.0763524 -0.2104426 -0.97462 9598833 male
-2.800603 0.5227515 -0.4853677 0.1583582 0.3222773 0.933306 10257018 male
-2.747731 0.720121 -0.5974284 0.907501 0.2839263 0.3095606 8149587 male
-3.007507 -0.4397101 -0.5720897 -0.8776473 -0.2141233 -0.4288198 6901584 male
-2.862913 0.001156954 -0.5881776 0.6240845 -0.4027033 -0.6695884 7495008 male
-2.697174 -0.4271425 -0.5845371 -0.7924189 0.4650395 0.3947285 8674667 male
-2.681532 -0.3155353 -0.6579937 0.354918 -0.1223151 -0.9268615 4863025 male
-2.916895 0.6995979 -0.6129379 -0.3559687 0.8937105 0.2730711 9730674 male
-2.839301 0.06873053 -0.6152046 0.6452307 -0.3900738 -0.6569017 4015947 male
-2.638614 -0.4734033 -0.6132314 0.434095 -0.7984189 -0.4172395 3743770 male
-2.649017 0.4981591 -0.6748693 -0.7543852 -0.002869961 0.6564257 8282973 male
-2.765267 0.6158938 -0.5182418 0.04558837 0.4049549 0.9131994 9729899 male
-2.70584 0.02524463 -0.5055775 0.1423207 -0.1321889 0.9809541 6711406 male
-2.651331 -0.4578089 -0.6551996 0.8983101 0.006567147 -0.4393128 7031114 male
-2.932479 0.6449337 -0.562823 0.05052038 -0.1588457 0.98601 10322812 male
-3.019788 0.3823897 -0.5431358 0.8735169 0.2767046 0.4005033 7427666 male
-2.941135 0.5079722 -0.5638525 -0.9298643 0.02458211 0.3670805 6308929 male
-2.793033 0.9295751 -0.6993866 0.110535 0.2782888 -0.954116 2037520 male
-2.674439 0.4409795 -0.6197205 0.9850627 -0.08871964 -0.1475819 9267560 male
-2.925087 0.6923915 -0.6487422 -0.6500115 0.6500689 -0.3935675 7688775 male
-2.659862 -0.3089599 -0.6017137 0.8782336 -0.2041023 0.4324906 7690585 male
-2.942311 0.4729641 -0.6356332 -0.9346223 -0.1708664 -0.311907 9727075 male
-3.078719 0.2984711 -0.4386533 -0.9335226 0.0219974 0.357843 5192510 male
-2.820588 0.9816728 -0.5788247 -0.3649722 0.8967458 0.2502843 2693400 male
-3.006903 -0.2481763 -0.5493178 -0.9800431 -0.09807027 -0.1729095 5324345 male
-2.84922 0.1647267 -0.4864101 0.02896972 0.08744644 0.9957479 7039339 male
-3.054884 0.4944293 -0.6174445 -0.9503545 0.3110534 0.008487624 5783095 male
-2.999287 0.3194548 -0.4504955 0.9767674 0.03030642 -0.2121485 5323070 male
-3.005673 -0.2366194 -0.5575589 -0.9220271 -0.04256997 -0.3847777 4863535 male
-2.663147 0.1860037 -0.6138556 0.9556354 0.04965479 -0.2903367 7698815 male
-2.981378 -0.06971686 -0.522174 -0.98059 0.1299876 -0.1467867 8543323 male
-2.902654 -0.07161739 -0.4672861 0.5680661 -0.1685318 0.8055421 5583924 male
-2.730375 0.870544 -0.634735 0.8223045 -0.2563125 0.5080544 2363921 male
-2.935396 0.3183412 -0.6306608 -0.8649594 0.1752084 -0.4702631 6840932 male
-2.744385 0.7298614 -0.6430645 0.7293527 0.6721224 -0.1276562 9726820 male
-3.073423 0.2856512 -0.4280618 -0.2789429 -0.8607615 -0.4257706 5918030 male
-2.682531 0.1907763 -0.538009 0.6586398 0.2499692 0.7097245 6908011 male
-2.605023 0.2744782 -0.5701626 -0.9005639 -0.3445268 -0.2651151 6898503 male
-2.711771 0.297415 -0.508157 0.7581739 -0.1715409 0.6290835 7894140 male
-2.711763 0.09731477 -0.500158 0.1407568 0.02144107 0.989812 7632250 male
-2.98459 -0.1086885 -0.4906487 -0.9410626 0.06088711 0.3327071 7361876 male
-2.656008 -0.3074455 -0.6199281 0.9820508 -0.1885709 -0.004139291 8085859 male
-2.73655 0.9084867 -0.5480117 0.9162368 0.1516146 0.3708412 8806234 male
-2.96504 -0.0732169 -0.5461265 -0.6953303 0.03980722 -0.7175871 7689556 male
-2.668734 -0.131975 -0.5503021 0.8907714 -0.100375 0.4432282 9463143 male
-2.942517 0.5359311 -0.5742622 -0.9320428 0.02551382 0.3614487 7165266 male
-2.692604 -0.2788273 -0.5775788 -0.1444266 -0.2371656 0.9606735 5520188 male
-2.655178 -0.4086014 -0.6211172 0.9915489 0.1151876 0.05968678 9927808 male
-3.017419 0.3130056 -0.4673689 -0.01474006 -0.9855241 0.1688935 6113355 male
-2.912707 -0.2404405 -0.5257204 0.8775122 -0.2558094 0.4056278 7164244 male
-2.601221 0.3843702 -0.7037704 0.1498171 -0.6441821 -0.7500561 7952472 male
-2.692743 0.3649816 -0.6682745 0.7554177 0.127717 -0.6426761 8675167 male
-2.767428 0.07428993 -0.5137275 -0.4799754 -0.1752938 0.8595905 4935244 male
-2.765077 0.1410412 -0.6994056 0.02835428 -0.3241432 -0.945583 8358288 male
-2.771633 0.9852819 -0.6159121 0.4036855 0.912128 -0.07113601 4731947 male
-2.995542 0.6126094 -0.6266596 -0.8344851 -0.04872314 -0.5488722 7887439 male
-2.780422 0.8826919 -0.6995511 0.2957342 -0.1617741 -0.9414725 1380621 male
-2.829169 0.8508652 -0.5111306 -0.4513792 0.06818032 0.8897237 8804180 male
-2.962599 -0.0149759 -0.567423 -0.8385288 -0.1156472 -0.5324428 8545121 male
-2.997624 -0.1385895 -0.5232452 -0.9480547 0.291893 -0.1264547 9136741 male
-2.875078 0.2871395 -0.4896005 -0.4780952 -0.09194211 0.8734825 6579560 male
-2.865903 0.4951175 -0.7093782 -0.1990612 -0.2182553 -0.9553739 10975857 male
-2.974969 -0.007960395 -0.51368 -0.9796875 -0.0718286 0.1872246 8940649 male
-3.019461 -0.4469491 -0.5417724 -0.8235738 -0.1685578 -0.5415851 6375495 male
-2.837651 0.8657779 -0.6914826 -0.4739151 -0.2442336 -0.8460227 2431508 male
-2.738731 0.8730816 -0.5427642 0.8132783 0.2127203 0.5415981 8278604 male
-2.789262 0.1065277 -0.6638837 -0.5208723 -0.6156237 -0.5913541 6383469 male
-2.7851 0.2513384 -0.4725721 0.247461 -0.1922836 0.9496263 8092798 male
-2.684843 -0.4712135 -0.6386296 -0.1644949 -0.9849616 0.05284069 4863801 male
-2.623016 0.3633478 -0.6310041 -0.9513278 0.1305133 0.2791805 9729395 male
-2.822447 0.07148954 -0.5840129 0.9396484 -0.2024454 -0.2758202 6316904 male
-2.946875 -0.276897 -0.5134997 0.3878108 -0.2972745 0.8724853 7097670 male
-2.81623 0.4671094 -0.7052041 -0.2191201 -0.2325744 -0.9475735 10780530 male
-2.836402 0.726755 -0.5626757 -0.631368 -0.07861204 0.7714886 10845555 male
-2.782697 0.02403682 -0.5442952 -0.8028804 -0.2457436 0.5431327 4998464 male
-2.996118 0.5228934 -0.6292843 -0.05999288 -0.3116997 -0.9482849 8016969 male
