# .PCD v0.7 - Point Cloud Data file format
VERSION 0.7
FIELDS x y z normal_x normal_y normal_z rgb label
SIZE 4 4 4 4 4 4 4 4
TYPE F F F F F F U U
COUNT 1 1 1 1 1 1 1 1
WIDTH 132
HEIGHT 1
VIEWPOINT 0 0 0 1 0 0 0
POINTS 132
DATA ascii
-2.872618 0.4550461 -0.4769593 -0.382338 0.1164853 0.9166508 9598321 male
-2.970395 0.04467553 -0.4937727 -0.8202816 0.06889005 0.567796 5331545 male
-2.733623 0.1046057 -0.5038593 -0.02720532 0.009764432 0.9995822 6316901 male
-2.979993 0.03730464 -0.5522597 -0.9755581 -0.05703146 -0.2122117 7632505 male
-2.857989 0.330758 -0.4640727 -0.4433975 -0.09831057 0.8909173 8151396 male
-2.726988 -0.3645137 -0.6393728 -0.9886156 -0.1441778 0.04303414 7952216 male
-2.90887 0.6936419 -0.678467 -0.5215217 0.5814323 -0.6244609 7885638 male
-2.912521 0.6139951 -0.5349628 -0.415357 0.1479363 0.8975486 10321532 male
-2.831426 0.8651892 -0.518833 -0.2674531 0.2699592 0.9249816 8673106 male
-2.677006 0.1607293 -0.6357829 0.8857106 0.02905977 -0.4633274 7040371 male
-2.944371 -0.3490835 -0.5518088 0.9875305 0.004924792 0.1573507 7097939 male
-2.754458 0.8101875 -0.6100748 0.9461692 -0.3129983 -0.08243732 7160636 male
-2.741413 0.5960083 -0.7377162 0.3557586 -0.01143779 -0.9345078 10648171 male
-2.816919 0.3163066 -0.4578952 0.05843096 -0.1678239 0.9840838 9532021 male
-2.956488 0.2814023 -0.5637105 -0.8777601 0.3331915 0.3442684 7896192 male
-2.930723 -0.07678796 -0.563495 0.1393157 -0.2074582 -0.9682728 9136748 male
-2.772732 -0.0502368 -0.6197733 -0.7666652 -0.1351803 -0.6276549 9005159 male
-3.024351 0.5672293 -0.5996645 -0.9536503 0.2952843 -0.0579508 5980722 male
-2.782143 0.6469895 -0.5403073 0.2045531 0.4656499 0.8610042 8610905 male
-2.912238 0.5030658 -0.5106521 -0.6655954 0.04108796 0.7451809 9730932 male
-2.858296 0.7745181 -0.5811685 -0.8539954 -0.05456184 0.5174116 9002839 male
-2.920979 0.1263108 -0.475228 -0.2859726 0.2387336 0.9280226 6513252 male
-2.698614 -0.4495406 -0.5261386 0.118456 0.9138101 0.3884833 15320781 male
-2.659593 0.5558379 -0.7051459 -0.1592904 -0.3015392 -0.9400536 10384235 male
-2.722821 0.0147209 -0.5122174 -0.005663354 -0.1478842 0.9889885 7040363 male
-2.771289 0.2571177 -0.7027795 0.01419076 0.2531438 -0.9673245 8553867 male
-2.897726 0.4612765 -0.6980801 -0.4672605 -0.2279865 -0.8542188 9856869 male
-2.673676 0.2825542 -0.6016487 0.9310914 0.342979 0.124235 7830915 male
-2.702002 0.1594656 -0.5217374 0.4662435 0.2814911 0.8386774 7171957 male
-3.086525 0.2892881 -0.4796808 -0.9161962 0.03092046 0.3995355 6113095 male
-2.909102 0.6255227 -0.7153854 -0.4923696 0.1903761 -0.849311 10252643 male
-2.696119 0.4379888 -0.5412707 0.8747691 0.08212484 0.4775296 11177097 male
-2.976805 -0.1805752 -0.5778215 -0.2685229 0.264832 -0.9261531 7953235 male
-3.045209 0.306243 -0.5434625 0.6698533 -0.3644279 -0.6469072 4532260 male
-2.874161 0.8485365 -0.5843093 -0.9694547 -0.08502032 0.2300633 7359047 male
-2.693939 0.5962463 -0.6637143 -0.9522617 -0.2792873 0.1232733 6046266 male
-2.968094 0.1465482 -0.602734 -0.9472391 0.0201734 -0.3198924 7172469 male
-2.973942 0.5600975 -0.6373653 0.299032 -0.5318385 -0.7922927 8280406 male
-2.670654 -0.2564647 -0.5799083 0.6042846 -0.2257653 0.7641138 6902352 male
-2.821586 0.2837978 -0.691712 -0.1119195 0.2855026 -0.9518205 8356231 male
-2.823745 0.2174215 -0.7069335 -0.151062 0.1027917 -0.9831654 8949136 male
-2.58858 0.3194285 -0.6398011 0.9396099 -0.2857421 -0.1883737 7163465 male
-2.749037 0.9108816 -0.677295 0.8295901 0.0009161918 -0.5583721 1050116 male
-2.854059 0.6181663 -0.5143864 -0.01246891 0.5061004 0.8623844 9532011 male
-2.882757 0.9210694 -0.6088386 -0.9760469 0.1594588 0.1480049 3614496 male
-2.663238 -0.2500035 -0.6473024 0.8187016 -0.07204773 -0.5696813 5521212 male
-2.651171 0.6513671 -0.6228447 0.48475 0.1562637 0.8605806 11504774 male
-2.721706 0.05525931 -0.6572677 0.2443547 -0.1688298 -0.9548755 7304576 male
-2.864666 0.633716 -0.5266 -0.07844678 0.5684882 0.8189428 9401454 male
-2.679693 0.5367998 -0.5978344 0.9818813 -0.01816668 0.1886243 7688782 male
-2.932347 0.6741189 -0.675598 -0.6502756 0.4571511 -0.6067573 8805970 male
-2.740172 0.1131207 -0.5042595 -0.05278946 0.02990921 0.9981576 5724511 male
-2.966298 0.1480336 -0.6069649 -0.9386936 0.008720836 -0.3446422 7106676 male
-2.687687 0.2173527 -0.5507326 0.6814453 0.1481135 0.716725 6514027 male
-2.943256 0.6204169 -0.5972379 -0.3041634 -0.7372306 0.603304 7690068 male
-2.877333 0.9319308 -0.6581882 -0.9139944 0.265902 -0.3064482 1642768 male
-2.936799 -0.06141636 -0.5734141 -0.1005503 -0.2082454 -0.9728944 9598833 male
-2.799116 0.531468 -0.4960232 0.157179 0.3271113 0.9318224 10059382 male
-2.758605 0.7249525 -0.6066997 0.9494416 0.2199995 0.2239662 8412502 male
-3.009892 -0.4370281 -0.5791545 -0.8971407 -0.07000688 -0.4361623 7033170 male
-2.869218 0.001869828 -0.591034 0.6104352 -0.3965099 -0.6856739 7495008 male
-2.705184 -0.4261345 -0.5884759 -0.7858095 0.4636206 0.4093401 8674667 male
-2.676708 -0.3070972 -0.6524802 0.7046635 -0.1552667 -0.692345 5453876 male
-2.925424 0.7032685 -0.6482586 -0.6537337 0.7113148 -0.2581931 7360836 male
-2.846841 0.06960998 -0.6183544 0.63216 -0.3850587 -0.6723864 4015947 male
-2.647151 -0.4722516 -0.6183268 0.4286872 -0.7983901 -0.4228483 3743770 male
-2.664514 0.5014853 -0.6818726 -0.8483691 -0.08127008 0.5231301 8872034 male
-2.773214 0.618531 -0.5261272 0.0690529 0.4151883 0.907111 9730155 male
-2.71188 0.02657551 -0.510452 0.1604284 -0.1272731 0.9788076 6711406 male
-2.660813 -0.456918 -0.6600162 0.8887048 0.008414777 -0.4584027 7031114 male
-2.953491 0.6513789 -0.5682525 0.08455791 -0.05911763 0.9946633 10322812 male
-3.026144 0.381021 -0.5511249 0.8816407 0.2620347 0.3924889 7427666 male
-2.94952 0.5086094 -0.567004 -0.9224507 0.02429632 0.3853498 6308929 male
-2.804506 0.9294813 -0.7079496 0.09094476 0.2694283 -0.9587166 2037520 male
-2.683856 0.4482413 -0.6300719 0.9825445 -0.08958911 -0.163034 10122097 male
-2.935508 0.6929491 -0.6528221 -0.6604372 0.6481047 -0.3791875 7688775 male
-2.674966 -0.3627092 -0.6170105 0.9766533 -0.1308923 0.1703394 7690839 male
-2.952033 0.4731405 -0.6385199 -0.9401607 -0.1751037 -0.2922953 9727075 male
-3.072812 0.2860616 -0.428776 0.1004818 0.7554238 0.6474861 7755613 male
-2.829539 0.9827032 -0.587329 -0.3593798 0.8992234 0.2494864 2693400 male
-2.990748 -0.2296162 -0.4952276 -0.492937 -0.2367745 0.8372282 6113092 male
-2.854431 0.1655929 -0.4892382 0.05065406 0.08829252 0.9948058 7039339 male
-3.067564 0.480471 -0.6168601 -0.9293985 0.3052039 0.2075306 6113084 male
-3.006074 0.3158424 -0.4695625 0.9098451 0.2704921 -0.3146679 6440263 male
-3.010156 -0.2368534 -0.5574199 -0.9343277 -0.046348 -0.3533888 4863535 male
-2.671164 0.186968 -0.6204443 0.9496943 0.04930687 -0.3092727 7698815 male
-2.970642 -0.08296821 -0.5434693 -0.6754296 0.1025293 -0.730262 8215387 male
-2.90525 -0.07151666 -0.4695194 0.5904728 -0.1666058 0.7896736 5583924 male
-2.740551 0.8710102 -0.6440605 0.8335057 -0.2519963 0.4916973 2363921 male
-2.944343 0.3184009 -0.6324428 -0.8750551 0.169376 -0.4534208 6840932 male
-2.75466 0.7304326 -0.6510267 0.7262792 0.6717579 -0.1458075 9726820 male
-3.066205 0.2689742 -0.4234482 0.6815956 -0.5712574 -0.4572662 5458506 male
-2.689021 0.1920726 -0.5442449 0.6721444 0.2541739 0.6954262 6908011 male
-2.61008 0.2721479 -0.5762967 -0.9310245 -0.3060984 -0.1987388 6635326 male
-2.718102 0.2990281 -0.5144792 0.7714814 -0.1646618 0.6145754 7894140 male
-2.696709 0.1015186 -0.5120569 0.4824641 0.08494826 0.8717867 6711405 male
-2.983277 -0.1783037 -0.4800618 -0.4254579 -0.1529125 0.891966 7755869 male
-2.664383 -0.3065485 -0.6242653 0.9820353 -0.1874048 -0.02204499 8085859 male
-2.744915 0.9097536 -0.5575876 0.9237919 0.1543724 0.3503963 8806234 male
-2.982465 -0.05942556 -0.5238001 -0.9935069 0.0857226 -0.07480422 8281693 male
-2.675915 -0.1309494 -0.554822 0.8989671 -0.09887818 0.4267097 9463143 male
-2.956595 0.5475876 -0.6005754 -0.9374263 -0.09557944 0.3348082 8082770 male
-2.700668 -0.25687 -0.5759903 -0.13155 -0.2193492 0.966737 6902608 male
-2.693565 -0.4022051 -0.5923863 -0.1759311 0.5485725 0.8173839 11701137 male
-3.011817 0.3108426 -0.4781102 0.6650975 -0.6646651 -0.3403904 6966093 male
-2.92389 -0.2696437 -0.5572799 0.9234247 -0.2323689 -0.3054365 5190707 male
-2.613461 0.3971215 -0.7220705 0.1502276 -0.5903609 -0.7930357 7032913 male
-2.702648 0.365695 -0.6753584 0.7415929 0.1263374 -0.6588466 8675167 male
-2.795731 0.06807233 -0.5376983 -0.7575988 -0.1812383 0.6270541 5197907 male
-2.753356 0.1455052 -0.7021126 0.2394361 -0.2160277 -0.946574 7568516 male
-2.781361 0.9859397 -0.6254526 0.402518 0.9111832 -0.08788876 4731947 male
-3.004434 0.5833313 -0.6324565 -0.7277877 -0.01200278 -0.6856974 7360839 male
-2.789353 0.8965651 -0.7081785 0.2979453 -0.04554617 -0.9534957 1184010 male
-2.836775 0.852531 -0.5182725 -0.4328347 0.07658078 0.8982146 8804180 male
-2.968242 -0.01507266 -0.5678927 -0.8507646 -0.1208749 -0.5114576 8545121 male
-3.001459 -0.1389533 -0.5229441 -0.953479 0.2865007 -0.09378253 9136741 male
-2.881013 0.2882115 -0.4924528 -0.4592643 -0.08910658 0.8838192 6579560 male
-2.912301 0.5170891 -0.7008229 -0.5459068 -0.2034191 -0.812777 10844531 male
-2.979298 -0.008275891 -0.5138717 -0.9741193 -0.07981259 0.2114746 8940649 male
-2.983411 -0.4518099 -0.5659261 0.04172006 -0.9967258 -0.06926126 5457213 male
-2.848977 0.8657931 -0.6985407 -0.491392 -0.2516613 -0.8337868 2431508 male
-2.740863 0.8741281 -0.5627673 0.94025 0.05904945 0.3353252 8673618 male
-2.798154 0.1072065 -0.6676755 -0.5315049 -0.6191641 -0.578047 6383469 male
-2.790541 0.2528589 -0.4771436 0.2673278 -0.185945 0.9454947 8092798 male
-2.693963 -0.4703973 -0.6427289 -0.1586494 -0.9854486 0.06100248 4863801 male
-2.628498 0.3581169 -0.6267279 -0.8323048 0.3263824 0.4480438 8610402 male
-2.82926 0.0724764 -0.5875799 0.9341539 -0.1956428 -0.2984634 6316904 male
-2.949665 -0.2769785 -0.5156365 0.4190659 -0.298855 0.8573619 7097670 male
-2.827339 0.467219 -0.7105101 -0.237274 -0.2389734 -0.9415905 10780530 male
-2.792752 0.7254078 -0.5615278 0.4488706 -0.1333087 0.8835972 9333349 male
-2.789449 0.0252703 -0.5477138 -0.7927867 -0.2420912 0.5593578 4998464 male
-3.005195 0.5243235 -0.6341281 -0.07827511 -0.2924135 -0.9530831 8016969 male
