# .PCD v0.7 - Point Cloud Data file format
VERSION 0.7
FIELDS x y z normal_x normal_y normal_z rgb label
SIZE 4 4 4 4 4 4 4 4
TYPE F F F F F F U U
COUNT 1 1 1 1 1 1 1 1
WIDTH 132
HEIGHT 1
VIEWPOINT 0 0 0 1 0 0 0
POINTS 132
DATA ascii
-2.786587 0.4616242 0.5979515 -0.5230448 0.1431292 0.8402012 9598321 male
-2.875676 0.04465767 0.5372627 -0.9759958 0.02276723 0.2165962 8687244 male
-2.699075 0.09592027 0.5534402 -0.8595287 -0.09548145 0.5020894 5393748 male
-2.866281 -0.007491745 0.4917081 -0.8968592 -0.09952716 -0.4309733 8281948 male
-2.772198 0.3325221 0.6153601 -0.5778379 -0.1060039 0.8092383 8151396 male
-2.605212 -0.3858474 0.4271138 -0.8973168 -0.002275023 -0.4413812 7162182 male
-2.828977 0.6865366 0.404805 -0.6356739 0.6075727 -0.476208 8083786 male
-2.838698 0.6079733 0.4849644 -0.7517344 -0.5002716 0.4296786 8283741 male
-2.725929 0.8547179 0.5483783 -0.543792 0.2642549 0.7965297 6505023 male
-2.561159 0.192661 0.481673 0.97285 0.05126888 -0.2256862 7237750 male
-2.833746 -0.354375 0.4938493 0.8550471 -0.008828678 0.5184752 8676715 male
-2.645017 0.8278269 0.4447369 0.9348447 -0.3518471 -0.04763416 6897978 male
-2.633205 0.5957388 0.3463106 0.246613 -0.01846731 -0.9689381 10384488 male
-2.736188 0.3290186 0.6290245 -0.1180079 -0.1310191 0.9843313 9663859 male
-2.848197 0.2880808 0.4518046 -0.9048783 0.2713228 -0.3279927 7566199 male
-2.803567 -0.1646429 0.4956671 0.928582 0.1618501 -0.3339762 7032652 male
-2.672273 -0.05621553 0.4777848 -0.8485757 -0.05931158 -0.5257389 8478045 male
-2.9245 0.5590636 0.4538403 -0.9197049 0.3824418 -0.08877655 7427661 male
-2.68808 0.6414633 0.546702 0.01123355 0.4839624 0.8750166 9400422 male
-2.821844 0.4901167 0.5573354 -0.7781771 0.05096207 0.6259738 9796470 male
-2.749732 0.7749087 0.4902564 -0.85496 -0.03303782 0.5176407 9529184 male
-2.875962 0.07458252 0.5149317 -0.9993479 0.03253678 -0.01565521 6645352 male
-2.616379 -0.4482073 0.561498 -0.260172 0.8710647 0.4166016 16772087 male
-2.544774 0.4926559 0.3992119 -0.6380339 -0.2390246 -0.73197 9002587 male
-2.687157 -0.004441687 0.5150577 -0.9546132 -0.2285754 0.1909631 3942955 male
-2.706254 0.2764408 0.3924009 0.03251435 0.3035609 -0.9522571 8816782 male
-2.738079 0.3865482 0.3896083 0.1518065 -0.2769091 -0.9488289 9332573 male
-2.602713 0.3437969 0.5678396 0.7668051 -0.06871144 0.6381918 11899540 male
-2.564182 0.1474003 0.5466555 0.9005759 0.08855283 0.4255836 9344927 male
-2.969499 0.3210045 0.5749024 -0.5405803 0.6442046 0.5410855 6309194 male
-2.786697 0.6003348 0.3466855 -0.3027115 -0.0003382106 -0.9530822 10843499 male
-2.600193 0.4617402 0.5556667 0.8032511 0.1024749 0.5867594 10913669 male
-2.855796 -0.1935007 0.4489092 -0.1136226 0.2257417 -0.9675384 7953235 male
-2.945301 0.3149914 0.5197284 0.8290123 -0.36724 -0.4217505 5058348 male
-2.784225 0.8564007 0.43709 -0.1672601 0.5754664 0.8005389 10445917 male
-2.574533 0.5650525 0.4490753 -0.9620387 -0.2171254 0.1653422 8741211 male
-2.84824 0.1725992 0.5551101 -0.7519348 0.2446503 0.6121604 5527382 male
-2.869059 0.5227937 0.4384224 0.8336192 -0.4462237 -0.3255202 11376268 male
-2.561815 -0.1950879 0.43978 0.7161125 0.1921911 -0.6710033 7163467 male
-2.653976 0.2482384 0.3877254 0.146035 0.245461 -0.9583437 7897222 male
-2.652445 0.1728707 0.38074 0.169705 -0.1409373 -0.975365 8884631 male
-2.483249 0.343778 0.4585556 0.7107385 -0.5137103 -0.4805751 7689810 male
-2.626702 0.9329923 0.4150044 0.9423327 0.2950822 -0.1579099 1248008 male
-2.751785 0.5746183 0.580116 0.08046915 0.1943938 0.9776174 10059376 male
-2.774322 0.9226547 0.4351123 -0.985467 0.1679092 -0.02571799 3614496 male
-2.582985 -0.2329636 0.4214723 0.308259 0.01469649 -0.9511889 5190702 male
-2.559951 0.6489817 0.4821659 0.1045152 0.002206211 0.9945208 11242625 male
-2.629856 0.06159658 0.4334507 0.09106004 -0.2140372 -0.972572 9410976 male
-2.738219 0.5991696 0.569943 0.1901648 0.3673945 0.9104167 9927538 male
-2.580503 0.6146656 0.4890337 0.6110957 -0.6328223 0.4754974 9269356 male
-2.809705 0.6437474 0.367036 -0.4862056 0.103469 -0.8676971 9727331 male
-2.659676 0.1201816 0.5873952 -0.2885965 -0.02071112 0.9572268 5724509 male
-2.758 0.008170435 0.4637864 0.6423504 -0.3122598 -0.6999142 7495524 male
-2.634824 0.2420356 0.5803782 0.4508398 -0.136015 0.882181 7040371 male
-2.836238 0.6269542 0.4704019 0.8078409 -0.3436621 0.4788416 5916481 male
-2.76095 0.9290408 0.3864791 -0.8508595 0.2329409 -0.4709317 1642768 male
-2.805359 -0.1372626 0.4981188 0.7916005 0.05795126 -0.6082847 6836564 male
-2.688925 0.5199105 0.5962856 -0.00194456 0.3671953 0.9301419 9598833 male
-2.65216 0.7336254 0.460007 0.9544981 0.2493618 0.1635608 8215123 male
-2.855801 -0.4577717 0.4447622 0.2773116 -0.8241999 -0.4937539 4206380 male
-2.843797 0.1119845 0.4450549 -0.7340915 -0.16441 -0.6588467 6908529 male
-2.603607 -0.416178 0.4862528 -0.8781549 0.351602 0.3243763 9464693 male
-2.558842 -0.3029202 0.4752163 0.9421874 -0.2056298 0.2645736 8085344 male
-2.833031 0.6685878 0.3959469 -0.6946376 0.4003894 -0.5976345 8740691 male
-2.728435 0.03720878 0.4942259 0.9309239 -0.300891 -0.2069907 5264469 male
-2.564398 -0.4704091 0.4514418 -0.005547315 -0.9983305 -0.05749369 4271656 male
-2.527631 0.4802809 0.4216087 -0.6746972 0.2959156 0.6761786 7557458 male
-2.683586 0.6839797 0.5186462 0.1473909 0.5113806 0.8466202 8479577 male
-2.629528 0.0362273 0.5840959 -0.1599165 -0.1571652 0.9745388 7302769 male
-2.547306 -0.4549437 0.4359304 0.962271 -0.009984429 -0.2719097 7032145 male
-2.836631 0.6400028 0.4766254 0.6046134 -0.2674065 0.7502909 8874342 male
-2.909355 0.4058241 0.4355954 0.7062875 -0.6205577 -0.3406846 6639443 male
-2.813513 0.5124025 0.5655688 -0.7040119 0.1012533 0.7029331 9335661 male
-2.681127 0.9224226 0.3494679 0.245914 0.1821067 -0.9520313 2037520 male
-2.582928 0.4738975 0.4289747 0.9022088 -0.2599577 -0.344153 10055280 male
-2.834298 0.690681 0.423331 -0.6313205 0.7387555 -0.2359551 7755853 male
-2.577829 -0.3342931 0.4912031 0.4583583 -0.1999548 0.8659825 7558490 male
-2.847996 0.4699804 0.4476435 -0.9606158 -0.1449565 -0.2370757 9727078 male
-2.997922 0.3002491 0.6232421 -0.5499903 0.5729702 0.6076314 6178379 male
-2.724598 0.9862234 0.4592916 -0.3854913 0.9164849 0.1070135 2693400 male
-2.895366 -0.2599825 0.4749196 -0.9519424 -0.09986316 -0.2895392 5324345 male
-2.749686 0.1561798 0.5888809 -0.167994 -0.1366428 0.9762719 6513763 male
-2.956757 0.4802844 0.4199406 -0.9309956 0.05287458 -0.3611805 6242101 male
-2.935321 0.3209706 0.5987261 -0.802266 -0.5691488 0.180108 3285794 male
-2.892969 -0.2487808 0.4663565 -0.8674013 -0.05390081 -0.4946814 4863535 male
-2.564216 0.2197241 0.4689367 0.9459476 -0.007980489 -0.3242213 7239551 male
-2.86306 -0.09596337 0.4918277 -0.593415 0.169267 -0.7868974 8083802 male
-2.792861 -0.1068728 0.5561575 0.6944929 -0.3341818 0.637183 6571594 male
-2.627105 0.8841681 0.4167922 0.9639183 -0.1865265 -0.1899191 919042 male
-2.830475 0.325492 0.4362557 -0.8082839 0.06806789 -0.5848451 6643551 male
-2.654319 0.7172634 0.3954691 0.2612962 0.5792537 -0.7721331 6638401 male
-2.999268 0.293608 0.6149029 -0.5855151 -0.7698403 -0.2540038 4930617 male
-2.554934 0.1502505 0.5067154 0.9981742 0.05570918 0.02334119 9474712 male
-2.487349 0.2658074 0.5551513 -0.8504011 -0.3099022 -0.4251806 7489096 male
-2.669671 0.3619388 0.6296385 0.2614594 0.04340133 0.9642382 9268852 male
-2.67495 0.1150319 0.581309 -0.4983516 -0.06408761 0.8646031 4933451 male
-2.873755 -0.1063223 0.5460328 -0.9506518 0.05646486 0.3050783 6966606 male
-2.572099 -0.3496734 0.4365125 0.8208216 -0.1405542 -0.5536211 5917002 male
-2.654001 0.9257154 0.5154054 0.7260494 0.3320713 0.6021469 8148563 male
-2.876152 -0.07734338 0.5099506 -0.9632716 0.1156353 -0.2423562 8675165 male
-2.609043 -0.08606186 0.5667633 0.2480734 -0.1029404 0.9632564 6307903 male
-2.850806 0.5186746 0.4789466 -0.9878759 0.004147946 0.15519 7296084 male
-2.57566 -0.3868347 0.4238429 0.5916231 -0.07285044 -0.8029165 5061179 male
-2.564411 -0.4047089 0.48439 0.7747101 0.4000515 0.4896765 8808554 male
-2.934293 0.3190534 0.5890182 -0.3200656 -0.9449832 0.06756231 3877674 male
-2.809082 -0.2535148 0.5144839 0.7151983 -0.2485923 0.6532177 6769742 male
-2.518246 0.5274306 0.405308 0.4171792 -0.1613899 -0.8943796 6701629 male
-2.611885 0.3820606 0.4060923 0.6026317 -0.01961511 -0.7977784 8806236 male
-2.658097 0.08900836 0.5839375 -0.3769184 -0.1220197 0.9181741 6249823 male
-2.585936 0.1918957 0.4277883 0.8038063 0.006723537 -0.5948532 6842992 male
-2.651263 0.9668473 0.398698 0.6306467 0.710822 -0.3114752 1313800 male
-2.899387 0.6043787 0.4250159 -0.8027495 0.001806551 -0.5963136 7689543 male
-2.669156 0.8757886 0.3557154 0.422079 -0.2538284 -0.8702991 1380621 male
-2.735732 0.8478646 0.5429561 -0.4293844 -0.009257941 0.9030744 7360071 male
-2.813111 -0.05928197 0.4677188 0.1808105 -0.1802392 -0.9668615 9730419 male
-2.883403 -0.121766 0.5204546 -0.9929945 0.1164821 0.01984174 8085084 male
-2.787481 0.2821882 0.583396 -0.5722805 -0.1335039 0.809118 6644838 male
-2.776354 0.5016665 0.364692 -0.2973302 -0.2573879 -0.9194271 9988451 male
-2.873553 -0.01118104 0.5142739 -0.9830046 -0.1059658 -0.1499106 7361103 male
-2.872792 -0.460636 0.4480854 -0.1883648 -0.8953558 -0.4035552 5391681 male
-2.727182 0.8597184 0.3573844 -0.3545098 -0.3273831 -0.8758671 2431508 male
-2.663499 0.8820505 0.5282822 0.4904472 0.2741041 0.8272415 8608087 male
-2.687455 0.1034828 0.4367799 -0.6427131 -0.4161774 -0.6432077 6514027 male
-2.703704 0.2068442 0.6075548 0.1799457 0.01700236 0.9835296 7171957 male
-2.593014 -0.4654417 0.4357 -0.5244451 -0.8500176 -0.04926923 5586500 male
-2.511715 0.395934 0.4010135 -0.2349304 -0.6106709 -0.7562333 10384760 male
-2.724312 0.04330915 0.5110961 0.9719314 -0.2300409 0.04930012 3026479 male
-2.84072 -0.2875489 0.5191709 0.2718974 -0.2606446 0.9263564 7097670 male
-2.609515 0.3315882 0.4144753 0.5082291 -0.2250821 -0.831289 7556428 male
-2.621614 0.6593398 0.5078934 0.3683798 0.5488909 0.7503433 9334629 male
-2.64029 0.03832833 0.5818481 -0.3218612 -0.1576725 0.9335656 7105644 male
-2.907299 0.4492084 0.4014935 0.3821742 -0.6546994 -0.6521592 8608600 male
