# .PCD v0.7 - Point Cloud Data file format
VERSION 0.7
FIELDS x y z normal_x normal_y normal_z rgb label
SIZE 4 4 4 4 4 4 4 4
TYPE F F F F F F U U
COUNT 1 1 1 1 1 1 1 1
WIDTH 132
HEIGHT 1
VIEWPOINT 0 0 0 1 0 0 0
POINTS 132
DATA ascii
-2.794223 0.4606295 0.6016266 -0.5520661 0.139888 0.821982 9598321 male
-2.877404 0.0422967 0.5377994 -0.9827833 0.01095139 0.1844376 8687244 male
-2.691108 0.1003296 0.5792653 -0.6879065 -0.1428975 0.7115933 4672079 male
-2.865822 -0.003296948 0.4900411 -0.8702868 -0.1075526 -0.4806592 8216672 male
-2.779921 0.3529151 0.6198192 -0.611068 -0.002177069 0.7915751 8940137 male
-2.59964 -0.3856417 0.4374136 -0.8818826 -0.009444916 -0.4713744 7162182 male
-2.819423 0.6897805 0.3992771 -0.5390254 0.5903634 -0.6007683 8082762 male
-2.845839 0.6018205 0.471106 -0.7315118 -0.4974481 0.4663002 7363927 male
-2.725829 0.8336473 0.5610773 -0.4469364 -0.06605549 0.8921236 7622475 male
-2.561913 0.2166462 0.5223308 0.9828764 0.05755727 0.1750464 9936295 male
-2.830245 -0.3570906 0.4967785 0.839624 0.00504659 0.5431446 8676715 male
-2.651036 0.8252628 0.4659284 0.9306166 -0.3594963 -0.06866763 7358273 male
-2.626619 0.5996071 0.3578447 0.4136476 0.01636038 -0.91029 10121829 male
-2.761566 0.4892629 0.6103923 -0.2244246 0.3062085 0.9251324 10059640 male
-2.854079 0.2866834 0.4688267 -0.946753 0.2694731 -0.1761899 9342869 male
-2.801617 -0.1669119 0.4970603 0.9365577 0.1670524 -0.3081447 7032652 male
-2.671697 -0.05643677 0.4853009 -0.8300157 -0.0658773 -0.5538359 8478045 male
-2.927154 0.5573937 0.4510455 -0.9222021 0.3709039 -0.109424 7427661 male
-2.695151 0.6346735 0.5574226 -0.05395367 0.4653012 0.8835065 9729387 male
-2.807909 0.5030292 0.5824413 -0.5896951 0.1374432 0.7958449 9993847 male
-2.761314 0.7838418 0.4859141 -0.9369088 -0.08909269 0.33803 8805204 male
-2.877317 0.07229275 0.5155366 -0.9986031 0.02131133 -0.04835008 6645352 male
-2.614426 -0.4482725 0.57192 -0.2790584 0.8685653 0.4095374 16772087 male
-2.546827 0.5086416 0.4148849 -0.5039912 -0.2512409 -0.82636 8673618 male
-2.688241 -0.004842025 0.522189 -0.9584448 -0.2370572 0.1587056 3942955 male
-2.644004 0.2359941 0.3947213 0.2374588 0.2065424 -0.9491857 8028291 male
-2.755585 0.4151851 0.3859279 -0.06815172 -0.2769507 -0.9584642 11042678 male
-2.60676 0.3406336 0.5757834 0.7547101 -0.07426326 0.6518418 11899540 male
-2.567654 0.1479742 0.5581532 0.8850704 0.09533966 0.4555884 9344927 male
-2.960657 0.3189549 0.5683647 -0.4196504 0.5747569 0.7025297 7033170 male
-2.786719 0.600086 0.3505864 -0.2696584 0.00293447 -0.9629516 10843499 male
-2.606516 0.4645242 0.5648851 0.7840253 0.1090841 0.6110688 10847876 male
-2.895728 -0.2000583 0.4848185 -0.9592838 0.1185487 -0.2563607 7362903 male
-2.945641 0.3117191 0.5113024 0.8425249 -0.3450221 -0.4136561 5058348 male
-2.784321 0.8637907 0.4451504 -0.3159582 0.2820424 0.9058822 7225666 male
-2.578144 0.5657611 0.459147 -0.9653412 -0.2233317 0.135053 8741211 male
-2.852037 0.1705907 0.5568515 -0.7741804 0.2351541 0.5876625 5527382 male
-2.870836 0.5222183 0.4365848 0.8493389 -0.4279957 -0.3089385 11376268 male
-2.558836 -0.1945331 0.4507715 0.7363535 0.1979247 -0.6470003 7163467 male
-2.66168 0.2483015 0.3947909 0.1196138 0.2557462 -0.9593155 8358027 male
-2.709167 0.1819046 0.3868438 0.06124716 -0.1610087 -0.9850507 8949912 male
-2.485683 0.3489952 0.4649317 0.7429261 -0.4987366 -0.4464555 7492689 male
-2.631548 0.9334931 0.4265462 0.9448164 0.3039032 -0.1223314 1248008 male
-2.769965 0.5739853 0.58433 -0.1052728 0.1906303 0.9760009 10848379 male
-2.779698 0.9218075 0.4413598 -0.9853116 0.1601774 -0.05919622 3614496 male
-2.579019 -0.2326404 0.4318448 0.3397718 0.0161221 -0.9403697 5190702 male
-2.564906 0.6493476 0.4937246 0.07512901 -0.007865553 0.9971428 11242625 male
-2.628813 0.06182256 0.4426962 0.1252704 -0.2115703 -0.9693015 9410976 male
-2.703835 0.5093634 0.6069217 -0.02168499 0.3860942 0.9222044 9665658 male
-2.585553 0.6149256 0.4999193 0.599352 -0.6322637 0.4909377 9269356 male
-2.810547 0.6435609 0.3702308 -0.4550411 0.1080908 -0.8838857 9727331 male
-2.701069 0.1096409 0.5661759 -0.8820847 0.04127427 0.4692792 5526870 male
-2.75698 0.007371625 0.4681838 0.6685835 -0.3026467 -0.6792651 7495524 male
-2.633118 0.2238054 0.5839075 0.3466522 -0.004464087 0.9379831 7369338 male
-2.840334 0.6261962 0.4716296 0.797265 -0.3405509 0.498391 5916481 male
-2.764677 0.9286867 0.3932771 -0.835699 0.2298041 -0.4987959 1642768 male
-2.805876 -0.1059457 0.4912596 0.5042149 -0.1224137 -0.854858 8939623 male
-2.612129 0.494247 0.5674363 0.766719 0.0758495 0.6374863 10651009 male
-2.656992 0.7335578 0.4690583 0.946525 0.2547804 0.1979325 8215123 male
-2.843525 -0.4639791 0.4668941 0.3854834 -0.919283 -0.07950759 5127737 male
-2.843343 0.1102512 0.4468502 -0.7101822 -0.1706683 -0.6830179 6908529 male
-2.599526 -0.4159995 0.4968911 -0.890978 0.3452614 0.2948776 9464693 male
-2.556024 -0.3022901 0.4865196 0.9346737 -0.1964665 0.296287 8085344 male
-2.839629 0.6621757 0.3994418 -0.6990018 0.3646456 -0.6151666 8806228 male
-2.736437 0.01342149 0.5100548 0.940779 -0.3314465 -0.07126044 4997442 male
-2.55863 -0.4699649 0.4635715 0.002124092 -0.9982128 -0.05972248 4271656 male
-2.536047 0.4848351 0.430327 -0.7085088 0.2184934 0.671026 7492433 male
-2.704371 0.6933199 0.5235086 0.02232633 0.445553 0.8949771 8609113 male
-2.63329 0.0361944 0.5931914 -0.1909605 -0.1603221 0.9684168 7302769 male
-2.553315 -0.4240766 0.4406282 0.8961725 0.05849493 -0.4398332 5914946 male
-2.83964 0.6360323 0.4971852 -0.4285369 -0.2777433 0.859776 10257537 male
-2.909628 0.404951 0.429745 0.7229552 -0.6018013 -0.3393684 6639443 male
-2.808642 0.5124822 0.580123 -0.5874841 0.1599491 0.7932709 9730419 male
-2.683547 0.9230042 0.3590554 0.2777463 0.1916278 -0.9413478 2037520 male
-2.585389 0.4689654 0.4414613 0.9183582 -0.239232 -0.3152558 10055280 male
-2.849862 0.6375793 0.3926715 -0.5319156 0.1355277 -0.8358817 9661538 male
-2.575191 -0.3338145 0.5019796 0.4309071 -0.1946258 0.8811583 7558490 male
-2.831955 0.4967599 0.4053853 -0.7553062 -0.2157925 -0.6188264 10252138 male
-3.000119 0.2907803 0.6167428 -0.7475875 0.4020244 0.5286674 5650237 male
-2.731385 0.9855808 0.467761 -0.3966429 0.9124735 0.100332 2693400 male
-2.891977 -0.2634698 0.4747063 -0.9421645 -0.1117055 -0.3159875 5324345 male
-2.788061 0.2366955 0.5797743 -0.5083396 -0.1017887 0.8551198 6119263 male
-2.954001 0.4823744 0.4112107 -0.8863813 0.01262082 -0.462784 6176313 male
-2.93561 0.3155857 0.5929345 -0.6613056 -0.7301973 0.1717171 4337970 male
-2.892702 -0.265 0.5000202 -0.9683316 -0.1707247 0.1821731 6114124 male
-2.565678 0.2203872 0.480553 0.9563509 0.0001508575 -0.2922207 7239551 male
-2.861598 -0.09842035 0.4913827 -0.5700033 0.1597019 -0.8059725 8083802 male
-2.79335 -0.1083046 0.5580572 0.6772511 -0.3249671 0.6600965 6571594 male
-2.634857 0.8842744 0.4143072 0.9391137 -0.1879906 -0.2876197 1050624 male
-2.831578 0.3239663 0.4389209 -0.7886312 0.06161417 -0.6117716 6643551 male
-2.656865 0.7175789 0.4044399 0.2834343 0.5851501 -0.7597792 6638401 male
-2.999807 0.2900378 0.5979985 -0.4293221 -0.8261963 -0.3648045 5982283 male
-2.585807 0.2039408 0.5655864 0.6050408 0.1841549 0.7746049 6776939 male
-2.495275 0.2671072 0.5608124 -0.8925444 -0.2640103 -0.3655997 6043705 male
-2.677644 0.3619118 0.6375819 0.2286453 0.04673018 0.9723876 9268852 male
-2.67925 0.1146059 0.5889925 -0.5263476 -0.07010029 0.8473749 4933451 male
-2.873891 -0.1086499 0.5453694 -0.9600241 0.04808664 0.2757562 6966606 male
-2.559619 -0.3322583 0.469534 0.9663457 -0.2419219 -0.08746281 6507338 male
-2.688998 0.9430539 0.5335149 0.2799882 0.4759357 0.8337217 6572611 male
-2.875489 -0.07973582 0.5094515 -0.9563218 0.1049533 -0.2728248 8675165 male
-2.611205 -0.08586115 0.5762877 0.2166491 -0.1018785 0.9709191 6307903 male
-2.854684 0.529238 0.475839 -0.9906777 -0.00172926 0.1362156 8215898 male
-2.56717 -0.3807079 0.4392992 0.6486458 -0.09254859 -0.7554426 4667447 male
-2.56046 -0.4042286 0.4962572 0.7548189 0.4051823 0.5158253 8808554 male
-2.922976 0.3181528 0.585214 0.8771321 -0.4304605 -0.2129395 6375240 male
-2.806951 -0.2557633 0.5166962 0.6977265 -0.2343679 0.6769412 6769742 male
-2.52048 0.5289929 0.4165516 0.4430701 -0.1476754 -0.8842403 6701629 male
-2.616532 0.3838319 0.4122792 0.5933011 -0.04773863 -0.8035638 8674395 male
-2.66228 0.0887135 0.5921664 -0.4063508 -0.1269674 0.9048527 6249823 male
-2.585314 0.2048657 0.4389479 0.8293433 -0.01527073 -0.5585306 7041395 male
-2.655803 0.9672772 0.4096444 0.6352373 0.7183432 -0.283649 1313800 male
-2.901725 0.603555 0.423851 -0.7840363 0.001269945 -0.6207136 7689543 male
-2.671415 0.8764188 0.3653619 0.4545189 -0.2435152 -0.8568039 1380621 male
-2.740683 0.8426949 0.5508606 -0.3630377 -0.1757446 0.9150505 7557450 male
-2.811351 -0.06088548 0.4695617 0.2139729 -0.1774884 -0.9605798 9730419 male
-2.882549 -0.1244009 0.5192725 -0.9941977 0.1070232 -0.01081486 8085084 male
-2.79583 0.286339 0.5870613 -0.6196573 -0.118734 0.7758396 6579560 male
-2.776419 0.5007825 0.3687351 -0.264364 -0.2587825 -0.9290551 9988451 male
-2.873875 -0.01344835 0.5146465 -0.9762959 -0.1165903 -0.1823541 7361103 male
-2.854353 -0.464237 0.4589069 0.09802513 -0.9877073 -0.1217599 5391682 male
-2.72933 0.8598713 0.3648595 -0.3207549 -0.3232153 -0.8903078 2431508 male
-2.690997 0.8861594 0.5428554 0.4147189 0.4503962 0.7906653 7556425 male
-2.68682 0.1032501 0.4441493 -0.6171136 -0.4206572 -0.6649949 6514027 male
-2.714157 0.2040528 0.6149561 0.06370958 0.01817397 0.997803 7170925 male
-2.586309 -0.4653785 0.4485299 -0.4864724 -0.8726043 -0.04366119 5783879 male
-2.512846 0.3893437 0.4173211 -0.233193 -0.6270567 -0.7432503 10122612 male
-2.725308 0.04272969 0.5168178 0.9722916 -0.2193687 0.08078621 3026479 male
-2.838445 -0.2900186 0.5209131 0.2467629 -0.2468396 0.9371117 7097670 male
-2.610053 0.331811 0.4245724 0.5376961 -0.2211559 -0.8136172 7556428 male
-2.626679 0.6521364 0.5224523 0.3224179 0.5059323 0.8000495 9005928 male
-2.643994 0.03820978 0.5905843 -0.3514262 -0.162135 0.9220694 7105644 male
-2.900206 0.4659521 0.3996277 0.5331121 -0.5179375 -0.6689784 8083028 male
