# .PCD v0.7 - Point Cloud Data file format
VERSION 0.7
FIELDS x y z normal_x normal_y normal_z rgb label
SIZE 4 4 4 4 4 4 4 4
TYPE F F F F F F U U
COUNT 1 1 1 1 1 1 1 1
WIDTH 132
HEIGHT 1
VIEWPOINT 0 0 0 1 0 0 0
POINTS 132
DATA ascii
-2.79675 0.442278 0.584927 -0.5080194 0.1094913 0.8543581 9597809 male
-2.786717 -0.09310387 0.5264654 0.9584938 -0.2127876 0.1897656 6506826 male
-2.684306 0.1076977 0.5669683 -0.3381044 -0.07374794 0.9382146 5526868 male
-2.885608 -0.03207965 0.495945 -0.9409662 -0.07684442 -0.3296625 7690583 male
-2.792734 0.4850115 0.5791419 -0.3960853 0.2081735 0.8943044 10125429 male
-2.649697 -0.3640237 0.4015906 -0.7877754 0.003148519 -0.6159545 6503481 male
-2.835618 0.6984818 0.4138724 -0.5942372 0.7868079 -0.1667796 8281682 male
-2.843178 0.6190829 0.4948747 -0.6417125 -0.3463934 0.6842636 9927542 male
-2.722733 0.8063869 0.5534165 -0.2548154 -0.147918 0.9556094 7031106 male
-2.581611 0.1858953 0.4581696 0.961477 0.02750739 -0.2735054 7237750 male
-2.864128 -0.3361346 0.5091282 0.4529129 -0.09874988 0.8860691 9136234 male
-2.654878 0.8233141 0.4459777 0.9350901 -0.3464708 -0.07459506 7027769 male
-2.632739 0.6675361 0.3556391 0.4324318 0.3974413 -0.8093473 7295302 male
-2.748043 0.4773436 0.5928584 -0.04302996 0.2909544 0.9557688 10059640 male
-2.864168 0.2715015 0.5120121 -0.793025 0.3313244 0.5112098 8224901 male
-2.859047 -0.06068753 0.4697694 -0.472829 -0.1144588 -0.8736886 8413535 male
-2.696355 -0.05877373 0.4564999 -0.8160951 -0.04260525 -0.576345 8609373 male
-2.926507 0.5753567 0.4510913 -0.9496911 0.3093416 0.04893414 7560530 male
-2.697686 0.6275773 0.5374842 0.009142254 0.4258524 0.9047464 9729387 male
-2.83849 0.4831833 0.5363482 -0.7909352 0.03999797 0.6105912 9730675 male
-2.765033 0.78003 0.4771281 -0.9167866 -0.09408442 0.3881371 8805204 male
-2.875344 0.09530449 0.5571106 -0.7948562 0.1356776 0.5914349 4407875 male
-2.638829 -0.4612294 0.5348346 0.2249815 0.8834577 0.4109572 15451336 male
-2.548644 0.4844728 0.3796858 -0.4540212 -0.2335887 -0.8598262 8804696 male
-2.683342 0.01762488 0.5478997 -0.5812942 -0.1731326 0.7950611 6052442 male
-2.630014 0.2319963 0.3809741 0.5401735 0.06205623 -0.8392625 7566459 male
-2.80351 0.4769889 0.3590921 -0.4144929 -0.2364089 -0.8788097 9660514 male
-2.600893 0.3047562 0.5074221 0.8879337 0.03165857 0.4588806 10979209 male
-2.582408 0.140585 0.5238253 0.9226673 0.06609277 0.3798907 9344927 male
-2.951804 0.3286216 0.5816991 -0.5044335 0.6572657 0.559954 6309194 male
-2.802672 0.6236807 0.3380747 -0.3847807 0.1824566 -0.9047947 10252643 male
-2.60344 0.4729964 0.5133104 0.8961841 0.05911719 0.4397262 10649464 male
-2.918506 -0.2005016 0.50538 -0.9944012 0.05188636 0.09205498 7428697 male
-2.940499 0.2979682 0.5471215 0.9423836 -0.3189569 0.1008943 5323575 male
-2.788924 0.8727843 0.4447457 -0.2276881 -0.2144462 0.9498267 9132370 male
-2.585838 0.5533991 0.4380311 -0.9560328 -0.1557815 0.2484621 8873574 male
-2.864156 0.1713261 0.5480505 -0.7061893 0.2562456 0.6600264 5527382 male
-2.883439 0.5232019 0.4251056 0.6781574 -0.4647956 -0.5692693 12100759 male
-2.580094 -0.2455026 0.4466694 0.9916043 -0.1097563 -0.06836988 7295569 male
-2.664954 0.2431688 0.3691461 0.1690447 0.2234755 -0.9599388 7962758 male
-2.679053 0.174903 0.3604275 0.102468 -0.1094256 -0.9886993 8818838 male
-2.509582 0.3226197 0.4713017 0.7582551 -0.5315111 -0.3775516 7097931 male
-2.635492 0.9311357 0.4209149 0.9423708 0.2937695 -0.1601152 1248008 male
-2.726226 0.5177851 0.5763702 0.04296408 0.3573439 0.9329842 9993591 male
-2.782634 0.9212576 0.4444173 -0.9827271 0.1841877 0.01795291 3614496 male
-2.614808 -0.2378309 0.4006584 0.3317437 0.02633739 -0.9430018 4860969 male
-2.572081 0.6355529 0.4636754 -0.0413288 0.003718892 0.9991387 12162700 male
-2.671627 0.008172154 0.4222871 -0.2849532 -0.1446435 -0.9475653 7887450 male
-2.676614 0.4695493 0.5907062 0.2596835 0.2549405 0.9314343 9466735 male
-2.590364 0.5339795 0.484513 0.9498383 -0.02573591 0.3116805 7688782 male
-2.827456 0.6611859 0.3654985 -0.5494673 0.3115169 -0.7752695 9529945 male
-2.676342 0.11584 0.5688996 -0.2421197 -0.0134375 0.9701533 5724509 male
-2.78005 0.005127362 0.453704 0.5869677 -0.326127 -0.7410197 7495524 male
-2.643162 0.219127 0.5538839 0.4230261 -0.006759096 0.9060923 7369338 male
-2.846408 0.6424758 0.4501194 0.6294705 -0.7239947 0.2821321 8940903 male
-2.770542 0.9316114 0.3961381 -0.8597549 0.2848568 -0.4238845 1642768 male
-2.833016 -0.08510634 0.477154 0.2601159 -0.1781185 -0.9490066 9203566 male
-2.616994 0.4858314 0.536097 0.8101099 0.03843681 0.5850167 10651009 male
-2.658517 0.7135738 0.4611997 0.7960109 0.4431014 0.4123444 8675930 male
-2.873371 -0.4629222 0.465331 0.07354404 -0.9937231 -0.08429547 5588027 male
-2.867468 0.1086454 0.4390503 -0.7805918 -0.1767617 -0.5995262 6908529 male
-2.642479 -0.4286943 0.4658361 -0.81314 0.4716129 0.341152 8674667 male
-2.592034 -0.2993914 0.4548991 0.9317994 -0.2363516 0.2754775 7756637 male
-2.848178 0.6876087 0.4115332 -0.6721125 0.6858037 -0.2791741 7952202 male
-2.754895 0.01210929 0.4928086 0.9252418 -0.3406787 -0.1669299 4997442 male
-2.570767 -0.4704049 0.4552884 0.8996943 -0.1109285 -0.4221907 3943212 male
-2.562927 0.4882818 0.39817 -0.9931571 -0.04096066 0.1093677 9398630 male
-2.693673 0.6775261 0.5083296 0.1755908 0.4662875 0.8670316 8479577 male
-2.648817 0.03088698 0.5643213 -0.11654 -0.1526661 0.9813825 7302769 male
-2.601666 -0.4350145 0.3929012 0.8660145 0.1337238 -0.4818057 7229782 male
-2.846825 0.6465375 0.4715181 0.3854726 -0.4358344 0.8133014 9336693 male
-2.911914 0.3992289 0.4557132 0.9759043 -0.2118685 0.05217857 6706519 male
-2.831713 0.5184242 0.5412543 -0.7326381 0.0881568 0.674885 10060414 male
-2.691912 0.9270352 0.3563662 0.2222478 0.259642 -0.9397829 2037520 male
-2.608932 0.4734533 0.3864617 0.7650711 -0.2774636 -0.5811026 10252659 male
-2.856231 0.6366708 0.3801782 -0.6045817 0.1000155 -0.7902392 9135194 male
-2.608616 -0.3108351 0.4732751 0.5140705 -0.285191 0.8089484 5981507 male
-2.860842 0.4528496 0.4305201 -0.948476 -0.1684746 -0.2683462 9529696 male
-2.978312 0.3136725 0.6169677 -0.9246998 -0.02925079 0.3795717 5192510 male
-2.731155 0.9817886 0.4724498 -0.3665134 0.90948 0.19625 2693400 male
-2.912125 -0.2654417 0.5010125 -0.9599988 -0.1825989 0.2122732 6048330 male
-2.781571 0.1849197 0.5703995 -0.2631211 0.1264186 0.9564443 6578788 male
-2.967034 0.4924118 0.4222137 -0.9669992 0.2546447 -0.008280038 5783095 male
-2.899857 0.3328732 0.6029837 0.6829999 -0.7303588 -0.009341259 6902613 male
-2.909472 -0.2595345 0.5141032 -0.888143 -0.1989848 0.4142549 7035226 male
-2.580158 0.2003876 0.4647397 0.9787058 0.008478744 -0.205093 6908785 male
-2.891242 -0.0686541 0.5131261 -0.9908365 0.06815266 -0.1166116 8478816 male
-2.885183 -0.01891246 0.5444185 -0.8916176 -0.1464282 0.4284587 6245199 male
-2.636458 0.876719 0.4265566 0.9561214 -0.2856531 0.06506972 1181958 male
-2.83112 0.3019388 0.543135 -0.7086843 0.1000972 0.6983889 7041395 male
-2.669111 0.7108092 0.3789546 0.2107113 0.6278641 -0.7492579 7032644 male
-2.969449 0.3002215 0.6336342 -0.1086401 -0.9143587 -0.3900584 3287085 male
-2.575234 0.1431763 0.4835457 0.999185 0.03055496 -0.02637533 9474712 male
-2.53007 0.2585917 0.5806661 -0.6143371 -0.4001509 -0.6800508 6703944 male
-2.680561 0.3569218 0.6093972 0.3023091 0.037079 0.9524885 9268852 male
-2.710387 0.1005013 0.5490597 -0.7327192 -0.03394154 0.6796842 5066578 male
-2.894826 -0.09952389 0.5352092 -0.9595301 0.040431 0.2786886 6309701 male
-2.607746 -0.3372296 0.4110734 0.7679936 -0.1556988 -0.6212437 5651261 male
-2.670543 0.9221033 0.5283793 0.5811296 0.3354083 0.741478 8674650 male
-2.869953 -0.07256192 0.4818034 -0.6260862 -0.02603975 -0.7793189 7821910 male
-2.632875 -0.115108 0.5472908 0.2039296 -0.2285393 0.9519362 5716798 male
-2.852984 0.5409905 0.5012447 -0.9170988 0.06189577 0.3938257 7887960 male
-2.627208 -0.388326 0.3877176 0.2744398 0.05648056 -0.9599441 5389113 male
-2.601043 -0.4052874 0.446467 0.8992463 0.1752345 0.4008104 9269620 male
-2.910642 0.3296483 0.5941812 -0.06458253 -0.9944028 0.08361854 4272689 male
-2.830949 -0.2997798 0.4824793 0.9683278 -0.2319464 -0.09242358 5454130 male
-2.512862 0.388572 0.3869539 0.2041609 -0.6852583 -0.699099 7361107 male
-2.631657 0.3760544 0.3835608 0.5692904 -0.03092173 -0.8215548 8806236 male
-2.615782 0.07832962 0.5656968 0.4302795 -0.02170235 0.9024348 7565941 male
-2.606214 0.4038866 0.5315545 0.8592113 0.001071024 0.5116198 11769234 male
-2.659904 0.9666276 0.4082939 0.6339825 0.725453 -0.2679258 1313800 male
-2.906433 0.5854619 0.4139997 -0.6836843 -0.07187678 -0.7262296 7360839 male
-2.670801 0.867507 0.368092 0.5553828 -0.3073509 -0.772713 1379853 male
-2.743887 0.8594068 0.5427721 -0.3698245 0.2062682 0.9059157 8935763 male
-2.808906 -0.1225395 0.5054956 0.7570571 -0.2295523 -0.6116946 5719623 male
-2.902944 -0.13672 0.5068902 -0.940537 0.2668007 -0.2102557 8545889 male
-2.81561 0.3132336 0.5638102 -0.687519 -0.06556274 0.7232007 6773851 male
-2.772584 0.4923677 0.3456735 -0.1013949 -0.2410619 -0.9651986 10975857 male
-2.891457 -0.00776759 0.5129004 -0.991154 -0.1054543 -0.08057994 7624531 male
-2.883343 -0.4619298 0.4535675 -0.001075237 -0.9863964 -0.1643803 5786440 male
-2.7388 0.8645064 0.360157 -0.384308 -0.2459914 -0.889829 2431508 male
-2.666133 0.8677166 0.5289997 0.5961766 0.1763717 0.783241 8673107 male
-2.715033 0.1154153 0.4068141 -0.6347666 -0.5863106 -0.5033004 5855585 male
-2.72187 0.2023143 0.5912789 0.1476074 0.02718201 0.9886724 7170925 male
-2.620982 -0.4635504 0.3711733 -0.117644 -0.6326083 -0.7654846 2759192 male
-2.548357 0.3665515 0.4423062 -0.9762695 -0.1631135 -0.1424491 7692639 male
-2.751491 0.01827892 0.4979489 0.9418991 -0.3266826 -0.07813264 4075569 male
-2.865385 -0.2601677 0.5320685 0.2460445 -0.2768452 0.9288804 5913666 male
-2.58764 0.3552851 0.4616395 0.9971664 0.06467737 -0.03841993 10187380 male
-2.694195 0.7008289 0.4992385 0.3770328 0.2950924 0.8779332 8938336 male
-2.610475 0.05397902 0.5630457 0.4959283 -0.08665197 0.8640293 6645096 male
-2.914955 0.4832272 0.4012311 0.2234086 -0.4061671 -0.8860682 7095874 male
