# .PCD v0.7 - Point Cloud Data file format
VERSION 0.7
FIELDS x y z normal_x normal_y normal_z rgb label
SIZE 4 4 4 4 4 4 4 4
TYPE F F F F F F U U
COUNT 1 1 1 1 1 1 1 1
WIDTH 132
HEIGHT 1
VIEWPOINT 0 0 0 1 0 0 0
POINTS 132
DATA ascii
-2.838336 0.4660445 -0.4372042 -0.45193 0.1410417 0.8808329 9796212 male
-2.9412 0.04797007 -0.4802937 -0.9453026 0.04113203 0.3235911 8687244 male
-2.707579 0.08112126 -0.4563586 -0.1829146 -0.07331216 0.9803916 6645354 male
-2.937617 0.0003746441 -0.527104 -0.9325535 -0.1043104 -0.3456345 8216672 male
-2.826436 0.3527547 -0.4206752 -0.5173553 0.01453359 0.8556473 8940137 male
-2.708653 -0.3708321 -0.6087416 -0.984672 -0.08724948 -0.1510248 8281178 male
-2.871707 0.7087966 -0.6030037 -0.6254355 0.7761473 -0.08016073 7295814 male
-2.876858 0.6120812 -0.501793 -0.6102262 0.006327519 0.792202 10783107 male
-2.762927 0.8240099 -0.464415 -0.2973393 -0.1470036 0.9433872 7688524 male
-2.635336 0.1582743 -0.5801007 0.9186519 0.005519108 -0.3950294 7040371 male
-2.913765 -0.3454416 -0.5060334 0.6805104 0.04229628 0.7315167 8544353 male
-2.700071 0.8258801 -0.5742668 0.9345847 -0.3392095 -0.1071837 7027769 male
-2.685399 0.6213931 -0.6842812 0.4493271 0.1139918 -0.8860649 9398622 male
-2.789644 0.3270811 -0.4099875 -0.04183162 -0.1351973 0.9899353 9663859 male
-2.918103 0.2838611 -0.527873 -0.8964438 0.3422994 0.2814598 7896192 male
-2.873183 -0.1790209 -0.5222558 0.9465327 0.1523779 -0.2843535 7032396 male
-2.742723 -0.04887024 -0.5783573 -0.7258992 -0.07836168 -0.6833226 9005159 male
-2.978708 0.5580001 -0.5675431 -0.9351827 0.3539204 0.01317743 7427661 male
-2.652758 0.5021991 -0.5005883 0.8608581 -0.06903219 0.5041407 11374220 male
-2.898052 0.5077567 -0.5080337 -0.8769678 0.04580737 0.4783608 9072233 male
-2.808866 0.781825 -0.5394221 -0.9019368 -0.1004585 0.4200214 8805204 male
-2.923566 0.1004323 -0.4601175 -0.7732084 0.1547704 0.6149755 4407875 male
-2.68433 -0.4503583 -0.4959975 0.1620268 0.9041102 0.3953885 13279402 male
-2.604042 0.5543784 -0.6442075 -0.0613392 -0.309078 -0.9490565 10384235 male
-2.693059 0.01462707 -0.464008 -0.02319558 -0.1743418 0.984412 7566715 male
-2.756236 0.2720501 -0.6494462 -0.02302727 0.3002438 -0.9535846 7896448 male
-2.844791 0.4625875 -0.6584654 -0.3985692 -0.2289519 -0.8881012 9856869 male
-2.642355 0.2909254 -0.5237003 0.8598278 0.2520555 0.4440317 9672349 male
-2.644483 0.1582988 -0.4859043 0.7468755 0.1825651 0.6394114 6317161 male
-2.989553 0.3257264 -0.4476867 -0.3363464 0.5975221 0.7279 7033170 male
-2.850742 0.6274326 -0.6784604 -0.4105731 0.1934169 -0.8910778 10252643 male
-2.665424 0.4339915 -0.4709405 0.7997837 0.064918 0.5967677 11768466 male
-2.972613 -0.1958405 -0.5068766 -0.9911156 0.06460955 0.1162563 7428697 male
-2.984733 0.3008054 -0.4880226 0.8878346 -0.4594482 0.02563151 4664875 male
-2.838377 0.8747039 -0.5741828 -0.743952 -0.0253783 0.667751 8344140 male
-2.641508 0.5965897 -0.6072975 -0.9688807 -0.2470616 0.01518949 6046266 male
-2.911518 0.1759484 -0.4703324 -0.680339 0.2723013 0.6804344 5527382 male
-2.920061 0.5655963 -0.6069148 0.3650157 -0.5289813 -0.7661216 8280406 male
-2.653386 -0.2611942 -0.5379223 0.5503397 -0.258484 0.7939221 6902352 male
-2.73103 0.2642176 -0.6513316 0.04711281 0.2805444 -0.9586841 8356487 male
-2.790666 0.2008448 -0.6604679 -0.05886435 -0.005964682 -0.9982482 9081240 male
-2.551369 0.3097637 -0.5615276 0.948105 -0.3096824 0.07206787 6769994 male
-2.682343 0.9339491 -0.5996572 0.9343975 0.3008772 -0.1907203 1248008 male
-2.757849 0.5041025 -0.4391608 0.07872612 0.3474088 0.9344032 9468022 male
-2.828518 0.9228975 -0.571313 -0.9829372 0.1767205 0.05103265 3614496 male
-2.652539 -0.2529669 -0.6166797 0.6467433 -0.06827831 -0.7596454 6046267 male
-2.593749 0.6542481 -0.5684947 0.5849737 0.367487 0.7230209 11043961 male
-2.683203 0.0550986 -0.6079112 0.3056532 -0.1527982 -0.9398025 7304576 male
-2.716273 0.4769631 -0.4344888 0.3050408 0.2701017 0.9132333 9269100 male
-2.637947 0.5602176 -0.5279824 0.9480509 -0.08113527 0.3075981 9136226 male
-2.876627 0.6764326 -0.6409361 -0.586587 0.4628105 -0.6646218 8805970 male
-2.697908 0.1129839 -0.4545741 0.01298744 0.05711799 0.998283 6316130 male
-2.833004 0.007629381 -0.5654659 0.5577697 -0.3436397 -0.7555162 7495524 male
-2.678459 0.2083877 -0.4783021 0.4538543 0.1045552 0.8849206 7566715 male
-2.89091 0.6287011 -0.5537454 0.8549209 -0.3439317 0.3883571 5916481 male
-2.818118 0.9334561 -0.619936 -0.87542 0.2793566 -0.3944612 1642768 male
-2.880916 -0.1123189 -0.5241293 0.4688665 -0.05556354 -0.8815197 8347742 male
-2.643804 0.4771299 -0.5217219 0.9327939 0.01531013 0.3600849 9925742 male
-2.708587 0.7246945 -0.5567681 0.9283855 0.203717 0.310805 8412502 male
-2.951535 -0.4585158 -0.5513883 -0.2441257 -0.9404579 -0.2365196 5459275 male
-2.919361 0.1124824 -0.5785265 -0.8025436 -0.1697351 -0.5719386 6908529 male
-2.694439 -0.4287249 -0.5533717 -0.7900336 0.4849482 0.3750627 8674667 male
-2.660483 -0.3194906 -0.6136147 0.7029683 -0.1773627 -0.6887511 5455162 male
-2.882853 0.6968511 -0.6110371 -0.6258092 0.7121435 -0.3181423 8214603 male
-2.806505 0.01464999 -0.5272418 0.9140441 -0.3571775 -0.1922177 4997442 male
-2.636723 -0.4763273 -0.581311 0.4246757 -0.809207 -0.4059984 3743770 male
-2.608367 0.4968631 -0.6233754 -0.8169258 0.04221176 0.575196 8282973 male
-2.731332 0.6412778 -0.4908702 0.154274 0.4693555 0.869428 9203043 male
-2.75887 -0.02951413 -0.5342342 -0.9767712 -0.1303886 0.1700494 6703941 male
-2.648166 -0.4607246 -0.6234482 0.9078323 -0.0174618 -0.4189697 7031114 male
-2.888659 0.636079 -0.5282313 -0.3341226 -0.314717 0.8884342 10257537 male
-2.967543 0.391045 -0.5314638 0.9067512 0.25869 0.332989 7099731 male
-2.815222 0.5143142 -0.4411961 -0.12284 0.239016 0.9632143 9993079 male
-2.740819 0.9295759 -0.6623096 0.1889076 0.2635918 -0.9459562 2037520 male
-2.652368 0.4863736 -0.637415 0.7701423 -0.2471146 -0.5880606 9726315 male
-2.893133 0.6852012 -0.6139654 -0.7077645 0.5876566 -0.3920832 8675666 male
-2.658963 -0.3614964 -0.5742491 0.9368635 -0.19869 0.2877654 7559514 male
-2.90817 0.4533822 -0.5809126 -0.9677169 -0.1556827 -0.1982093 9200475 male
-3.024761 0.305579 -0.404061 -0.7082692 0.4017148 0.5804998 5521474 male
-2.776589 0.9837477 -0.5448509 -0.3667495 0.906207 0.2104367 2693400 male
-2.9649 -0.2396553 -0.5439615 -0.854618 -0.04202336 -0.517554 5190702 male
-2.822902 0.1644883 -0.4478963 -0.02263904 0.05665557 0.9981371 7039339 male
-3.005722 0.507285 -0.5950117 -0.9564682 0.2739502 -0.1005979 6046267 male
-2.950945 0.3256081 -0.4183042 0.2596205 -0.8705725 0.4179722 5982538 male
-2.96395 -0.2547483 -0.4969388 -0.879095 -0.1797149 0.4414686 7035226 male
-2.629776 0.1841421 -0.5637721 0.9713549 0.02245103 -0.2365705 7698815 male
-2.945604 -0.07305689 -0.5033168 -0.9781501 0.1124069 -0.1748916 8543323 male
-2.858685 -0.1031654 -0.4635138 0.7617908 -0.3212003 0.5625879 6571594 male
-2.687811 0.8859283 -0.6153904 0.9024602 -0.1761469 -0.393113 1050624 male
-2.875098 0.2936301 -0.4742585 -0.620133 0.1447086 0.7710346 5724509 male
-2.700401 0.7299089 -0.600541 0.7489905 0.6578859 -0.07873593 9726820 male
-3.023576 0.2985791 -0.4143142 -0.4685197 -0.8494722 -0.242665 6310477 male
-2.625748 0.1555091 -0.538629 0.998653 0.03988165 0.03319119 9805222 male
-2.583707 0.2757363 -0.5125225 -0.8779193 -0.3120343 -0.3631697 6437692 male
-2.708348 0.354554 -0.4218712 0.527244 0.002811529 0.8497093 9400694 male
-2.716113 0.1135225 -0.455878 -0.1608133 0.0004360828 0.9869848 5855580 male
-2.946941 -0.09429157 -0.4794605 -0.950263 0.05801264 0.305998 6309701 male
-2.651064 -0.3158014 -0.6004636 0.8937131 -0.2182573 -0.3919703 5783102 male
-2.728884 0.9355291 -0.487188 0.3699784 0.4035659 0.8368098 6572611 male
-2.928357 -0.07607467 -0.5274815 -0.6711183 0.03421508 -0.7405603 7689556 male
-2.649584 -0.1461494 -0.519487 0.9209329 -0.1123342 0.3731804 8281181 male
-2.91322 0.5378473 -0.5903475 -0.9874566 -0.1437994 -0.06520227 9332317 male
-2.692773 -0.2523462 -0.537172 -0.2949498 -0.2042094 0.9334362 6506826 male
-2.650506 -0.4114655 -0.5877705 0.9922613 0.08618347 0.08938675 9927808 male
-2.949695 0.3294678 -0.4380279 0.9292456 -0.05480238 -0.3653757 6308935 male
-2.886711 -0.2965508 -0.5295289 0.9633062 -0.2442985 -0.1111722 5454130 male
-2.561493 0.3921075 -0.6543645 0.2181428 -0.6357595 -0.7404212 7032913 male
-2.6486 0.3394791 -0.6143009 0.797237 -0.186529 -0.5741256 8937831 male
-2.642717 0.06335966 -0.4797259 0.7832993 -0.04565944 0.6199656 6580334 male
-2.693417 0.1469669 -0.6469582 0.4403425 -0.1518726 -0.8848916 6910072 male
-2.707406 0.9692837 -0.6113718 0.6192032 0.7309821 -0.2867973 1313800 male
-2.95709 0.6062769 -0.5950516 -0.8517439 0.007447713 -0.5239055 7689543 male
-2.718894 0.8701762 -0.6514525 0.5315207 -0.3016531 -0.791512 1379853 male
-2.776225 0.851609 -0.471588 -0.3240332 0.222508 0.9195068 7818826 male
-2.862279 -0.1189749 -0.5113437 0.7358395 -0.2505597 -0.6290947 5719623 male
-2.954915 -0.1484475 -0.5277631 -0.78359 0.3711015 -0.4982674 7163716 male
-2.858152 0.2970965 -0.4576002 -0.5898998 -0.01987758 0.8072318 5724765 male
-2.85757 0.51885 -0.6634461 -0.4772962 -0.2001629 -0.855642 10844531 male
-2.942707 -0.002841983 -0.5023835 -0.9946759 -0.09120401 -0.04797721 7624531 male
-2.973081 -0.4517725 -0.529062 -0.8528377 -0.3228465 -0.410412 6704199 male
-2.787094 0.8666808 -0.6571297 -0.4118792 -0.2468195 -0.8771748 2431508 male
-2.720574 0.8695174 -0.4836496 0.4487612 0.3004208 0.8416417 8672594 male
-2.764847 0.1241449 -0.6307216 -0.5077901 -0.7140376 -0.4819746 8357004 male
-2.767051 0.1516288 -0.4402737 0.2749004 -0.5485791 0.7896143 7237744 male
-2.682575 -0.4732961 -0.6079186 -0.188282 -0.9806273 0.05403681 4863801 male
-2.589165 0.3586194 -0.5598444 -0.8649338 0.3796403 0.3282722 8610402 male
-2.802846 0.02082074 -0.5222906 0.9337143 -0.3424868 -0.1043092 4075569 male
-2.919431 -0.2554138 -0.4800774 0.2671694 -0.2570938 0.9287213 5913666 male
-2.637498 0.3716682 -0.5424343 0.9957113 0.02559645 0.08890314 11372939 male
-2.791276 0.7330989 -0.5201135 -0.5888453 -0.09730826 0.8023667 11043190 male
-2.760398 0.04158426 -0.4987273 -0.7996811 -0.2111062 0.5620893 4867394 male
-2.947819 0.5599052 -0.6047891 -0.314453 -0.2315313 -0.9206045 8674130 male
