# .PCD v0.7 - Point Cloud Data file format
VERSION 0.7
FIELDS x y z normal_x normal_y normal_z rgb label
SIZE 4 4 4 4 4 4 4 4
TYPE F F F F F F U U
COUNT 1 1 1 1 1 1 1 1
WIDTH 132
HEIGHT 1
VIEWPOINT 0 0 0 1 0 0 0
POINTS 132
DATA ascii
-2.846205 0.3483913 -0.4464 -0.5271026 -0.01676672 0.8496363 8414567 male
-2.959369 0.04988754 -0.504298 -0.9465818 0.05530842 0.3176851 8687244 male
-2.716423 0.1036652 -0.4811831 -0.07755415 -0.0165279 0.9968511 6316901 male
-2.95611 -0.004002263 -0.5485363 -0.9393839 -0.09149934 -0.3304327 8281948 male
-2.839767 0.3100469 -0.446662 -0.445146 -0.2432553 0.8617841 6379349 male
-2.711913 -0.3487327 -0.6180655 -0.9802662 -0.1771195 0.08778814 7624019 male
-2.892116 0.7053332 -0.6444504 -0.6038061 0.6363665 -0.4800582 7492681 male
-2.883987 0.6076691 -0.5071471 -0.435399 0.2549757 0.8633743 10518647 male
-2.80339 0.8463124 -0.4990839 -0.4018133 0.02231449 0.9154497 7030082 male
-2.65255 0.1627063 -0.6087398 0.9089711 0.03184461 -0.415641 7040371 male
-2.926486 -0.3482095 -0.54124 0.8992067 -0.004145541 0.4375045 8676715 male
-2.731837 0.8132959 -0.591333 0.9520838 -0.3045527 -0.02800396 7160636 male
-2.722825 0.5669296 -0.7131761 0.2004386 -0.2464912 -0.9481912 10975605 male
-2.81285 0.3027066 -0.4392294 -0.1793007 -0.2463343 0.952455 7826287 male
-2.935893 0.2904227 -0.5976182 -0.9300469 0.2885803 -0.2274517 7566199 male
-2.90662 -0.09428067 -0.5552299 0.3323189 -0.133879 -0.9336169 9333869 male
-2.751483 -0.04775711 -0.6038936 -0.7355983 -0.1139563 -0.6677642 9005159 male
-2.997883 0.5726722 -0.5864066 -0.9433103 0.3258384 0.06320536 7560530 male
-2.800862 0.6964313 -0.5378757 0.01525809 0.3965833 0.917872 7952727 male
-2.865163 0.5081937 -0.4701557 -0.402834 0.1443035 0.9038259 9927286 male
-2.8292 0.7729805 -0.5556286 -0.7902293 -0.06734713 0.6090993 9529184 male
-2.940866 0.1020671 -0.4842221 -0.7740883 0.1659748 0.6109334 4407875 male
-2.676172 -0.439585 -0.5221193 -0.06377843 0.9076632 0.414825 14923714 male
-2.634125 0.5583506 -0.6796724 -0.1488841 -0.2988613 -0.942611 10384235 male
-2.706151 0.01401034 -0.491671 -0.05572932 -0.172855 0.9833694 7040363 male
-2.807583 0.2821827 -0.6699256 -0.06920014 0.305883 -0.9495509 8489098 male
-2.831341 0.3883796 -0.6709301 0.04092008 -0.2612356 -0.9644073 9332573 male
-2.662871 0.3086752 -0.554791 0.9392501 0.05222236 0.3392375 7889763 male
-2.683388 0.158806 -0.4959696 0.4248292 0.2554039 0.8684981 7171957 male
-3.06735 0.2859472 -0.4799789 -0.943713 0.02167437 0.3300545 6113095 male
-2.881137 0.6049089 -0.7013264 -0.4061501 0.03611626 -0.9130924 10843499 male
-2.686171 0.4412068 -0.4929203 0.8004805 0.08785731 0.5928845 10847876 male
-2.952931 -0.1877481 -0.5845395 -0.201916 0.2215164 -0.9540232 7953235 male
-3.019187 0.2970017 -0.5334056 0.8338542 -0.4154995 -0.3633832 6110268 male
-2.86167 0.8547713 -0.5914812 -0.7346091 0.4146492 0.5370433 9198426 male
-2.669949 0.6115037 -0.6397955 -0.9563279 -0.279572 0.08530295 6177596 male
-2.930691 0.1974644 -0.5072662 -0.7168763 0.2543897 0.6491334 5856354 male
-2.935202 0.6214911 -0.6428597 0.2854654 -0.3359671 -0.897572 6241594 male
-2.669747 -0.2408724 -0.5550564 0.09397291 -0.1896081 0.9773524 6572875 male
-2.791829 0.2760909 -0.6728545 -0.06219706 0.3053779 -0.9501978 8685454 male
-2.78387 0.2057227 -0.6886419 -0.1188675 0.03946843 -0.9921254 9147030 male
-2.562363 0.3208857 -0.6163885 0.9414348 -0.2668249 -0.2061673 7163465 male
-2.724292 0.9114724 -0.6619695 0.8542423 -0.01022209 -0.5197746 1050116 male
-2.819735 0.6085465 -0.4881904 0.1444343 0.414295 0.8986091 9203051 male
-2.861135 0.9226387 -0.600126 -0.9833605 0.1535532 0.09707513 3614496 male
-2.642449 -0.2507765 -0.6294709 0.8455578 -0.08337528 -0.5273334 5521212 male
-2.616556 0.6525961 -0.6060737 0.6494862 0.1883755 0.7366698 11306876 male
-2.737013 0.01111844 -0.6293176 -0.3446972 -0.1611299 -0.9247815 7887450 male
-2.819943 0.6278661 -0.4988774 0.07678203 0.520341 0.8504996 9137251 male
-2.65965 0.5650391 -0.5574134 0.9628836 -0.05514527 0.2642239 9136226 male
-2.90091 0.6476371 -0.6772943 -0.5748305 0.1356571 -0.8069492 9727331 male
-2.681975 0.09398027 -0.4861849 0.3712412 0.02325577 0.9282452 7237746 male
-2.942654 0.1849064 -0.587005 -0.9444115 0.1157338 -0.3077217 7500922 male
-2.667457 0.2176564 -0.5230487 0.6436864 0.129362 0.7542766 6514027 male
-2.918327 0.6305231 -0.5841147 -0.08067968 -0.8249041 0.5594856 7690326 male
-2.853559 0.9317126 -0.6495627 -0.9017523 0.2434713 -0.3571617 1642768 male
-2.896526 -0.1205793 -0.5417178 0.6104824 -0.064773 -0.7893768 6968146 male
-2.660768 0.4943763 -0.5569643 0.9533611 -0.0345573 0.2998472 11176070 male
-2.733985 0.7238182 -0.5841232 0.898765 0.3002139 0.31952 8149587 male
-2.991359 -0.4465298 -0.5666346 -0.8609245 -0.2289546 -0.4543003 6901584 male
-2.929428 0.0955081 -0.6068661 -0.698146 -0.2199548 -0.6813311 6579052 male
-2.686733 -0.431424 -0.561497 -0.8212613 0.465839 0.3294296 11241361 male
-2.669184 -0.3157184 -0.6442243 0.3826005 -0.1398397 -0.9132698 4863025 male
-2.904342 0.7020072 -0.6266391 -0.640506 0.7504503 -0.1630225 7821646 male
-2.817593 0.03711672 -0.5632765 0.8965495 -0.3312486 -0.2940635 5264469 male
-2.626979 -0.4730277 -0.5951084 0.4384485 -0.8080259 -0.3935189 3743770 male
-2.640085 0.5043272 -0.6548178 -0.8484634 -0.09208515 0.5211816 8872034 male
-2.752883 0.6077575 -0.4964616 -0.04296995 0.3868971 0.9211212 9729387 male
-2.695191 0.02566853 -0.489034 0.1106771 -0.1541385 0.9818309 6711406 male
-2.66958 -0.3997643 -0.649248 0.5409155 -0.008007892 -0.8410388 5783360 male
-2.915696 0.6439943 -0.5622791 0.426819 -0.4197041 0.8010456 9270900 male
-2.990345 0.4066822 -0.6218871 0.5974159 -0.6051037 -0.5262545 7296086 male
-2.90922 0.5297636 -0.5165447 -0.8164976 0.0432597 0.5757259 10257537 male
-2.778502 0.9282529 -0.6958283 0.1321321 0.2344349 -0.9631103 2037520 male
-2.66213 0.4650381 -0.6230538 0.9493227 -0.1754678 -0.2607631 9266531 male
-2.890465 0.6893063 -0.6617268 -0.5304579 0.5562034 -0.6397282 8082762 male
-2.649248 -0.3081364 -0.5874473 0.8644502 -0.197651 0.4622337 7690585 male
-2.93188 0.4718467 -0.5989234 -0.9827176 -0.1274529 -0.1342456 9727078 male
-3.058287 0.284191 -0.4314077 0.04666776 0.746636 0.6635939 7428696 male
-2.809562 0.9856519 -0.5785505 -0.3794864 0.9036487 0.198517 2693400 male
-2.989709 -0.2541734 -0.5548784 -0.9739236 -0.1037354 -0.2017717 5324345 male
-2.82589 0.1582486 -0.4710432 -0.06118917 -0.1140388 0.9915901 6513763 male
-3.029912 0.5080824 -0.6104655 -0.9441152 0.3091019 -0.1144659 6046267 male
-2.992205 0.3033799 -0.4541706 0.216468 -0.9762666 0.006726215 6903384 male
-2.988149 -0.2429927 -0.5636345 -0.908497 -0.0581054 -0.413832 4863535 male
-2.647372 0.188607 -0.5925081 0.9649245 0.04867326 -0.2579763 7698815 male
-2.961564 -0.08762453 -0.5378247 -0.7808669 0.1495228 -0.6065393 8544865 male
-2.877739 -0.09287739 -0.4851571 0.777952 -0.315059 0.5436254 5914689 male
-2.715874 0.8765898 -0.6247959 0.7680461 -0.3720776 0.5212134 2559767 male
-2.919234 0.3368995 -0.6191508 -0.8489267 -0.03538943 -0.5273245 9002592 male
-2.729698 0.7321 -0.629982 0.7276064 0.6728857 -0.1334682 9726820 male
-3.054534 0.2671268 -0.4288769 0.2554921 -0.7180673 -0.6473817 5849667 male
-2.669043 0.1920198 -0.5168995 0.636878 0.23269 0.7350115 6908011 male
-2.56657 0.2666211 -0.5510233 -0.8438439 -0.4743392 -0.2508579 6635844 male
-2.715669 0.3447332 -0.4545038 0.649914 -0.06219738 0.7574584 8282214 male
-2.67914 0.1003973 -0.4876007 0.4388309 0.0563231 0.8968027 6711405 male
-2.969345 -0.1109873 -0.4989091 -0.9520347 0.06169089 0.2997069 7361876 male
-2.644857 -0.306962 -0.605567 0.981352 -0.19002 0.02899535 8085859 male
-2.739233 0.9283212 -0.528489 0.6797932 0.3622029 0.6377227 8674650 male
-2.96273 -0.07848324 -0.5360116 -0.8589135 0.1203433 -0.4977801 8018776 male
-2.65905 -0.130378 -0.5380154 0.8759395 -0.1045616 0.470953 9463143 male
-2.934448 0.546518 -0.5928882 -0.9674712 -0.1300585 0.2169893 7622475 male
-2.682661 -0.2775237 -0.5648883 -0.17411 -0.2193604 0.9599826 5520188 male
-2.643502 -0.4081378 -0.6046512 0.9900482 0.1123463 0.08475222 9927808 male
-2.99541 0.304381 -0.4662427 0.2348706 -0.9499332 -0.2060649 5784131 male
-2.896382 -0.2455646 -0.5285278 0.8620275 -0.2389439 0.4470061 7164244 male
-2.588529 0.4009549 -0.695913 0.151952 -0.5604418 -0.8141349 7032913 male
-2.666564 0.3677492 -0.631565 0.8723102 0.1436526 -0.4673744 8280149 male
-2.755878 0.07554555 -0.4979469 -0.5083153 -0.188339 0.8403237 4935244 male
-2.695177 0.178702 -0.6645461 0.6366941 -0.02812883 -0.7706032 6514027 male
-2.743591 0.9705545 -0.6481237 0.5835366 0.7356248 -0.3440076 1313800 male
-2.977772 0.5841051 -0.623149 -0.6829281 -0.01999624 -0.7302119 7360839 male
-2.765453 0.8815455 -0.6934692 0.320794 -0.2026218 -0.925222 1380621 male
-2.818092 0.8654019 -0.5060995 -0.4375129 0.1967815 0.8774164 8673618 male
-2.951609 -0.01891659 -0.5567117 -0.8824378 -0.07963993 -0.4636389 8150619 male
-2.973644 -0.1162226 -0.5119383 -0.9861809 0.1226899 0.11133 8085084 male
-2.863937 0.3011529 -0.4699606 -0.5586659 -0.1178958 0.8209707 6514791 male
-2.897718 0.5322835 -0.6749029 -0.6306958 -0.2127255 -0.7463048 11107959 male
-2.961023 -0.006727049 -0.5251417 -0.995362 -0.08673135 -0.04161926 7361103 male
-3.004607 -0.4526347 -0.5364162 -0.8023617 -0.1875214 -0.5666141 6375495 male
-2.82272 0.8644737 -0.6860062 -0.4502922 -0.2880855 -0.8451294 2431508 male
-2.746899 0.8873243 -0.5199575 0.3848179 0.1412876 0.9121146 6966089 male
-2.772169 0.1112065 -0.6478099 -0.5028374 -0.6004915 -0.6217431 6383469 male
-2.771162 0.2053306 -0.4602208 0.4007869 -0.002899651 0.9161667 7566715 male
-2.674497 -0.4708553 -0.626544 -0.184038 -0.9826362 0.02358042 4798008 male
-2.602517 0.358504 -0.6017624 -0.8329011 0.3000601 0.4650159 8610402 male
-2.811476 0.04359322 -0.5472589 0.9663004 -0.2531663 -0.04658688 3026479 male
-2.931185 -0.281383 -0.5156184 0.3562146 -0.2573139 0.8982765 7097670 male
-2.798331 0.4685108 -0.6876119 -0.192108 -0.2486796 -0.9493434 10780530 male
-2.829102 0.7362595 -0.5561554 -0.71837 -0.02338097 0.6952682 9530209 male
-2.770795 0.02625726 -0.5299473 -0.8217191 -0.2476438 0.5132741 4998464 male
-2.989088 0.4391512 -0.6427252 0.3989912 -0.5867738 -0.7046294 8346718 male
