# .PCD v0.7 - Point Cloud Data file format
VERSION 0.7
FIELDS x y z normal_x normal_y normal_z rgb label
SIZE 4 4 4 4 4 4 4 4
TYPE F F F F F F U U
COUNT 1 1 1 1 1 1 1 1
WIDTH 132
HEIGHT 1
VIEWPOINT 0 0 0 1 0 0 0
POINTS 132
DATA ascii
-2.786898 0.4619964 0.5988129 -0.5235327 0.1435112 0.8398321 9598321 male
-2.875647 0.04488321 0.5382584 -0.976109 0.02236899 0.2161269 8687244 male
-2.699068 0.09622358 0.5544509 -0.8597534 -0.09614555 0.5015776 5393748 male
-2.866127 -0.0009502405 0.4903881 -0.8865259 -0.09922615 -0.4519137 8216672 male
-2.772346 0.3328621 0.6163663 -0.5779963 -0.1060821 0.8091149 8151396 male
-2.604889 -0.3854676 0.4278924 -0.8967746 -0.002196637 -0.4424823 7162182 male
-2.829501 0.6866607 0.4053562 -0.6355312 0.6068989 -0.4772565 8083786 male
-2.839189 0.6081756 0.485615 -0.7515098 -0.5000508 0.4303279 8283741 male
-2.726774 0.855112 0.5487137 -0.5447975 0.2646642 0.7957063 6505023 male
-2.561156 0.1930729 0.4827983 0.9729264 0.05184138 -0.2252257 7237750 male
-2.83341 -0.3540308 0.494641 0.854416 -0.008761769 0.5195157 8676715 male
-2.645736 0.8281837 0.4451755 0.9353823 -0.3505915 -0.04632109 6897978 male
-2.633593 0.5959631 0.3470331 0.2470049 -0.0194269 -0.9688195 10384488 male
-2.736338 0.3294025 0.6300443 -0.1182061 -0.1304995 0.9843765 9663859 male
-2.848261 0.2882785 0.4527874 -0.9049751 0.2705444 -0.3283685 7566199 male
-2.803428 -0.1642919 0.4967959 0.9287944 0.1630794 -0.3327853 7032652 male
-2.67218 -0.05584192 0.4786442 -0.8482702 -0.05917173 -0.5262474 8478045 male
-2.917507 0.5771297 0.4539738 -0.9389783 0.3415673 -0.04063855 7560530 male
-2.688599 0.6419007 0.5473462 0.01036512 0.4851951 0.8743444 9400422 male
-2.82218 0.4903929 0.5581483 -0.7784406 0.05076084 0.6256625 9796470 male
-2.750409 0.7751774 0.4906819 -0.8552622 -0.03358142 0.5171062 9529184 male
-2.875933 0.07480662 0.5159327 -0.9993541 0.03211606 -0.01612497 6645352 male
-2.61622 -0.447933 0.5622894 -0.2608019 0.8707532 0.4168589 16772087 male
-2.545001 0.4932885 0.4000471 -0.6366773 -0.2397018 -0.7329291 9002587 male
-2.687099 -0.004101253 0.5159749 -0.9546179 -0.2290585 0.1903599 3942955 male
-2.706292 0.2767247 0.3934346 0.03261751 0.3033253 -0.9523286 8816782 male
-2.738204 0.3867474 0.3905863 0.1524885 -0.2776194 -0.9485118 9332573 male
-2.602854 0.3442813 0.5688981 0.7666433 -0.06746643 0.6385188 11899540 male
-2.564185 0.1477689 0.5477653 0.9003455 0.08868445 0.4260435 9344927 male
-2.969949 0.3216594 0.5765995 -0.5401397 0.6459897 0.5393946 6309194 male
-2.787132 0.6003666 0.3473594 -0.3025239 -0.001997162 -0.9531397 10843499 male
-2.60049 0.4623108 0.5565947 0.8028997 0.1043496 0.5869099 10913669 male
-2.898091 -0.1964085 0.4868925 -0.9651649 0.1291537 -0.2275437 7362903 male
-2.945547 0.3112336 0.5247116 0.8579381 -0.4054262 -0.3155501 6702917 male
-2.781682 0.857619 0.4409862 -0.7386345 0.2445158 0.6281968 9066071 male
-2.574919 0.5656214 0.4497955 -0.9620168 -0.218034 0.1642704 8741211 male
-2.84827 0.1728299 0.5561278 -0.7523085 0.2443212 0.6118326 5527382 male
-2.872177 0.5102496 0.4369817 0.8735637 -0.3778105 -0.3068316 9204587 male
-2.561613 -0.1946982 0.4405685 0.7168016 0.1925255 -0.6701711 7163467 male
-2.653993 0.2485619 0.3887809 0.1461662 0.2453474 -0.9583528 7897222 male
-2.652408 0.1732031 0.3818142 0.1701225 -0.1410107 -0.9752816 8884631 male
-2.48342 0.344445 0.4594294 0.7120779 -0.5125067 -0.4798771 7689810 male
-2.627547 0.9333304 0.4153059 0.9420267 0.2962418 -0.1575647 1248008 male
-2.752242 0.5750237 0.5808312 0.07997201 0.195865 0.9773645 10059376 male
-2.775172 0.9228111 0.4353056 -0.9856809 0.1664778 -0.02679837 3614496 male
-2.58275 -0.2325792 0.4222326 0.309286 0.01492409 -0.950852 5190702 male
-2.56045 0.6495684 0.4828598 0.1034215 0.003331504 0.9946321 11242625 male
-2.629776 0.06201875 0.4344792 0.09157081 -0.2132846 -0.9726893 9410976 male
-2.738698 0.5995783 0.570626 0.1894635 0.3689083 0.9099507 9927538 male
-2.580955 0.6151695 0.4897452 0.6118053 -0.631416 0.4764536 9269356 male
-2.810235 0.643789 0.3676593 -0.4862364 0.1019616 -0.8678583 9727331 male
-2.659691 0.1204751 0.5884476 -0.2890712 -0.02148187 0.9570665 5724509 male
-2.757916 0.008444373 0.4648497 0.6428121 -0.3120141 -0.6995997 7495524 male
-2.634894 0.2423991 0.5814642 0.4505814 -0.1357833 0.8823487 7040371 male
-2.835242 0.6334104 0.4679398 0.8329651 -0.411948 0.3694156 6705486 male
-2.761768 0.9291441 0.3866743 -0.8508092 0.231016 -0.4719698 1642768 male
-2.805248 -0.1369364 0.4992592 0.792159 0.05923135 -0.6074337 6836564 male
-2.689315 0.5204206 0.5971013 -0.002769135 0.3684697 0.9296356 9598833 male
-2.652757 0.73399 0.4605418 0.954077 0.250845 0.1637495 8215123 male
-2.85529 -0.4573927 0.4452999 0.2784456 -0.8235489 -0.4942018 4206380 male
-2.843749 0.1122189 0.4460748 -0.7337106 -0.1647746 -0.6591798 6908529 male
-2.603323 -0.4158275 0.4870715 -0.8785588 0.3514255 0.3234726 9464693 male
-2.558642 -0.302538 0.4759988 0.9419661 -0.2053905 0.2655456 8085344 male
-2.833564 0.6686953 0.3965316 -0.6945634 0.3995143 -0.5983058 8740691 male
-2.728373 0.03749577 0.4952951 0.931142 -0.30051 -0.2065632 5264469 male
-2.564045 -0.4700407 0.4523144 -0.005656599 -0.9982822 -0.05831525 4271656 male
-2.533728 0.4840905 0.4206062 -0.6904034 0.2324495 0.6850623 7492433 male
-2.684146 0.6843812 0.5192319 0.1464915 0.5127376 0.8459553 8479577 male
-2.629515 0.03652183 0.5850759 -0.1603405 -0.1580824 0.9743208 7302769 male
-2.546937 -0.4545634 0.4368257 0.9626442 -0.009930758 -0.2705873 7032145 male
-2.837155 0.6403086 0.4772439 0.6050104 -0.2653703 0.7506936 8874342 male
-2.910561 0.408801 0.430695 0.6271896 -0.6498758 -0.4292956 7296086 male
-2.813881 0.5127031 0.5663539 -0.7043492 0.1013069 0.7025874 9335661 male
-2.681906 0.9225853 0.3497387 0.246437 0.1810542 -0.9520968 2037520 male
-2.583199 0.474319 0.4298896 0.9026632 -0.2592416 -0.3435009 10055280 male
-2.834821 0.6908426 0.4238712 -0.6310788 0.7385368 -0.2372828 7755853 male
-2.577631 -0.333922 0.4919697 0.4574611 -0.1999892 0.8664488 7558490 male
-2.848269 0.4700758 0.4484745 -0.960336 -0.1465708 -0.2372169 9727078 male
-2.997123 0.2978989 0.6298464 -0.5447761 0.6015154 0.5842929 6308167 male
-2.725558 0.9864883 0.4594331 -0.386852 0.9161027 0.1053628 2693400 male
-2.89511 -0.2596688 0.4758154 -0.9515209 -0.1003161 -0.2907657 5324345 male
-2.749711 0.1564672 0.5899202 -0.1683554 -0.1366671 0.9762062 6513763 male
-2.957363 0.4804453 0.4211237 -0.9313093 0.05157309 -0.3605594 6242101 male
-2.919346 0.326066 0.6042448 0.9956283 0.02832926 -0.08900443 5323070 male
-2.892715 -0.2484526 0.4672722 -0.8667881 -0.05396752 -0.4957478 4863535 male
-2.564228 0.2201353 0.470053 0.9460862 -0.007381277 -0.3238309 7239551 male
-2.86297 -0.09569648 0.4929227 -0.5929138 0.1694749 -0.7872303 8083802 male
-2.792813 -0.1066132 0.5572823 0.6941964 -0.3341751 0.6375095 6571594 male
-2.627882 0.8845082 0.4171662 0.9643437 -0.1854403 -0.1888202 919042 male
-2.830166 0.3347109 0.4331667 -0.7847818 -0.05661509 -0.6171809 9002592 male
-2.654868 0.717537 0.3960248 0.2609424 0.5785369 -0.7727898 6638401 male
-2.99668 0.2925629 0.6174222 -0.2163235 -0.8682924 -0.4463995 5918030 male
-2.554919 0.1506502 0.5078309 0.9981377 0.05614549 0.02385213 9474712 male
-2.487612 0.2663757 0.5559421 -0.8493851 -0.310042 -0.4271052 7489096 male
-2.669857 0.3624282 0.6306625 0.2610607 0.04451325 0.9642956 9268852 male
-2.674962 0.1153249 0.582353 -0.4987805 -0.06483868 0.8642997 4933451 male
-2.873699 -0.1061019 0.5471005 -0.9509473 0.05562925 0.3043098 6966606 male
-2.571825 -0.3492901 0.4372968 0.8214833 -0.1402141 -0.5527251 5917002 male
-2.654924 0.9261627 0.5156939 0.7250746 0.3340022 0.6022535 8148563 male
-2.876078 -0.07710847 0.5110069 -0.963162 0.1152425 -0.2429778 8675165 male
-2.608987 -0.08573422 0.5676252 0.2475208 -0.1036249 0.9633251 6307903 male
-2.851168 0.5188156 0.4797146 -0.9879279 0.003144452 0.1548826 7296084 male
-2.575331 -0.3864493 0.4246575 0.5925917 -0.07246666 -0.8022366 5061179 male
-2.564134 -0.4043555 0.4852478 0.7740723 0.3997957 0.4908924 8808554 male
-2.925643 0.3198253 0.5939003 0.444609 -0.8819848 -0.156287 6309447 male
-2.808877 -0.2531796 0.5154881 0.7146724 -0.2488923 0.6536788 6769742 male
-2.518532 0.5280509 0.4061318 0.4184593 -0.1613974 -0.8937799 6701629 male
-2.612015 0.3824189 0.40712 0.602936 -0.01964769 -0.7975476 8806236 male
-2.658102 0.08929738 0.5849617 -0.3773274 -0.1229152 0.9178866 6249823 male
-2.58592 0.1922927 0.4288892 0.8040262 0.007211982 -0.5945501 6842992 male
-2.652146 0.9671256 0.3989293 0.6299008 0.7112527 -0.3120011 1313800 male
-2.895025 0.615899 0.4186058 -0.7585783 -0.08645621 -0.6458206 7887439 male
-2.669873 0.8759786 0.3560658 0.4231614 -0.2545013 -0.8695766 1380621 male
-2.736564 0.8482368 0.5432937 -0.4301158 -0.008547972 0.9027333 7360071 male
-2.813015 -0.05901143 0.4687963 0.1814953 -0.1798981 -0.9667968 9730419 male
-2.883323 -0.1215253 0.52153 -0.9931007 0.1157139 0.01900928 8085084 male
-2.78758 0.2824691 0.5844052 -0.5724416 -0.133716 0.808969 6644838 male
-2.776642 0.5017489 0.3655049 -0.2966863 -0.259003 -0.9191815 9988451 male
-2.873492 -0.01095321 0.5152766 -0.982887 -0.1063454 -0.150412 7361103 male
-2.866609 -0.4611823 0.4539717 0.01370097 -0.98388 -0.1783043 5523268 male
-2.727878 0.8598288 0.3577104 -0.3533334 -0.3291557 -0.8756781 2431508 male
-2.664369 0.8825037 0.5286273 0.4893714 0.2760102 0.8272448 8608087 male
-2.687395 0.1038631 0.4378181 -0.6422533 -0.416098 -0.6437183 6514027 male
-2.703762 0.2071804 0.6086043 0.179599 0.01727713 0.9835882 7171957 male
-2.592637 -0.4650535 0.4365351 -0.5245447 -0.8498721 -0.05069893 5586500 male
-2.511272 0.3883196 0.4085312 -0.2543967 -0.6382632 -0.7265689 10122612 male
-2.724259 0.04359854 0.5121627 0.9720057 -0.2296288 0.04975466 3026479 male
-2.840487 -0.2872501 0.5200794 0.2710548 -0.2617595 0.9262889 7097670 male
-2.609599 0.3319504 0.4155303 0.5086966 -0.2250453 -0.8310128 7556428 male
-2.622146 0.6597945 0.5085334 0.3671893 0.5504651 0.7497734 9334629 male
-2.640277 0.03862084 0.582826 -0.3222624 -0.1586087 0.9332686 7105644 male
-2.907915 0.4493143 0.4027374 0.381751 -0.6567805 -0.6503119 8608600 male
