# .PCD v0.7 - Point Cloud Data file format
VERSION 0.7
FIELDS x y z normal_x normal_y normal_z rgb label
SIZE 4 4 4 4 4 4 4 4
TYPE F F F F F F U U
COUNT 1 1 1 1 1 1 1 1
WIDTH 132
HEIGHT 1
VIEWPOINT 0 0 0 1 0 0 0
POINTS 132
DATA ascii
-2.787658 0.4620097 0.5999279 -0.5265074 0.145654 0.8376006 9598321 male
-2.875711 0.04422032 0.5391049 -0.9770741 0.01983476 0.2119733 8687244 male
-2.687641 0.1008755 0.5750371 -0.6681162 -0.137011 0.7313336 4672079 male
-2.865892 -0.001496182 0.491176 -0.8843824 -0.1001922 -0.455883 8216672 male
-2.7731 0.332741 0.6178511 -0.5808868 -0.1051299 0.8071668 8151396 male
-2.604269 -0.385447 0.4299767 -0.8950424 -0.00156587 -0.4459782 7162182 male
-2.818142 0.6896949 0.3968383 -0.5561841 0.5854965 -0.5897906 8082762 male
-2.837916 0.6168643 0.4767506 -0.6297452 -0.6066684 0.485154 8677731 male
-2.727658 0.8552373 0.5484977 -0.547587 0.2683086 0.7925648 6505023 male
-2.559365 0.2162365 0.5141065 0.9879282 0.0510674 0.1462532 9936295 male
-2.832548 -0.3547003 0.4951911 0.8525541 -0.006926041 0.5225931 8676715 male
-2.646261 0.8278443 0.4453716 0.9358215 -0.3500473 -0.04129209 6897978 male
-2.626694 0.598425 0.3503793 0.3870636 0.005267895 -0.922038 10121829 male
-2.737143 0.3293372 0.6316679 -0.1217999 -0.1287442 0.9841696 9663859 male
-2.848372 0.2878071 0.4540205 -0.9039375 0.2693468 -0.3321887 7566199 male
-2.802893 -0.1648744 0.497344 0.9297099 0.1646333 -0.3294472 7032652 male
-2.671999 -0.05610198 0.480855 -0.8461204 -0.06009148 -0.5295936 8478045 male
-2.917921 0.5767112 0.454706 -0.9391677 0.3409137 -0.04173461 7560530 male
-2.689117 0.6357803 0.5515567 -0.02510209 0.4739951 0.8801696 9729387 male
-2.80168 0.5045055 0.5810345 -0.5647769 0.1442475 0.812539 9993847 male
-2.751046 0.7749777 0.4908001 -0.8569746 -0.03161117 0.5143881 9529184 male
-2.875975 0.07419427 0.516864 -0.9993441 0.03002289 -0.02024873 6645352 male
-2.616156 -0.4481333 0.5640476 -0.2628335 0.8702108 0.4167156 16772087 male
-2.545177 0.5073575 0.4073746 -0.5211046 -0.2635588 -0.81178 8673618 male
-2.687134 -0.004372411 0.5180485 -0.9551222 -0.2300083 0.1866488 3942955 male
-2.645038 0.2359766 0.3889553 0.2107907 0.2036421 -0.9560843 8028291 male
-2.738178 0.3862089 0.3921127 0.1562587 -0.279747 -0.9472723 9332573 male
-2.603441 0.3442352 0.5710025 0.7642657 -0.06546418 0.6415703 11899540 male
-2.564506 0.1476382 0.550251 0.8985584 0.08979739 0.4295687 9344927 male
-2.970005 0.32146 0.5781639 -0.5404917 0.6456278 0.5394753 6309194 male
-2.787755 0.5897403 0.3481874 -0.2831689 -0.09435079 -0.9544178 10449253 male
-2.601114 0.4648143 0.5575915 0.8025284 0.1072708 0.5868911 10847876 male
-2.897466 -0.1971831 0.4870988 -0.9645563 0.1273776 -0.2310976 7362903 male
-2.956044 0.2930487 0.5429875 0.8983876 -0.3912236 0.1996092 5323575 male
-2.782216 0.8571349 0.4405797 -0.7408695 0.2471855 0.6245092 9066071 male
-2.575442 0.5654677 0.4512919 -0.9636313 -0.2156475 0.1578316 8741211 male
-2.848679 0.1722516 0.5573682 -0.7552351 0.242101 0.6091035 5527382 male
-2.872586 0.5098557 0.4379933 0.8736284 -0.3782468 -0.306109 9204587 male
-2.561144 -0.1946804 0.4432997 0.719177 0.194203 -0.6671354 7163467 male
-2.662624 0.248398 0.3895139 0.09300321 0.2536136 -0.9628242 8358027 male
-2.710743 0.18229 0.3830702 0.03117421 -0.1628485 -0.9861584 8949912 male
-2.484104 0.3483711 0.4592437 0.7323806 -0.5134172 -0.4472375 7492689 male
-2.628061 0.9328492 0.4150073 0.9422667 0.296297 -0.1560178 1248008 male
-2.763378 0.5816621 0.5799376 -0.07736991 0.2579976 0.9630427 10256244 male
-2.775746 0.9223044 0.4345807 -0.9857342 0.1654537 -0.03087402 3614496 male
-2.582198 -0.2325265 0.4248048 0.3127652 0.017055 -0.9496773 5190702 male
-2.561025 0.6494855 0.4841177 0.09668491 0.007601139 0.995286 11242625 male
-2.629567 0.06176275 0.4367325 0.09567583 -0.2137777 -0.9721859 9410976 male
-2.737258 0.5874981 0.5755594 0.239862 0.2729242 0.9316537 10453365 male
-2.581484 0.6150542 0.49097 0.6102201 -0.6294557 0.4810582 9269356 male
-2.810556 0.6430053 0.3681499 -0.4850415 0.09849986 -0.8689261 9727331 male
-2.697905 0.1102429 0.5621985 -0.8678557 0.04849061 0.4944443 5526870 male
-2.757601 0.008177813 0.4661756 0.6464542 -0.309254 -0.6974661 7495524 male
-2.635451 0.2422356 0.583575 0.447173 -0.1344383 0.8842865 7040371 male
-2.835679 0.6330649 0.4683762 0.8332363 -0.4100404 0.3709235 6705486 male
-2.762189 0.9283955 0.38596 -0.8494797 0.2278055 -0.4759085 1642768 male
-2.804768 -0.1374933 0.4998253 0.7943166 0.06073449 -0.6044605 6836564 male
-2.690108 0.5205308 0.5983511 -0.006107439 0.3715867 0.9283782 9598833 male
-2.653259 0.7336978 0.4611785 0.9533485 0.2522425 0.1658324 8215123 male
-2.846957 -0.461172 0.4638653 0.376267 -0.921331 -0.09783855 5127737 male
-2.843598 0.1117867 0.4472435 -0.7306584 -0.1652688 -0.6624384 6908529 male
-2.602909 -0.4159083 0.4890542 -0.8799362 0.3506704 0.3205347 9464693 male
-2.558261 -0.3025885 0.4785082 0.9410694 -0.2055912 0.2685528 8085344 male
-2.829775 0.6651411 0.3904516 -0.651422 0.3724309 -0.6610178 9200986 male
-2.728256 0.03722822 0.496834 0.9326327 -0.2981904 -0.2031717 5264469 male
-2.563459 -0.4700494 0.4543423 -0.005211342 -0.9981933 -0.0598569 4271656 male
-2.534045 0.4837869 0.4227137 -0.6959981 0.2370555 0.6777841 7492433 male
-2.699317 0.6951153 0.5167237 0.051106 0.4479867 0.8925783 8411734 male
-2.629874 0.03634546 0.5873289 -0.1640698 -0.1577853 0.9737479 7302769 male
-2.546295 -0.4545429 0.4389633 0.9637537 -0.009317119 -0.2666307 7032145 male
-2.837599 0.6400002 0.4776531 0.6051928 -0.2620272 0.7517202 8874342 male
-2.910938 0.4084757 0.4320409 0.6274377 -0.6495453 -0.4294334 7296086 male
-2.800391 0.5239689 0.5774576 -0.5329382 0.1800949 0.8267664 8808293 male
-2.682201 0.9217142 0.3493196 0.2493883 0.176305 -0.9522195 2037520 male
-2.583673 0.4686642 0.4336078 0.9072682 -0.2453177 -0.3415898 10055280 male
-2.83956 0.690768 0.4380164 -0.5329151 0.8410552 -0.0928847 7164228 male
-2.577295 -0.3340148 0.4943243 0.4543499 -0.2016437 0.8677015 7558490 male
-2.848527 0.4695766 0.4493654 -0.9594184 -0.1480709 -0.2399822 9727078 male
-3.000647 0.3049844 0.6077941 -0.9705253 0.01467953 0.2405517 5192510 male
-2.726267 0.9861497 0.4585392 -0.3879771 0.9162977 0.09935925 2693400 male
-2.894339 -0.2604502 0.4760792 -0.9502965 -0.1021183 -0.2941231 5324345 male
-2.750227 0.1560714 0.5915919 -0.1723454 -0.1377129 0.9753627 6513763 male
-2.957831 0.4800396 0.4224064 -0.9317564 0.0497901 -0.359654 6242101 male
-2.92066 0.322106 0.6088508 0.7981056 -0.5990359 0.0646788 7035744 male
-2.894448 -0.2623113 0.5013691 -0.9645832 -0.1675424 0.2037368 6114124 male
-2.564323 0.2199567 0.4724471 0.9473807 -0.006602615 -0.3200412 7239551 male
-2.86254 -0.09631134 0.4933543 -0.5900741 0.1689118 -0.7894818 8083802 male
-2.792617 -0.1071408 0.5579967 0.6922129 -0.33344 0.6400461 6571594 male
-2.628363 0.8840375 0.417123 0.9651282 -0.1855219 -0.1846866 919042 male
-2.830245 0.3342212 0.4344347 -0.7823171 -0.05828612 -0.6201472 9002592 male
-2.655124 0.7169713 0.3967023 0.2631874 0.5756792 -0.7741613 6638401 male
-2.992305 0.2906037 0.6225919 0.3178473 -0.7931147 -0.5195595 6247250 male
-2.582062 0.2037438 0.5580724 0.6285614 0.1809289 0.7564226 6776939 male
-2.488762 0.2643521 0.5631416 -0.8493803 -0.2892549 -0.4414575 7817805 male
-2.670685 0.3624872 0.6324733 0.2574713 0.04687459 0.9651483 9268852 male
-2.675399 0.1150882 0.5843666 -0.5021821 -0.06497206 0.8623177 4933451 male
-2.873464 -0.1067752 0.5474954 -0.9521996 0.05356157 0.3007441 6966606 male
-2.562622 -0.3324515 0.4614868 0.9613395 -0.2497178 -0.116049 6507338 male
-2.655764 0.9261807 0.5153421 0.7228399 0.3377403 0.6028548 8148563 male
-2.87576 -0.07773795 0.511479 -0.9624093 0.1136229 -0.2466948 8675165 male
-2.609117 -0.08592575 0.5701081 0.2437928 -0.1034516 0.964294 6307903 male
-2.851542 0.5303679 0.4758743 -0.9860326 0.004248617 0.1664982 8215898 male
-2.571673 -0.3807472 0.431004 0.6260843 -0.09553319 -0.7738811 4667447 male
-2.563723 -0.4044265 0.4874175 0.7720153 0.3991028 0.494681 8808554 male
-2.922265 0.3257228 0.5919214 0.9655991 -0.06298377 -0.2522924 6571594 male
-2.80826 -0.2537907 0.5160536 0.7127107 -0.2472521 0.6564371 6769742 male
-2.518766 0.5276071 0.4082309 0.425055 -0.1661572 -0.8897865 6701629 male
-2.612045 0.3820335 0.4091072 0.6057454 -0.02092362 -0.7953834 8806236 male
-2.658522 0.08908471 0.5870636 -0.3808865 -0.1228866 0.9164193 6249823 male
-2.585822 0.1920548 0.4312173 0.8063334 0.007551985 -0.591413 6842992 male
-2.652639 0.9665371 0.398376 0.6302918 0.7101691 -0.3136752 1313800 male
-2.895459 0.615334 0.4191616 -0.7587078 -0.08950906 -0.6452523 7887439 male
-2.670147 0.8751516 0.3559288 0.4262112 -0.2586383 -0.8668623 1380621 male
-2.737424 0.8483257 0.5430822 -0.4330278 -0.004236527 0.9013706 7360071 male
-2.812562 -0.05942884 0.4696236 0.1859521 -0.177894 -0.9663206 9730419 male
-2.882955 -0.1222213 0.5218145 -0.9933779 0.113861 0.01536324 8085084 male
-2.788198 0.2821736 0.585895 -0.5754024 -0.1337115 0.8068663 6644838 male
-2.806783 0.5282324 0.3755246 -0.5408054 -0.246776 -0.8041337 11107959 male
-2.87334 -0.01156536 0.5160025 -0.9820116 -0.1080817 -0.154828 7361103 male
-2.864026 -0.4634075 0.4657755 0.04433137 -0.9934115 -0.1056805 5786698 male
-2.728142 0.8589612 0.3574714 -0.3501996 -0.3339849 -0.8751082 2431508 male
-2.665214 0.8825803 0.5284715 0.4864393 0.2807263 0.8273872 8608087 male
-2.687235 0.103574 0.4397917 -0.6391342 -0.4170561 -0.6461979 6514027 male
-2.704397 0.2069718 0.6104548 0.1754871 0.01821221 0.9843132 7171957 male
-2.591984 -0.4650418 0.438457 -0.5241904 -0.8498758 -0.05417988 5586500 male
-2.51171 0.3879214 0.4112219 -0.2491255 -0.6406015 -0.7263376 10122612 male
-2.724228 0.04330944 0.5137382 0.9722531 -0.2277368 0.0534777 3026479 male
-2.839831 -0.2879129 0.5205542 0.2681243 -0.2606402 0.9274567 7097670 male
-2.60961 0.3316267 0.4176346 0.5120208 -0.2258181 -0.8287587 7556428 male
-2.621823 0.6526794 0.5143619 0.3465078 0.5133565 0.7851098 9005928 male
-2.640633 0.03843118 0.5850365 -0.3258123 -0.1585077 0.9320524 7105644 male
-2.908364 0.4489264 0.4040073 0.3817257 -0.6574143 -0.6496861 8608600 male
