# .PCD v0.7 - Point Cloud Data file format
VERSION 0.7
FIELDS x y z normal_x normal_y normal_z rgb label
SIZE 4 4 4 4 4 4 4 4
TYPE F F F F F F U U
COUNT 1 1 1 1 1 1 1 1
WIDTH 132
HEIGHT 1
VIEWPOINT 0 0 0 1 0 0 0
POINTS 132
DATA ascii
-2.793547 0.4614355 0.601701 -0.5466781 0.1417814 0.8252521 9598321 male
-2.877305 0.04283912 0.5384592 -0.9816796 0.0107746 0.1902344 8687244 male
-2.690817 0.1008504 0.5788233 -0.6837466 -0.1425247 0.7156656 4672079 male
-2.866005 -0.002727497 0.4906228 -0.8731058 -0.1073798 -0.4755585 8216672 male
-2.779204 0.3535956 0.6198822 -0.6060484 -0.001213609 0.7954268 8940137 male
-2.598376 -0.3788095 0.430224 -0.7371898 0.001578591 -0.6756839 6569274 male
-2.819761 0.6900873 0.3988014 -0.5418623 0.5885164 -0.6000282 8082762 male
-2.845851 0.6024327 0.4712177 -0.7292581 -0.4944262 0.4729962 7363927 male
-2.727702 0.8427711 0.5569019 -0.5536155 0.1007295 0.826658 5846581 male
-2.561865 0.2171005 0.5211191 0.983966 0.0569145 0.1690317 9936295 male
-2.830196 -0.356355 0.4965172 0.8424198 0.003983888 0.538807 8676715 male
-2.649851 0.8282868 0.4525523 0.9381518 -0.3455984 -0.02080598 6897978 male
-2.641576 0.6086898 0.3519481 0.1888884 0.08162617 -0.9786002 9727586 male
-2.760812 0.4900945 0.6102116 -0.2182271 0.3083112 0.9259164 10059640 male
-2.849883 0.2870053 0.4543688 -0.897576 0.2644248 -0.3527561 7566199 male
-2.801747 -0.1661903 0.4973136 0.9347749 0.1685164 -0.3127269 7032652 male
-2.672139 -0.05588198 0.4847052 -0.8334301 -0.06463611 -0.5488319 8478045 male
-2.927445 0.5580752 0.451762 -0.9213347 0.3732304 -0.108818 7427661 male
-2.69456 0.635441 0.5563539 -0.04750418 0.4687298 0.8820633 9729387 male
-2.807598 0.4896228 0.5854548 -0.6248526 0.1252151 0.7706363 10059640 male
-2.760993 0.7845579 0.4846671 -0.9347997 -0.08536333 0.3447644 8805204 male
-2.877354 0.07284895 0.5162157 -0.9988736 0.02126286 -0.04242059 6645352 male
-2.614819 -0.4479598 0.5704604 -0.2758192 0.8679607 0.4129989 16772087 male
-2.5477 0.5085315 0.4135924 -0.5110251 -0.2533247 -0.821389 8673618 male
-2.688406 -0.004292243 0.5216963 -0.9577013 -0.2361457 0.1644492 3942955 male
-2.644757 0.2364568 0.393989 0.2316712 0.2060656 -0.9507183 8028291 male
-2.738836 0.3861274 0.3951324 0.1796268 -0.2782025 -0.9435771 9332573 male
-2.606333 0.3411728 0.5747678 0.7587315 -0.07419287 0.6471646 11899540 male
-2.567437 0.1483963 0.5569939 0.8879218 0.09438975 0.4502061 9344927 male
-2.96203 0.3199979 0.5700178 -0.4187532 0.5771444 0.7011064 7033170 male
-2.787522 0.6001903 0.3502721 -0.275887 -0.0003657762 -0.96119 10843499 male
-2.606079 0.465119 0.5637572 0.7880086 0.1096011 0.60583 10847876 male
-2.852571 -0.1960508 0.4494942 -0.09235559 0.2163167 -0.9719452 7953235 male
-2.946908 0.3126263 0.5129824 0.8420077 -0.3491322 -0.4112539 5058348 male
-2.788237 0.8643337 0.4413665 -0.7790983 0.06202598 0.6238258 8672594 male
-2.578458 0.5658767 0.457737 -0.9648288 -0.2202414 0.1435235 8741211 male
-2.851832 0.1711426 0.5574314 -0.7706428 0.2349953 0.5923571 5527382 male
-2.871229 0.5226809 0.4373581 0.8473335 -0.4318422 -0.3090924 11376268 male
-2.564674 -0.1876739 0.4461955 0.6323856 0.2517926 -0.7325905 7557966 male
-2.662426 0.2487714 0.3941582 0.1138016 0.2553346 -0.960132 8358027 male
-2.709993 0.1824031 0.3865247 0.05510433 -0.1613541 -0.985357 8949912 male
-2.486423 0.348875 0.463677 0.7380687 -0.4997584 -0.4533169 7492689 male
-2.631382 0.9336041 0.4234506 0.9444611 0.3016111 -0.1304762 1248008 male
-2.769288 0.5748788 0.5839943 -0.0986998 0.1937664 0.9760702 10848379 male
-2.779454 0.9222546 0.4392937 -0.9854227 0.161339 -0.05396135 3614496 male
-2.594575 -0.1909043 0.4340458 0.008942733 0.2731671 -0.961925 8412759 male
-2.564751 0.6496012 0.4917816 0.08231341 -0.003518249 0.9966003 11242625 male
-2.62939 0.06233947 0.4418707 0.1191551 -0.2113798 -0.9701138 9410976 male
-2.703088 0.5101623 0.6063302 -0.01540826 0.3882222 0.921437 9665658 male
-2.585408 0.6153141 0.4982272 0.6013584 -0.6312406 0.4897993 9269356 male
-2.811118 0.6437358 0.3698931 -0.4601842 0.1049726 -0.8815958 9727331 male
-2.700841 0.1101791 0.5657953 -0.8792301 0.04198499 0.4745438 5526870 male
-2.757299 0.00795716 0.4681261 0.664564 -0.3023228 -0.6833416 7495524 male
-2.632691 0.2243083 0.5831293 0.3523627 -0.004628324 0.9358521 7369338 male
-2.840417 0.6266963 0.4717795 0.7977517 -0.3406388 0.4975515 5916481 male
-2.764731 0.928781 0.3910694 -0.8385492 0.2277051 -0.4949603 1642768 male
-2.803849 -0.1386664 0.4996758 0.8056344 0.06259032 -0.5890974 6836564 male
-2.61165 0.4948701 0.5662881 0.7708696 0.07657848 0.6323732 10651009 male
-2.656856 0.7339777 0.4674018 0.9482113 0.2543471 0.1902706 8215123 male
-2.861069 -0.4665855 0.4817438 0.06949396 -0.9975033 0.01255872 5061938 male
-2.843804 0.1108455 0.4473615 -0.714269 -0.1704043 -0.6788093 6908529 male
-2.600318 -0.4155063 0.4954771 -0.8888343 0.3454985 0.3010055 9464693 male
-2.556721 -0.3018071 0.4849692 0.9361791 -0.1981097 0.2903812 8085344 male
-2.839985 0.6624989 0.399198 -0.7021099 0.362876 -0.6126685 8806228 male
-2.728926 0.03721087 0.4995403 0.9395335 -0.2896643 -0.1826785 5264469 male
-2.559684 -0.4694337 0.4618211 0.0007680746 -0.9980624 -0.06221613 4271656 male
-2.536977 0.4847691 0.4293442 -0.7018105 0.2204464 0.677396 7492433 male
-2.703923 0.693982 0.5222779 0.02886679 0.4490264 0.893052 8609113 male
-2.632978 0.03664764 0.5923676 -0.1852665 -0.1605713 0.9694809 7302769 male
-2.554449 -0.4234988 0.4389219 0.8935868 0.0585812 -0.4450516 5914946 male
-2.83945 0.6367383 0.4971329 -0.4242144 -0.2735696 0.8632507 10257537 male
-2.910256 0.4054947 0.4313492 0.7211424 -0.60548 -0.3366713 6639443 male
-2.808058 0.5133229 0.5801955 -0.582208 0.1623848 0.7966586 9730419 male
-2.683833 0.9227359 0.3563665 0.2719692 0.1847512 -0.9444044 2037520 male
-2.585744 0.4692999 0.4402018 0.9161034 -0.2406803 -0.3206671 10055280 male
-2.854975 0.6456186 0.3966871 -0.5619426 0.2251986 -0.7959309 9200986 male
-2.575835 -0.3333409 0.5004906 0.4358832 -0.1967965 0.8782237 7558490 male
-2.83252 0.4972042 0.4056771 -0.7595041 -0.216643 -0.6133672 10252138 male
-3.001694 0.2920205 0.6183218 -0.747021 0.4059266 0.526482 5650237 male
-2.730874 0.986131 0.464949 -0.3945614 0.9137716 0.09665876 2693400 male
-2.892154 -0.2627121 0.4751572 -0.94377 -0.1113935 -0.3112712 5324345 male
-2.787682 0.2372745 0.5799419 -0.5031385 -0.101613 0.8582112 6119263 male
-2.954295 0.4830832 0.412497 -0.8856505 0.01517658 -0.4641044 6176313 male
-2.937065 0.3165337 0.5946501 -0.6649858 -0.7271134 0.1705867 4337970 male
-2.889653 -0.2515626 0.4665488 -0.8547571 -0.06647725 -0.5147534 4863535 male
-2.56589 0.2208436 0.4793481 0.9545441 -0.0004540528 -0.2980695 7239551 male
-2.861791 -0.09778861 0.492053 -0.5746436 0.160974 -0.8024164 8083802 male
-2.793154 -0.1077781 0.5582983 0.681102 -0.3258209 0.6556988 6571594 male
-2.631512 0.8847761 0.4251872 0.970242 -0.1797745 -0.1622084 919042 male
-2.832015 0.3245397 0.4393289 -0.792388 0.06171592 -0.6068876 6643551 male
-2.657172 0.7176819 0.40282 0.2792622 0.5812784 -0.7642826 6638401 male
-2.99987 0.2886195 0.6049402 -0.1964313 -0.867933 -0.4561875 5455683 male
-2.5855 0.2043978 0.5645324 0.609915 0.1836313 0.7708977 6776939 male
-2.492119 0.2650519 0.5621552 -0.8422842 -0.3052967 -0.4442424 7489096 male
-2.676812 0.3625535 0.636993 0.2347934 0.04741914 0.970888 9268852 male
-2.661052 0.1261143 0.5960808 -0.2688861 0.008448385 0.9631349 5921890 male
-2.87377 -0.1081211 0.5460681 -0.9584967 0.0472137 0.2811669 6966606 male
-2.560453 -0.3317385 0.4679523 0.9655284 -0.2428782 -0.09362213 6507338 male
-2.661517 0.92604 0.5230199 0.7061989 0.3362564 0.6230688 8148563 male
-2.875572 -0.07916071 0.5101534 -0.9578883 0.1050862 -0.2672206 8675165 male
-2.61112 -0.08543718 0.575311 0.2223858 -0.102869 0.9695166 6307903 male
-2.855345 0.5160902 0.458774 -0.9953922 -0.09530428 -0.01055674 7162691 male
-2.568249 -0.3801212 0.4377186 0.6440383 -0.09172983 -0.7594737 4667447 male
-2.561239 -0.4037743 0.4946224 0.7583002 0.403252 0.5122193 8808554 male
-2.9244 0.3190399 0.5869581 0.8757259 -0.4344963 -0.2105162 6375240 male
-2.806907 -0.2550782 0.5167111 0.701513 -0.2360004 0.6724458 6769742 male
-2.504931 0.4141736 0.3981236 0.1025321 -0.5520085 -0.8275106 7819859 male
-2.617109 0.3842402 0.4113021 0.5881682 -0.04884386 -0.8072624 8674395 male
-2.661921 0.08920098 0.5915364 -0.4010195 -0.1269445 0.9072313 6249823 male
-2.585796 0.2053233 0.4378615 0.8258495 -0.01585566 -0.5636677 7041395 male
-2.655695 0.9673094 0.4064749 0.6345115 0.7153733 -0.2926368 1313800 male
-2.902001 0.6040323 0.424274 -0.7856937 0.0009302029 -0.618615 7689543 male
-2.671733 0.8761767 0.3629146 0.448617 -0.2500651 -0.858027 1380621 male
-2.742016 0.851437 0.5489889 -0.4676105 0.08407117 0.8799275 7096387 male
-2.811663 -0.06027184 0.4698667 0.2084402 -0.176528 -0.9619722 9730419 male
-2.882576 -0.1238143 0.5200441 -0.9942964 0.1065297 -0.005105058 8085084 male
-2.792766 0.2815668 0.5876219 -0.593133 -0.1382678 0.7931427 6644838 male
-2.777216 0.5011021 0.3686536 -0.2705987 -0.2607086 -0.9267186 9988451 male
-2.873911 -0.01289324 0.5152696 -0.9773439 -0.116567 -0.1766666 7361103 male
-2.860546 -0.46554 0.467805 0.05387786 -0.9938785 -0.09645046 5786698 male
-2.729676 0.8597198 0.3628994 -0.3269963 -0.3287461 -0.8860019 2431508 male
-2.687504 0.8864293 0.5398483 0.3259575 0.4053757 0.8540623 7819082 male
-2.687336 0.1038228 0.4436844 -0.6214635 -0.4199862 -0.6613582 6514027 male
-2.713558 0.204633 0.6146641 0.06979851 0.01843479 0.9973908 7170925 male
-2.587447 -0.4647804 0.4469587 -0.487607 -0.8720076 -0.04292102 5783879 male
-2.51402 0.3892088 0.4163014 -0.241063 -0.6274485 -0.7404033 10122612 male
-2.725338 0.04329501 0.5165697 0.9727589 -0.219378 0.07492211 3026479 male
-2.838349 -0.2893686 0.5209716 0.2519318 -0.2496268 0.9349956 7097670 male
-2.707061 0.4190027 0.3945965 -0.05064027 -0.2861867 -0.9568348 10713969 male
-2.633589 0.6764812 0.5064836 0.4247337 0.6281788 0.6519146 10255731 male
-2.643693 0.03867475 0.5898274 -0.3460125 -0.1622018 0.9241028 7105644 male
-2.900602 0.4664214 0.4009202 0.5310878 -0.5215285 -0.6677977 8083028 male
