# .PCD v0.7 - Point Cloud Data file format
VERSION 0.7
FIELDS x y z normal_x normal_y normal_z rgb label
SIZE 4 4 4 4 4 4 4 4
TYPE F F F F F F U U
COUNT 1 1 1 1 1 1 1 1
WIDTH 132
HEIGHT 1
VIEWPOINT 0 0 0 1 0 0 0
POINTS 132
DATA ascii
-2.850239 0.3112454 0.07254609 -0.5374802 0.007421152 0.8432438 8809067 male
-2.826964 -0.1544923 -0.001504493 0.9800483 -0.1973307 -0.02378938 7427928 male
-2.697581 0.07260573 0.09476011 0.05652146 0.3845011 0.9213926 6908529 male
-2.914596 0.03183886 -0.08447083 -0.579463 -0.2330336 -0.7809725 7171957 male
-2.844546 0.3475897 0.07635852 -0.4402263 -0.01411286 0.8977759 8809837 male
-2.705742 -0.3050922 0.1140995 -0.5852227 -0.3619647 -0.7256004 7162692 male
-2.847808 0.6484689 -0.02141904 -0.3265527 0.6392952 0.6961789 9334379 male
-2.87356 0.6051238 0.001321754 -0.04903492 0.348499 0.9360256 9729906 male
-2.753561 0.7644424 0.05090279 -0.08440777 -0.1445255 0.9858944 7031106 male
-2.641506 0.08658341 -0.03776279 0.967023 -0.08741552 -0.2392177 7895680 male
-2.852825 -0.3420781 -0.08318517 0.7838485 -0.3694876 0.4990596 7624539 male
-2.704603 0.7790931 -0.05954723 0.8789129 -0.357002 -0.3163254 7358273 male
-2.690164 0.567526 -0.1701097 0.5236263 -0.06282298 -0.8496286 10516590 male
-2.82441 0.2923945 0.08606056 -0.219914 -0.089105 0.9714413 8677226 male
-2.862662 0.2094673 0.05104236 -0.4437597 -0.1336493 0.8861237 6447202 male
-2.893862 -0.1173695 -0.04900466 -0.3544582 0.01468311 -0.9349566 8413023 male
-2.779343 0.009101342 0.03801539 -0.9608703 -0.1779033 0.2123175 5920857 male
-2.978446 0.5731775 -0.03178467 -0.9695641 0.1713114 0.1749225 7953748 male
-2.733719 0.575685 0.02381887 0.1925298 0.4210907 0.8863492 9532008 male
-2.930924 0.4807445 -0.067384 -0.9952219 -0.09536973 0.02093037 9135193 male
-2.809199 0.7601115 -0.01270304 -0.8820646 -0.3020386 0.3615727 6833727 male
-2.944135 0.01902394 0.01463864 -0.9534312 -0.06496309 0.2945311 7699326 male
-2.653491 -0.4188145 0.2997026 0.3038873 0.9512661 0.05239775 16375263 male
-2.597909 0.4747927 -0.120615 0.3290856 -0.331244 -0.8842964 6569274 male
-2.746475 -0.08567782 0.1156651 -0.8746659 -0.02437775 0.4841128 6045251 male
-2.787227 0.2603216 -0.1401945 -0.04826557 0.2017674 -0.9782435 8291721 male
-2.877041 0.4435725 -0.1501268 -0.5055866 -0.158251 -0.8481385 9660514 male
-2.659515 0.2473416 -0.08575241 0.86094 0.3720395 -0.3469421 7565691 male
-2.741497 0.1356775 0.0526278 -0.03692034 0.3496641 0.9361474 6710638 male
-2.968322 0.3252544 0.1489881 -0.5344036 0.6912379 0.4864185 6112068 male
-2.877789 0.590345 -0.1589451 -0.5050423 0.2489277 -0.8264183 10252643 male
-2.683622 0.4085222 0.02609739 0.8122906 0.03299513 0.5823188 11374220 male
-2.933171 -0.2029504 0.0007849112 -0.9554139 -0.08941927 0.2814044 8546410 male
-2.983663 0.2981936 0.09779841 -0.427371 -0.8024132 -0.4165179 9202019 male
-2.844553 0.8305759 -0.04978955 -0.8375413 -0.005288729 0.5463485 7949128 male
-2.652358 0.5410642 -0.07642865 -0.9331576 -0.2234451 0.2815834 6309186 male
-2.938348 0.09434855 0.03087237 -0.84694 0.07180399 0.5268176 5658713 male
-2.968312 0.4818885 -0.0485886 0.07699119 -0.5328616 -0.8426926 8149587 male
-2.694693 -0.1592064 0.07728966 -0.3275272 0.03811854 -0.9440725 10187890 male
-2.795082 0.2544422 -0.1410505 -0.03544605 0.2285232 -0.9728929 7765124 male
-2.743633 0.1544985 -0.1553667 0.1425022 -0.003901874 -0.9897868 8555154 male
-2.593669 0.3281771 0.01656053 -0.2529376 0.9146336 0.3153855 8018009 male
-2.701174 0.9066469 -0.100203 0.7924429 0.4963712 -0.3544714 1313804 male
-2.697 0.3849475 0.04762297 0.7017483 0.02296979 0.7120546 10386558 male
-2.832803 0.8783272 -0.04654359 -0.969026 0.1633914 0.1851805 3614496 male
-2.653202 -0.2099742 0.08169021 0.5525325 -0.06629392 -0.8308508 7557708 male
-2.598517 0.6015276 -0.1163865 0.764129 0.4753317 -0.4360808 8609880 male
-2.706734 -0.04697882 -0.01561482 0.03184446 -0.5590504 -0.828522 9727339 male
-2.675366 0.3359412 0.009586913 0.8515607 -0.06468965 0.5202498 11901596 male
-2.655671 0.5591842 -0.03046427 0.6993054 -0.2306425 0.6765914 12426900 male
-2.899336 0.626633 -0.1246579 -0.6732318 0.3718934 -0.6391042 9529945 male
-2.664894 0.07941998 0.07436126 0.6495486 0.3605335 0.6694043 6251112 male
-2.943981 0.1628079 -0.05145239 -0.9542285 0.03664988 -0.2968245 8355973 male
-2.66415 0.1907636 -1.706035E-05 0.637915 0.330188 0.6957301 6975346 male
-2.900021 0.6044793 -0.03097063 0.8376021 -0.4553544 0.3017864 8480097 male
-2.82931 0.8887013 -0.09617154 -0.9224005 0.2708889 -0.2753119 1642768 male
-2.893189 -0.105933 -0.05548387 -0.3657603 -0.04727454 -0.9295077 8281949 male
-2.776456 0.5177934 0.04692431 0.2406537 0.1686391 0.9558486 10848900 male
-2.710608 0.6767111 -0.07317774 0.8534322 0.5079305 0.1168766 9202785 male
-2.906466 -0.4928676 -0.1141497 -0.588599 -0.7272635 -0.3530426 7164748 male
-2.948937 0.1748143 -0.02043887 -0.9974248 0.04737521 0.05384608 8488841 male
-2.680232 -0.4086973 0.2359516 -0.7962725 0.5565147 0.2371529 11241361 male
-2.696179 -0.3821445 0.1398463 -0.8711194 -0.1844822 -0.4551013 6964805 male
-2.876477 0.6678693 -0.06093441 -0.3267822 0.8546081 0.4035573 9533040 male
-2.814957 -0.07087983 -0.01841685 0.9905096 -0.1346269 -0.02768445 5387832 male
-2.606785 -0.4494351 0.2376381 0.5239324 -0.8366722 -0.1596076 5389369 male
-2.64625 0.4996007 -0.09792227 -0.952291 -0.2665037 -0.1487202 9923686 male
-2.670861 0.4745973 0.01182603 0.8043646 -0.1542278 0.5737695 11900564 male
-2.738932 -0.1359463 0.12773 -0.9138816 -0.2038398 0.3510979 6899528 male
-2.637779 -0.4576126 0.1670103 0.869141 -0.1469521 -0.4722277 7031114 male
-2.929507 0.6288047 -0.00807464 0.003664844 0.2274367 0.973786 10519161 male
-2.986912 0.3902726 0.03317357 0.5962026 0.7650281 0.2434632 7953752 male
-2.931095 0.4939521 -0.07671491 -0.9917477 -0.1087314 -0.06792602 9858149 male
-2.772089 0.8909675 -0.147023 -0.1175136 0.3272125 -0.9376153 2694168 male
-2.658724 0.4326264 -0.1010104 0.9429719 -0.2327087 -0.2380139 9727339 male
-2.862769 0.6292597 -0.01098727 -0.1038752 0.6283515 0.7709633 9730163 male
-2.648474 -0.3168834 0.13167 0.8585317 -0.3371212 -0.3863582 5717052 male
-2.918273 0.3994109 -0.09778707 -0.8781577 -0.2161654 -0.4267453 8871509 male
-2.964424 0.327733 0.1762767 0.07991605 0.9339248 0.3484221 6769230 male
-2.763113 0.9396072 -0.01516768 -0.1528388 0.921116 0.3580303 2562838 male
-2.922056 -0.2603278 -0.008144774 -0.5993915 -0.4219723 0.6801979 6442065 male
-2.866993 0.171328 0.04951149 -0.3843048 0.08445498 0.9193351 5921114 male
-2.983749 0.5352614 -0.03572738 -0.9619591 0.07773248 -0.2619014 7032130 male
-2.916196 0.334894 0.1302622 0.8411557 -0.07038114 -0.5361936 6572106 male
-2.928117 -0.2413527 -0.00197426 -0.7444558 -0.3186042 0.5867511 7492953 male
-2.645076 0.1314486 -0.05216639 0.9777396 0.01030533 -0.2095687 7698560 male
-2.91579 0.5788679 -0.05148168 -0.3665623 -0.6902503 0.6238483 9332066 male
-2.926373 -0.0853321 0.01636418 -0.8581681 -0.3172137 0.4036372 6375497 male
-2.699344 0.841539 -0.1096812 0.8433905 -0.169832 -0.5097543 1050624 male
-2.91647 0.2625663 6.592833E-06 -0.770332 0.2403267 0.5906199 6579812 male
-2.715045 0.6858431 -0.1032448 0.6183109 0.7102027 -0.3366064 7030849 male
-2.97394 0.2902068 0.2045957 -0.2644719 -0.9330885 -0.2437222 7509611 male
-2.711034 0.158719 0.03763243 0.1858999 0.5325851 0.8257084 6711404 male
-2.566132 0.2624605 0.1388182 0.908344 -0.00393024 0.4182053 2364691 male
-2.654884 0.231814 -0.02221495 0.8390384 0.3490109 0.4173798 9016478 male
-2.65921 0.06902944 0.0732482 0.729907 0.3117784 0.6083009 6646384 male
-2.923446 -0.1223312 0.009465442 -0.9306458 -0.2258086 0.2879393 8086883 male
-2.672002 -0.3059927 0.1059895 0.1927797 -0.4115182 -0.8907799 5388081 male
-2.722361 0.8918121 0.02279924 0.4742583 0.4088898 0.7796718 6572611 male
-2.922865 0.5876285 -0.07039029 -0.1015682 -0.9365442 0.3355128 9003616 male
-2.683773 -0.03334979 0.1282836 0.3346136 0.2343004 0.9127634 6504770 male
-2.900054 0.5105854 0.01486274 -0.8201979 0.05784835 0.5691475 9532523 male
-2.653553 -0.3592175 0.1700167 0.9899461 -0.1021707 0.09781558 7690839 male
-2.66967 -0.3843824 0.213777 -0.1631832 0.7695439 0.6173924 11701137 male
-2.925357 0.3260858 0.1358533 0.6354739 -0.6984493 0.3291528 6836048 male
-2.889623 -0.2189277 0.03012767 0.2167133 -0.7106568 0.6693298 6439748 male
-2.564395 0.2895845 0.001560845 0.7781358 -0.5982014 -0.1914672 7426122 male
-2.674956 0.3308345 -0.1172341 0.8314284 0.1498427 -0.5350458 8410966 male
-2.740159 0.061286 0.08460062 -0.472983 0.2662726 0.8398726 6316126 male
-2.683376 0.1867131 -0.1276144 0.6643968 -0.04485035 -0.7460331 6843248 male
-2.718539 0.9250151 -0.1034078 0.5676401 0.7333769 -0.3740897 1313800 male
-2.968859 0.564731 -0.06453513 -0.8276253 -0.134623 -0.5448973 8674642 male
-2.734806 0.8254721 -0.140884 0.4215185 -0.2994648 -0.8559456 1379853 male
-2.768589 0.7991552 0.04657365 -0.3349015 0.1055864 0.9363186 6832959 male
-2.849307 -0.1604599 -0.02570297 0.6494829 0.1201885 -0.7508174 6639187 male
-2.93144 -0.1683631 -0.005998655 -0.9983786 0.004433005 -0.05674992 8545377 male
-2.890365 0.3980359 0.03710384 -0.7039717 0.03632393 0.7092986 9533040 male
-2.847245 0.4586274 -0.1653535 -0.2009249 -0.174171 -0.9639987 10975857 male
-2.943901 -0.02304695 -0.006918248 -0.9880179 -0.1533267 0.01765195 6975602 male
-2.881622 -0.498075 -0.07977763 0.2140682 -0.9322014 0.291848 7294802 male
-2.803019 0.8218511 -0.1368194 -0.5251742 -0.2618554 -0.809706 2431508 male
-2.702548 0.8263807 0.0165422 0.7158 0.1855891 0.6731917 8673107 male
-2.733303 0.03812342 -0.09021929 -0.04090776 -0.7732756 -0.6327491 9278108 male
-2.789731 0.194026 0.07268194 0.09359024 0.03278357 0.9950709 7237234 male
-2.657906 -0.4701047 0.1497627 0.291298 -0.7914657 -0.5373337 2496533 male
-2.601889 0.3465698 -0.1278695 -0.6005657 -0.6962308 -0.3931712 9464681 male
-2.797444 0.07933 -0.07521809 0.8249246 -0.4396394 -0.3552698 5460571 male
-2.870044 -0.3173006 -0.04887564 0.4056285 -0.4975002 0.7667848 7097673 male
-2.797312 0.4804406 -0.1713074 -0.1988618 -0.1390648 -0.9701108 10384490 male
-2.727202 0.6581339 -0.02389824 0.6102942 0.3750331 0.6977759 8347734 male
-2.750895 0.01455825 0.09077009 -0.7104363 0.1394617 0.6898049 5524812 male
-3.030843 0.3695693 -0.03331096 -0.5293515 -0.8017009 -0.2776015 8806493 male
