# .PCD v0.7 - Point Cloud Data file format
VERSION 0.7
FIELDS x y z normal_x normal_y normal_z rgb label
SIZE 4 4 4 4 4 4 4 4
TYPE F F F F F F U U
COUNT 1 1 1 1 1 1 1 1
WIDTH 132
HEIGHT 1
VIEWPOINT 0 0 0 1 0 0 0
POINTS 132
DATA ascii
-2.84961 0.4573167 -0.4483352 -0.462885 0.1432051 0.8747742 9598321 male
-2.949391 0.04573734 -0.488777 -0.947818 0.04519029 0.315593 8687244 male
-2.714524 0.08019757 -0.4639134 -0.189479 -0.07109942 0.9793072 6645354 male
-2.945488 -0.002181429 -0.5350971 -0.9299222 -0.1051869 -0.3523925 8216672 male
-2.836576 0.3517588 -0.4311146 -0.5220056 0.02054866 0.8526945 8940137 male
-2.707515 -0.367912 -0.6081782 -0.9916536 -0.1250864 -0.03124907 7952216 male
-2.891915 0.6993878 -0.6164097 -0.5979751 0.7931119 -0.1157553 8084818 male
-2.900666 0.6288101 -0.5421975 -0.4230077 -0.3357235 0.8416378 10586239 male
-2.781735 0.8161373 -0.4824581 -0.3042078 -0.000831073 0.9526054 7359815 male
-2.642596 0.1575567 -0.5875719 0.9213797 0.01619215 -0.3883263 7040371 male
-2.922583 -0.3469995 -0.5142362 0.6720839 0.02994201 0.7398694 8544353 male
-2.715433 0.8246595 -0.5903281 0.9431167 -0.3197253 -0.0911408 7027769 male
-2.69688 0.6187418 -0.6980602 0.4534105 0.1102158 -0.8844611 9398622 male
-2.810263 0.3231952 -0.4211957 -0.184711 -0.1484516 0.9715164 8809072 male
-2.927638 0.286144 -0.5484996 -0.925724 0.3358402 0.1739147 9541532 male
-2.881188 -0.1805918 -0.527737 0.9501054 0.1525503 -0.272081 7032396 male
-2.74634 -0.05104592 -0.5856099 -0.7180727 -0.0944948 -0.6895233 9005159 male
-2.984139 0.5726304 -0.5860573 -0.9508488 0.3075565 0.03599465 7560530 male
-2.79788 0.6840454 -0.5252328 -0.1222577 0.4415981 0.8888443 8019545 male
-2.909405 0.5048462 -0.5216869 -0.8811201 0.04307601 0.4709264 9072233 male
-2.82388 0.7786294 -0.5566664 -0.9054433 -0.114912 0.4086168 8805204 male
-2.93176 0.09828459 -0.4688242 -0.777965 0.1605382 0.607452 4407875 male
-2.681852 -0.4518473 -0.4997257 0.143213 0.9061894 0.397883 13279402 male
-2.614367 0.5387781 -0.6554971 -0.2268645 -0.326343 -0.9176234 11041906 male
-2.702754 0.009288488 -0.472546 -0.08961852 -0.1738606 0.980684 7040363 male
-2.764281 0.2690489 -0.6587769 -0.02075516 0.2912381 -0.9564254 7896448 male
-2.840891 0.4318062 -0.669862 -0.2617534 -0.2557828 -0.9306237 11371132 male
-2.651674 0.3186125 -0.5304163 0.9339408 -0.15272 0.3231581 10978182 male
-2.652485 0.1581914 -0.4934123 0.7390119 0.1987147 0.6437188 6317161 male
-2.999198 0.3262245 -0.4696155 -0.4619117 0.595401 0.6573699 6572107 male
-2.861822 0.6119319 -0.6956399 -0.3752367 0.116538 -0.919574 10844523 male
-2.676003 0.4369705 -0.4824476 0.7963058 0.09018906 0.5981329 11703185 male
-2.980839 -0.1971979 -0.5136535 -0.9921165 0.06647234 0.1062375 7428697 male
-3.000432 0.2939802 -0.5070104 0.92156 -0.3786162 0.0858885 4863025 male
-2.852412 0.8650613 -0.5907093 -0.3927853 -0.00409076 0.9196211 9000530 male
-2.65385 0.6090088 -0.622515 -0.9644252 -0.2640398 -0.01292055 6177596 male
-2.919518 0.1735256 -0.479388 -0.6854792 0.2770215 0.673333 5527382 male
-2.940228 0.5215759 -0.61281 0.6930419 -0.4423682 -0.5692129 12100759 male
-2.65364 -0.2615586 -0.5432286 0.5414243 -0.2446701 0.8043608 6902352 male
-2.738995 0.2614686 -0.6604576 0.04955542 0.2722887 -0.9609386 8356487 male
-2.797945 0.1974131 -0.66934 -0.05332016 -0.01552174 -0.9984568 9081240 male
-2.555765 0.3244911 -0.583559 0.8995402 -0.357027 -0.2517126 6967369 male
-2.699776 0.9329105 -0.6164215 0.9298967 0.3205692 -0.180354 1248008 male
-2.769662 0.5040925 -0.4516837 0.06752921 0.3645537 0.9287305 9468022 male
-2.846057 0.9188157 -0.5899935 -0.9872714 0.1549542 0.03584041 3614496 male
-2.651636 -0.2537545 -0.6220298 0.6603726 -0.06159693 -0.7484075 6046267 male
-2.613144 0.6460327 -0.5783761 0.3210894 0.03678665 0.9463341 11701637 male
-2.688519 0.05372778 -0.6150658 0.3156996 -0.1529943 -0.9364435 7304576 male
-2.727778 0.4774926 -0.4462324 0.295357 0.2891333 0.9105857 9269100 male
-2.649762 0.560218 -0.5404536 0.9464334 -0.06365631 0.3165623 9136226 male
-2.889388 0.6625629 -0.6624522 -0.5818977 0.3421919 -0.7377667 9266778 male
-2.717523 0.1080493 -0.4628397 -0.1340929 0.00445824 0.9909588 5724511 male
-2.840516 0.004584075 -0.572721 0.5633556 -0.350345 -0.7482572 7495524 male
-2.68711 0.2076981 -0.4865309 0.4462554 0.1165523 0.8872833 7566715 male
-2.90302 0.631537 -0.5728564 0.8660848 -0.4027283 0.2961538 6705486 male
-2.835213 0.929186 -0.6385594 -0.8758567 0.2561334 -0.4089874 1642768 male
-2.888806 -0.1143653 -0.5295428 0.4782794 -0.05261618 -0.8766301 8347742 male
-2.667241 0.4937768 -0.5075506 0.8517793 0.007751391 0.5238434 10847876 male
-2.721168 0.7193252 -0.5706107 0.878926 0.2893796 0.3791419 8149587 male
-2.953016 -0.4606535 -0.5553284 -0.02964745 -0.9920126 -0.1226052 6049102 male
-2.926505 0.1092842 -0.5871897 -0.7979816 -0.1747627 -0.5767871 6908529 male
-2.691503 -0.4357607 -0.5501744 -0.8247591 0.4664023 0.3197521 11241361 male
-2.655296 -0.3114477 -0.6166564 0.7513123 -0.1631928 -0.6394513 5453876 male
-2.895203 0.6928769 -0.6279655 -0.6234601 0.7050816 -0.3378719 8214603 male
-2.81431 0.01186773 -0.5343552 0.9150227 -0.35989 -0.1822434 4997442 male
-2.631555 -0.477155 -0.5835516 0.4419323 -0.8047004 -0.3964254 3743770 male
-2.594731 0.4960935 -0.6358811 -0.5088542 0.3377755 0.7918177 7558482 male
-2.73403 0.6692472 -0.5260125 0.2846948 0.5189799 0.805983 8939619 male
-2.69163 0.02069701 -0.4695639 0.07701021 -0.1588721 0.9842912 6711406 male
-2.671287 -0.4026825 -0.6359119 0.5603178 0.002560281 -0.8282738 5783360 male
-2.904393 0.6437736 -0.5598202 0.3772962 -0.4499586 0.8094349 9336693 male
-2.971267 0.3943331 -0.5811405 0.9784622 -0.1326609 0.1581543 6771798 male
-2.827165 0.5135965 -0.4543431 -0.1331135 0.2544573 0.9578791 9993079 male
-2.770994 0.932407 -0.6801896 0.02028366 0.32491 -0.9455274 2694168 male
-2.676413 0.4974231 -0.6665453 0.6205602 -0.2044772 -0.7570298 9726315 male
-2.903289 0.6737616 -0.6411326 -0.7061064 0.4653688 -0.5337092 8674899 male
-2.657245 -0.3673878 -0.5819055 0.9590384 -0.1511537 0.2395784 7690839 male
-2.912631 0.4747509 -0.6209722 -0.8982726 -0.183617 -0.3992383 9726307 male
-3.040455 0.3047586 -0.4302624 -0.7276678 0.4394276 0.5266905 5718599 male
-2.795888 0.9810535 -0.5633561 -0.3895916 0.899553 0.1975419 2693400 male
-2.972858 -0.2405176 -0.5512326 -0.8489565 -0.03204571 -0.5274902 5190702 male
-2.836653 0.2204914 -0.4632349 -0.3795237 0.005592332 0.9251651 6316384 male
-3.022784 0.4913774 -0.6187942 -0.9645568 0.2622502 -0.02924312 5783095 male
-2.965762 0.3212261 -0.4423911 0.4586081 -0.88344 0.09598129 7100763 male
-2.972472 -0.2562458 -0.5044397 -0.8844473 -0.1826726 0.4293992 7035226 male
-2.637531 0.1835376 -0.5714196 0.9726625 0.03416945 -0.2296959 7698815 male
-2.951006 -0.0803313 -0.5185927 -0.8739583 0.1120715 -0.4729027 7821139 male
-2.867196 -0.1055526 -0.4690624 0.7555873 -0.3241334 0.5692323 6571594 male
-2.703942 0.8846427 -0.6317972 0.9116083 -0.1590384 -0.3790477 1050624 male
-2.900428 0.3162482 -0.6163846 -0.7167194 0.1775218 -0.6743881 6776167 male
-2.713938 0.7281601 -0.6159637 0.7391998 0.6688331 -0.07903077 9726820 male
-3.034184 0.286841 -0.4142534 -0.3460421 -0.8644892 -0.3645727 396300 male
-2.66117 0.1874631 -0.496447 0.6188542 0.2269017 0.7520206 6908011 male
-2.589994 0.2771807 -0.5322894 -0.8648231 -0.3357427 -0.3733066 6832958 male
-2.718521 0.3548018 -0.4316988 0.5224345 0.01976072 0.8524504 9400694 male
-2.673898 0.09515797 -0.4673628 0.4116225 0.04507699 0.910239 6711405 male
-2.955275 -0.09642565 -0.4858676 -0.9532311 0.06002317 0.2962224 6309701 male
-2.645083 -0.3113858 -0.5875599 0.977242 -0.2065008 0.04853359 8085859 male
-2.747932 0.9344122 -0.504627 0.3492356 0.4189913 0.8381412 6572611 male
-2.931069 -0.07083534 -0.5404134 -0.6432588 -0.02897015 -0.7651005 7821910 male
-2.65786 -0.1362593 -0.5166012 0.861145 -0.1301768 0.4914094 9463143 male
-2.919003 0.5572295 -0.6299576 -0.852936 -0.3534224 -0.384178 10253675 male
-2.683868 -0.2613961 -0.5415637 -0.2074916 -0.2254688 0.9518986 6902608 male
-2.646472 -0.4122417 -0.5910925 0.9890087 0.09938832 0.1094699 9927808 male
-2.967621 0.3277228 -0.4614562 0.9323035 0.1709916 -0.3187036 6702923 male
-2.895022 -0.2978556 -0.5367322 0.9637039 -0.2458858 -0.103995 5454130 male
-2.569075 0.3929604 -0.6674868 0.2323217 -0.6350954 -0.7366685 7032913 male
-2.668972 0.3363228 -0.6346263 0.6583219 -0.2302992 -0.7166411 9726315 male
-2.768718 0.07154812 -0.4957768 -0.7560262 -0.1717582 0.6316039 5198164 male
-2.684524 0.1589411 -0.6444805 0.618033 -0.01503651 -0.7860084 6711406 male
-2.725481 0.9675652 -0.6287937 0.6066844 0.7421969 -0.2847415 1313800 male
-2.965014 0.614509 -0.6199255 -0.7933758 -0.07748863 -0.60378 7887439 male
-2.734171 0.8678871 -0.6681477 0.5490113 -0.2963472 -0.7815145 1379853 male
-2.793585 0.8495836 -0.4889223 -0.3415379 0.2229747 0.9130357 7818826 male
-2.870325 -0.1211716 -0.5166939 0.7420297 -0.2499887 -0.6220109 5719623 male
-2.964431 -0.1336947 -0.5131243 -0.9399151 0.2778109 -0.1984459 8545889 male
-2.857319 0.2868769 -0.4608582 -0.5303439 -0.08753882 0.843251 6579560 male
-2.867791 0.5138404 -0.6770166 -0.4679634 -0.2199138 -0.8559487 10844531 male
-2.950801 -0.005215378 -0.5104096 -0.9944176 -0.08968709 -0.05558608 7624531 male
-2.971095 -0.4592248 -0.5486646 -0.4180259 -0.86768 -0.2690458 6180167 male
-2.802187 0.862825 -0.674723 -0.3941731 -0.2633192 -0.8805059 2431508 male
-2.738199 0.8686383 -0.5003934 0.4302672 0.3175322 0.8450109 8672594 male
-2.77135 0.1210889 -0.6388134 -0.496294 -0.7228896 -0.4807526 8357004 male
-2.771349 0.1519255 -0.4488189 0.3342937 -0.5175961 0.7876179 6974574 male
-2.676685 -0.4744924 -0.6111808 -0.1804817 -0.9823884 0.04836534 4863801 male
-2.600435 0.3588618 -0.5908284 -0.9986183 0.02244233 0.0475173 10058110 male
-2.810682 0.01807198 -0.5294383 0.9340433 -0.3445013 -0.09424365 4075569 male
-2.928149 -0.2572911 -0.4871015 0.2560183 -0.2706336 0.9280151 5913666 male
-2.647173 0.3710528 -0.5520902 0.9948743 0.03713701 0.09405293 11372939 male
-2.800399 0.725611 -0.5333815 -0.4957152 -0.07086588 0.8655891 10056553 male
-2.766291 0.03951234 -0.5065238 -0.8005623 -0.2217851 0.5566968 4867394 male
-2.962003 0.5105383 -0.6263123 0.2187637 -0.3552613 -0.9088079 7162692 male
