# .PCD v0.7 - Point Cloud Data file format
VERSION 0.7
FIELDS x y z normal_x normal_y normal_z rgb label
SIZE 4 4 4 4 4 4 4 4
TYPE F F F F F F U U
COUNT 1 1 1 1 1 1 1 1
WIDTH 132
HEIGHT 1
VIEWPOINT 0 0 0 1 0 0 0
POINTS 132
DATA ascii
-2.791516 0.4610935 0.588784 -0.5266441 0.1422396 0.8381013 9598321 male
-2.881027 0.04468435 0.5295891 -0.9761696 0.02393883 0.2156846 8687244 male
-2.672978 0.1122101 0.5779364 -0.3847366 -0.07463501 0.920004 5526868 male
-2.871546 -0.001308123 0.4818907 -0.8865044 -0.09978054 -0.4518338 8216672 male
-2.777889 0.3538377 0.6063564 -0.5876518 0.005017994 0.8090984 8940137 male
-2.613482 -0.3559892 0.4213834 -0.52496 0.01362213 -0.8510178 7033162 male
-2.817607 0.692207 0.3870384 -0.5327874 0.6041734 -0.5925471 7688772 male
-2.836293 0.6246737 0.4944506 -0.6250498 -0.3189909 0.7124307 10454142 male
-2.72402 0.8408052 0.5461068 -0.5311369 0.08960558 0.8425345 5846581 male
-2.566346 0.1919623 0.4743519 0.9737685 0.04830731 -0.2223543 7237750 male
-2.834452 -0.3529835 0.4757474 0.9739983 -0.1094106 0.1983852 6637388 male
-2.649016 0.827671 0.4395425 0.934617 -0.3518852 -0.05165125 6897978 male
-2.639559 0.5684554 0.3420097 0.2246729 -0.2363532 -0.9453356 10975861 male
-2.741637 0.3290962 0.6203074 -0.1225742 -0.1279093 0.9841823 9663859 male
-2.857126 0.2882695 0.4580128 -0.9486933 0.278731 -0.1492988 9342869 male
-2.809148 -0.1646558 0.488617 0.9279998 0.1609024 -0.3360458 7032652 male
-2.682333 -0.05905843 0.4833911 -0.9524634 -0.06385474 -0.2978858 7556430 male
-2.920238 0.5761418 0.4440089 -0.942297 0.3330488 -0.03398164 7560530 male
-2.705157 0.6576476 0.529757 0.02969888 0.51228 0.8583048 8151642 male
-2.82492 0.5046486 0.5486551 -0.7735341 0.06060333 0.6308504 9862261 male
-2.753988 0.7740851 0.4837613 -0.8573857 -0.04098068 0.5130403 9529184 male
-2.881309 0.0745508 0.5072089 -0.9993141 0.03306431 -0.01667154 6645352 male
-2.622287 -0.4484045 0.5586722 -0.260546 0.8722394 0.4139012 16772087 male
-2.551017 0.5727063 0.3895035 -0.01210121 -0.3420611 -0.9395998 11700097 male
-2.668464 0.02225176 0.5597903 -0.6181008 -0.1815409 0.7648492 6052442 male
-2.685386 0.2695765 0.3833805 0.0573278 0.2925664 -0.9545252 8093828 male
-2.759695 0.4159204 0.3719005 -0.0989275 -0.2743348 -0.9565322 11042678 male
-2.590252 0.3104708 0.5233241 0.8623843 0.04662458 0.5041026 10979209 male
-2.56968 0.1472742 0.5397009 0.898964 0.09126906 0.4284082 9344927 male
-2.952951 0.325493 0.5631584 -0.4999297 0.5837989 0.6397259 6572107 male
-2.79015 0.6012095 0.338212 -0.2976857 0.008244919 -0.9546283 10843499 male
-2.60492 0.4608465 0.5473687 0.8007231 0.0988058 0.5908298 10913669 male
-2.90392 -0.1966509 0.4791027 -0.965829 0.1300835 -0.2241711 7362903 male
-2.955165 0.2912782 0.5275881 0.9041622 -0.3828505 0.1895156 5323575 male
-2.787372 0.8649198 0.4326097 -0.7621166 0.05621617 0.6449946 8672594 male
-2.581753 0.5809109 0.4393912 -0.9629679 -0.2576692 0.07936867 5454138 male
-2.853602 0.1727168 0.547077 -0.7526955 0.2473152 0.6101514 5527382 male
-2.874427 0.5099344 0.4257137 0.8765548 -0.3644353 -0.314386 9204587 male
-2.567429 -0.1956201 0.4364778 0.7159805 0.1899676 -0.671777 7163467 male
-2.700123 0.2641318 0.3804854 0.04415843 0.2818881 -0.9584305 9080728 male
-2.631954 0.1914449 0.3798253 0.4628589 -0.04093152 -0.8854865 7042170 male
-2.486398 0.3375642 0.4634621 0.7353338 -0.4878724 -0.4703879 7558481 male
-2.630523 0.9333725 0.4118587 0.9431056 0.2969234 -0.1496267 1248008 male
-2.7362 0.5279387 0.5839525 0.02909723 0.3509312 0.9359491 10060664 male
-2.778197 0.922806 0.4313738 -0.9852476 0.1692898 -0.02506317 3614496 male
-2.588625 -0.233521 0.4182842 0.3080763 0.01206837 -0.9512851 5190702 male
-2.5537 0.648894 0.4723679 0.1730139 0.03959656 0.9841231 11504516 male
-2.641159 0.05361945 0.4265231 0.006742048 -0.209068 -0.9778779 9344671 male
-2.76511 0.6196541 0.5511269 -0.1103709 0.5155796 0.8497034 9729387 male
-2.584763 0.6143994 0.4818228 0.6078852 -0.6358081 0.4756297 9269356 male
-2.813508 0.644438 0.358934 -0.4847228 0.1109219 -0.867606 9727331 male
-2.665344 0.1205564 0.5802202 -0.2923252 -0.01167961 0.9562476 5724509 male
-2.76333 0.007908723 0.4563195 0.6428326 -0.31477 -0.6983452 7495524 male
-2.640281 0.2420665 0.5724901 0.4471004 -0.1314469 0.8847728 7040371 male
-2.838515 0.6330428 0.4588042 0.8369185 -0.4100059 0.3625777 6705486 male
-2.764686 0.9301124 0.382908 -0.849292 0.2428789 -0.4687354 1642768 male
-2.812913 -0.1041584 0.4827839 0.4753927 -0.1257378 -0.8707421 8939623 male
-2.693731 0.5188947 0.5877589 -0.005871985 0.3625566 0.9319432 9598833 male
-2.656325 0.7333055 0.4534382 0.9536161 0.2467743 0.1723914 8215123 male
-2.890675 -0.4498557 0.438651 -0.6939613 -0.1589866 -0.7022399 6508618 male
-2.849007 0.1117173 0.4372105 -0.7333018 -0.1659477 -0.6593406 6908529 male
-2.60954 -0.4165427 0.4834708 -0.8781101 0.3516678 0.3244264 9464693 male
-2.563868 -0.2941655 0.4771214 0.9163046 -0.2078847 0.3423008 7756637 male
-2.835689 0.677522 0.3927802 -0.6804976 0.4957181 -0.5396171 8674899 male
-2.733783 0.03701537 0.486706 0.9309737 -0.3021261 -0.2049579 5264469 male
-2.570393 -0.4708348 0.4487567 -0.004106551 -0.9985009 -0.05458072 4271656 male
-2.548511 0.4904498 0.4102698 -0.9369888 -0.009392067 0.349233 8413789 male
-2.688414 0.6845256 0.5110305 0.1401627 0.4976367 0.855986 8611163 male
-2.635257 0.03662091 0.5779492 -0.1640963 -0.1472037 0.9753992 7302769 male
-2.553318 -0.4553931 0.4331853 0.961857 -0.009327538 -0.2733939 7032145 male
-2.83971 0.6466067 0.4710177 0.3245401 -0.4247133 0.8451582 9336693 male
-2.911979 0.4081789 0.4176584 0.6313828 -0.6376888 -0.4412581 7296086 male
-2.81568 0.5219146 0.5566093 -0.6674297 0.1450773 0.7304041 9006957 male
-2.684766 0.9241236 0.3459958 0.2487558 0.2000759 -0.9476762 2037520 male
-2.586989 0.4734326 0.420771 0.9033949 -0.2603838 -0.3407023 10055280 male
-2.846031 0.6459605 0.3829362 -0.6546518 0.214056 -0.7249904 8937814 male
-2.574352 -0.3406322 0.4797508 0.810747 -0.2281549 0.5391054 6178374 male
-2.834476 0.4981726 0.3938404 -0.7744936 -0.2071118 -0.597716 10252138 male
-2.998587 0.303743 0.5967476 -0.7575033 0.4494115 0.4735167 5718599 male
-2.728475 0.9858411 0.4568958 -0.3850369 0.9146051 0.1234671 2693400 male
-2.901087 -0.2599362 0.468142 -0.9527665 -0.09955816 -0.286922 5324345 male
-2.788302 0.2381798 0.5673583 -0.4831588 -0.09152921 0.8707353 6119263 male
-2.954817 0.5021063 0.4160858 -0.9439066 0.2440932 -0.2223933 5388337 male
-2.930199 0.3166812 0.5905479 -0.2964653 -0.9431171 0.1504605 4798521 male
-2.90101 -0.2617596 0.4934475 -0.9635796 -0.1641755 0.2110941 6114124 male
-2.565632 0.2063711 0.4811375 0.9878476 0.02861585 -0.1527685 6908785 male
-2.868534 -0.09600668 0.4847461 -0.594135 0.1681245 -0.7865988 8083802 male
-2.798276 -0.1068102 0.5490425 0.6949564 -0.3331312 0.6372278 6571594 male
-2.630975 0.8845244 0.4127006 0.9642338 -0.1837856 -0.190987 919042 male
-2.820612 0.332861 0.4099249 -0.6041322 -0.06828136 -0.7939534 8742244 male
-2.647752 0.7308161 0.4125672 0.6427544 0.7070833 -0.2947879 7030849 male
-2.99475 0.2847338 0.6123148 -0.3444846 -0.8280761 -0.44229 396300 male
-2.56028 0.1497543 0.4997956 0.9981413 0.05476046 0.02674402 9474712 male
-2.495849 0.2698241 0.5550849 -0.8371206 -0.3167275 -0.4459965 7489096 male
-2.688414 0.3912228 0.6217335 0.08927783 0.09168542 0.9917778 8940655 male
-2.697876 0.1041349 0.558673 -0.7672451 -0.04629082 0.6396813 5066578 male
-2.879182 -0.106265 0.5389923 -0.9503867 0.05753833 0.3057033 6966606 male
-2.575709 -0.3338245 0.4342388 0.8090355 -0.1619712 -0.5650017 5651261 male
-2.658083 0.9241992 0.5120292 0.7247249 0.3196684 0.6103982 8148563 male
-2.876706 -0.08294417 0.4923092 -0.8065506 0.1208794 -0.5786746 8018776 male
-2.592969 -0.1227364 0.5491241 0.6836171 -0.1751421 0.7085146 7096907 male
-2.851788 0.5353923 0.4857391 -0.9630752 0.0564026 0.263258 6507590 male
-2.58765 -0.3803953 0.4177056 0.4793938 -0.04198477 -0.876595 5257783 male
-2.570324 -0.4050267 0.4815307 0.7749164 0.4020903 0.487676 8808554 male
-2.922365 0.3250642 0.5745007 0.966558 0.1408207 -0.2143247 6702923 male
-2.814694 -0.2534892 0.507484 0.7168894 -0.2485472 0.6513785 6769742 male
-2.500562 0.4171215 0.3800471 0.1769109 -0.5794508 -0.7955748 7489866 male
-2.624294 0.4025405 0.3930532 0.6260848 -0.1328607 -0.7683526 8344918 male
-2.603663 0.08490495 0.5805398 0.3827944 -0.001983575 0.9238314 7565941 male
-2.59381 0.3940844 0.5405031 0.8598893 0.003639834 0.5104675 12755617 male
-2.654997 0.9675633 0.396138 0.6321795 0.7160182 -0.2960861 1313800 male
-2.898143 0.615703 0.4092426 -0.7584378 -0.08346891 -0.6463784 7887439 male
-2.672857 0.8773614 0.3513727 0.4242503 -0.2375453 -0.8738329 1380621 male
-2.740117 0.8580097 0.5372536 -0.3489844 0.1315859 0.9278443 8673622 male
-2.818503 -0.05947304 0.4604767 0.1808154 -0.1829016 -0.9663606 9730419 male
-2.893924 -0.1484635 0.4911046 -0.9236252 0.2894732 -0.2512407 9136741 male
-2.792834 0.282417 0.5747643 -0.5756648 -0.1288181 0.807475 6644838 male
-2.780009 0.5018805 0.3556006 -0.2931072 -0.2528684 -0.9220335 9988451 male
-2.878917 -0.01122809 0.5068002 -0.9829497 -0.1059693 -0.1502678 7361103 male
-2.887154 -0.455725 0.4400403 -0.5466 -0.5507793 -0.6307699 4471608 male
-2.730894 0.8613139 0.352569 -0.3523035 -0.3103081 -0.8829445 2431508 male
-2.669745 0.8795117 0.5254111 0.4431936 0.2786863 0.8520055 8673879 male
-2.695096 0.1182269 0.416485 -0.5937613 -0.5971023 -0.5393667 5855585 male
-2.714194 0.1844867 0.59999 0.1093153 -0.07205638 0.991392 7434097 male
-2.597106 -0.4652728 0.4193389 -0.515933 -0.8207213 -0.2454174 2632231 male
-2.521677 0.3789452 0.4165988 -0.5729436 -0.6132946 -0.5436961 10715522 male
-2.729676 0.04316792 0.5035619 0.9717305 -0.230495 0.05110585 3026479 male
-2.846329 -0.2875037 0.5122913 0.2744314 -0.2602091 0.9257314 7097670 male
-2.631655 0.3287841 0.3982221 0.3297148 -0.1947797 -0.9237689 8542296 male
-2.62232 0.6453531 0.5082107 0.3440166 0.4687418 0.8135931 9465191 male
-2.597558 0.06074968 0.5783332 0.4514642 -0.06514667 0.8899079 6645096 male
-2.909189 0.4391029 0.3949719 0.4468178 -0.6324144 -0.6327763 8346718 male
