# .PCD v0.7 - Point Cloud Data file format
VERSION 0.7
FIELDS x y z normal_x normal_y normal_z rgb label
SIZE 4 4 4 4 4 4 4 4
TYPE F F F F F F U U
COUNT 1 1 1 1 1 1 1 1
WIDTH 132
HEIGHT 1
VIEWPOINT 0 0 0 1 0 0 0
POINTS 132
DATA ascii
-2.866583 0.4795406 -0.4651724 -0.3675032 0.1689423 0.914549 10388349 male
-2.964753 0.04530385 -0.4856995 -0.8428661 0.06136502 0.534613 5331545 male
-2.726452 0.1050494 -0.4867468 -0.05135769 -0.007181298 0.9986545 6316901 male
-2.971907 0.03877232 -0.5446902 -0.9660808 -0.05359636 -0.2526171 7632505 male
-2.851399 0.3298637 -0.4479346 -0.4584426 -0.1158995 0.8811343 8479336 male
-2.715901 -0.3632463 -0.6271226 -0.9890502 -0.1462739 0.01958529 7952216 male
-2.909418 0.7045298 -0.6478486 -0.6204288 0.6338982 -0.4617804 7492681 male
-2.892616 0.595798 -0.5020561 -0.4479741 0.2582708 0.8559296 10584695 male
-2.827535 0.8698818 -0.5106894 -0.2916532 0.2950218 0.9098904 8673106 male
-2.666518 0.1632236 -0.6163259 0.8975351 0.03473239 -0.4395729 7040371 male
-2.936291 -0.3502327 -0.5425918 0.9784144 0.005973976 0.2065666 7097939 male
-2.747852 0.8130887 -0.5984648 0.951569 -0.3030317 -0.05184929 7160636 male
-2.730267 0.596136 -0.720997 0.3743711 -0.02643155 -0.9269022 10648171 male
-2.806231 0.3101338 -0.4424463 0.03284871 -0.1686454 0.9851293 9269620 male
-2.951637 0.2903115 -0.5838528 -0.9560534 0.2926262 -0.01821264 9342869 male
-2.927277 -0.07347211 -0.5584083 0.08148649 -0.1842747 -0.9794911 9203051 male
-2.771096 -0.04368509 -0.5953589 -0.8939061 -0.1320072 -0.4283759 8544092 male
-3.014055 0.5723079 -0.5823789 -0.9364604 0.3385635 0.09174135 7560530 male
-2.789942 0.6629317 -0.530167 0.1461248 0.5032248 0.8517114 8084818 male
-2.892692 0.5056949 -0.4839288 -0.5657707 0.08713345 0.8199459 9664370 male
-2.844301 0.7724336 -0.5606961 -0.7764314 -0.07197263 0.6260785 9529184 male
-2.916043 0.1267481 -0.4639622 -0.323172 0.226461 0.9188446 6513252 male
-2.682964 -0.4464193 -0.5180739 0.1459524 0.9104581 0.3869933 13279402 male
-2.642507 0.4669363 -0.7108352 -0.6775796 -0.3583268 -0.6422522 9528936 male
-2.715459 0.01531971 -0.4965944 -0.02880496 -0.1647108 0.9859213 7040363 male
-2.823348 0.2813218 -0.6748317 -0.09501613 0.2972352 -0.9500648 8489098 male
-2.865202 0.4182634 -0.6818375 -0.2333587 -0.251646 -0.9392647 11042678 male
-2.664131 0.2845854 -0.5808212 0.927029 0.3424211 0.1528569 7830915 male
-2.6944 0.160302 -0.5028966 0.4450649 0.2682807 0.8543668 7171957 male
-3.08149 0.2906099 -0.4631593 -0.9291309 0.04290582 0.3672531 6113095 male
-2.898464 0.6138034 -0.7045652 -0.4504625 0.1073513 -0.8863178 10844523 male
-2.688151 0.4437021 -0.5218719 0.8631738 0.09078711 0.4966776 10980230 male
-2.966962 -0.1820271 -0.5737797 -0.2228894 0.2485771 -0.9426185 7953235 male
-3.038039 0.3066416 -0.5255727 0.690013 -0.3767782 -0.6179971 4532260 male
-2.868556 0.8506589 -0.5765374 -0.9733061 -0.0907226 0.2108188 7359047 male
-2.684691 0.597964 -0.6460579 -0.9514376 -0.2837887 0.1192914 6046266 male
-2.941726 0.1985753 -0.5073682 -0.698422 0.2676774 0.6637436 5856354 male
-2.960036 0.5735705 -0.6298135 0.2796097 -0.484338 -0.8289964 7425866 male
-2.661703 -0.2547968 -0.5670721 0.586472 -0.2210563 0.7792206 6902352 male
-2.807663 0.2752478 -0.6781026 -0.08811808 0.2967049 -0.9508951 8685454 male
-2.799945 0.2046422 -0.6933777 -0.1453435 0.02929306 -0.9889475 9147030 male
-2.57771 0.3177713 -0.618935 0.9366967 -0.2983271 -0.1833036 7164236 male
-2.742127 0.9117178 -0.6686282 0.8419294 -0.005575386 -0.5395589 1050116 male
-2.842319 0.6103902 -0.4935682 0.04866121 0.4524077 0.8904826 9400430 male
-2.877496 0.9222767 -0.6035448 -0.9810433 0.1514194 0.1209391 3614496 male
-2.663828 -0.2480506 -0.6459327 0.6229588 -0.05717555 -0.7801624 6046267 male
-2.635686 0.6580686 -0.6129275 0.6470159 0.389927 0.6552308 11043961 male
-2.749846 0.01086696 -0.6334098 -0.3668175 -0.1721852 -0.9142194 7887450 male
-2.83312 0.6276297 -0.5040775 0.09569325 0.5205584 0.8484467 9137251 male
-2.67086 0.540058 -0.5786404 0.9776441 -0.007023219 0.210149 7688782 male
-2.924245 0.6637818 -0.6692303 -0.6501734 0.3254046 -0.6865758 9266778 male
-2.733014 0.1136062 -0.4871528 -0.07718662 0.01333326 0.9969275 5724511 male
-2.956214 0.1500938 -0.5969732 -0.925373 0.01237584 -0.3788557 7106676 male
-2.6795 0.2187818 -0.5308546 0.6621615 0.1397775 0.7362095 6514027 male
-2.935 0.6210572 -0.5852513 -0.311231 -0.7252401 0.6141353 7690068 male
-2.871086 0.9316742 -0.6530787 -0.9100972 0.2443041 -0.3347218 1642768 male
-2.927723 -0.06007238 -0.566398 -0.05858917 -0.2009511 -0.9778476 9598833 male
-2.800991 0.5277667 -0.474823 0.1525356 0.341043 0.9275897 10257018 male
-2.751095 0.7276926 -0.5929338 0.942439 0.2356092 0.2372699 8412502 male
-3.000757 -0.4384491 -0.5709428 -0.8729014 -0.07372153 -0.4822948 7033170 male
-2.856666 -0.0004064827 -0.5723286 0.7077222 -0.3943641 -0.5861793 7164500 male
-2.694401 -0.424729 -0.5748023 -0.7946391 0.4646671 0.390683 8674667 male
-2.665812 -0.3057247 -0.639546 0.7216702 -0.1554588 -0.6745552 5453876 male
-2.916948 0.7032213 -0.6376933 -0.6557752 0.6980911 -0.2874502 7360836 male
-2.836321 0.07191759 -0.6044198 0.6571349 -0.3759361 -0.6533343 4015947 male
-2.635579 -0.4710168 -0.6030845 0.4365748 -0.7989525 -0.4136151 3743770 male
-2.659178 0.4982858 -0.67327 -0.9759936 -0.1554954 0.1525046 8805212 male
-2.766323 0.6210539 -0.5097842 0.04048699 0.4277014 0.9030129 9729899 male
-2.704557 0.02712451 -0.4943599 0.1374167 -0.1441786 0.9799638 6711406 male
-2.648303 -0.4556052 -0.6451921 0.8994711 0.006247832 -0.4369355 7031114 male
-2.946055 0.6525586 -0.5571107 0.06332847 -0.03297532 0.9974478 10322812 male
-3.004463 0.3992404 -0.5964188 0.8226688 -0.5060902 -0.2590149 9204340 male
-2.930515 0.5181236 -0.5296881 -0.8505718 0.03361901 0.5247831 9664370 male
-2.797125 0.9286299 -0.7011024 0.1093221 0.2408008 -0.9643981 2037520 male
-2.673715 0.444593 -0.6073004 0.9863915 -0.08286242 -0.1420051 9267560 male
-2.928247 0.6963328 -0.6247818 -0.6499732 0.749907 -0.1231845 8347218 male
-2.664581 -0.3612345 -0.6036488 0.9726712 -0.1275725 0.1939998 7690839 male
-2.936063 0.4963361 -0.6439372 -0.8655097 -0.1949656 -0.4613906 9989994 male
-3.069474 0.2879644 -0.4118221 0.08321227 0.7650139 0.6386152 7755613 male
-2.825538 0.9852397 -0.5827723 -0.3758236 0.9018286 0.2132179 2693400 male
-2.985005 -0.2295683 -0.4910328 -0.5334155 -0.2200464 0.8167297 6113092 male
-2.853923 0.2238616 -0.4813176 -0.335747 0.008716721 0.9419119 6316384 male
-3.053334 0.4960745 -0.6057743 -0.9521679 0.305509 0.006365688 5783095 male
-3.000481 0.3115076 -0.4447989 0.8178315 -0.5415398 -0.1946441 6572619 male
-3.001375 -0.2379462 -0.5539287 -0.9162588 -0.05132757 -0.3972851 4863535 male
-2.661081 0.1892397 -0.6004901 0.9575745 0.05272439 -0.2833215 7698815 male
-2.974951 -0.08535486 -0.5271977 -0.7964447 0.1504294 -0.5857021 8544865 male
-2.900669 -0.07097286 -0.4612207 0.5552476 -0.1729762 0.8134982 5583924 male
-2.733902 0.8730081 -0.6339582 0.82724 -0.225761 0.5144957 2363921 male
-2.921686 0.3344938 -0.6367978 -0.7103483 -0.0572203 -0.7015206 8742244 male
-2.746308 0.7320776 -0.6373252 0.7226971 0.6752269 -0.147572 9726820 male
-3.068639 0.2697287 -0.4061037 -0.3533296 -0.8351058 -0.4216119 1050632 male
-2.680879 0.1933184 -0.5245443 0.6539547 0.2446175 0.715895 6908011 male
-2.602746 0.2747517 -0.5725139 -0.8930339 -0.3469871 -0.2865143 6832958 male
-2.710925 0.300673 -0.49478 0.7540989 -0.1667622 0.6352363 7894140 male
-2.689321 0.1020725 -0.4941262 0.4614808 0.06965365 0.8844116 6711405 male
-2.981829 -0.1085757 -0.4874856 -0.9457084 0.05672673 0.3200277 7361876 male
-2.654179 -0.3050337 -0.6110433 0.9828783 -0.184244 0.002101291 8085859 male
-2.740724 0.9143484 -0.5488713 0.9137334 0.1768103 0.365827 8806234 male
-2.975465 -0.0584524 -0.5187693 -0.9894268 0.08686964 -0.1161391 8281693 male
-2.662167 -0.1393923 -0.5507576 0.9378447 -0.0653638 0.3408444 8281181 male
-2.947494 0.5354873 -0.5836126 -0.9579978 -0.05220706 0.2819835 8411986 male
-2.691798 -0.2552874 -0.5638694 -0.154018 -0.2163822 0.9640836 6902608 male
-2.652556 -0.4062274 -0.6114608 0.9909399 0.118626 0.06297642 9927808 male
-3.006862 0.3118545 -0.4592417 0.6721281 -0.6735421 -0.3075467 6966093 male
-2.908878 -0.2409836 -0.5207341 0.8723743 -0.246868 0.4219233 7164244 male
-2.597865 0.416428 -0.7084709 0.3302466 -0.5161821 -0.7902489 6900296 male
-2.678485 0.3659908 -0.6353815 0.89394 0.1389666 -0.426098 8082772 male
-2.78776 0.06917051 -0.5227245 -0.772415 -0.191517 0.6055545 5197907 male
-2.71061 0.1782179 -0.6712877 0.6168027 -0.0328675 -0.7864313 6514027 male
-2.776553 0.9879168 -0.6199154 0.3931868 0.9131659 -0.1073885 4731947 male
-2.995364 0.5823517 -0.620276 -0.712728 -0.03501031 -0.7005662 7360839 male
-2.781562 0.8959246 -0.6999591 0.3199836 -0.07106823 -0.9447538 1184010 male
-2.83274 0.8571771 -0.5098529 -0.4539632 0.09849627 0.8855597 8804180 male
-2.964941 -0.0180936 -0.5506238 -0.8958446 -0.08517429 -0.4361282 8150619 male
-2.98647 -0.1135075 -0.5000607 -0.9839392 0.1183944 0.1335901 8085084 male
-2.877088 0.3076274 -0.4738253 -0.5642774 -0.1102238 0.8181942 6646120 male
-2.88651 0.5048682 -0.6925443 -0.4186044 -0.2258542 -0.8796364 9988451 male
-2.972809 -0.00735437 -0.5070741 -0.982003 -0.08195307 0.1701583 8940649 male
-2.982776 -0.4526181 -0.5622755 -0.05648038 -0.9893759 -0.1339602 6508112 male
-2.841012 0.8647093 -0.6906759 -0.4693747 -0.283516 -0.8362453 2431508 male
-2.742502 0.8791556 -0.5421981 0.8095819 0.2438301 0.53397 8278604 male
-2.786753 0.1102654 -0.6518501 -0.5155149 -0.6105266 -0.60125 6383469 male
-2.78124 0.2065757 -0.4654246 0.4260047 0.007709628 0.9046881 7566715 male
-2.681796 -0.4690194 -0.6286288 -0.1631758 -0.9850043 0.0560364 4863801 male
-2.627944 0.3740392 -0.6442646 -0.9770133 -0.1863181 0.1035886 9138802 male
-2.819901 0.07436647 -0.5729486 0.9449698 -0.1918545 -0.2649979 6316904 male
-2.943137 -0.2773923 -0.50845 0.3759271 -0.2831191 0.8823392 7097670 male
-2.806819 0.46155 -0.6961037 -0.319137 -0.2280102 -0.9198712 10582129 male
-2.786174 0.7289718 -0.5484781 0.4318466 -0.1052409 0.8957862 9333349 male
-2.781222 0.02656413 -0.5333408 -0.8056381 -0.2511146 0.5365526 4998464 male
-2.992413 0.554376 -0.6204322 -0.3566766 -0.2386012 -0.9032449 8674130 male
