# .PCD v0.7 - Point Cloud Data file format
VERSION 0.7
FIELDS x y z normal_x normal_y normal_z rgb label
SIZE 4 4 4 4 4 4 4 4
TYPE F F F F F F U U
COUNT 1 1 1 1 1 1 1 1
WIDTH 132
HEIGHT 1
VIEWPOINT 0 0 0 1 0 0 0
POINTS 132
DATA ascii
-2.859144 0.4796924 -0.4625702 -0.3852594 0.1710391 0.906819 10388349 male
-2.957637 0.04271213 -0.4913411 -0.8573418 0.04460068 0.5128117 5331545 male
-2.720218 0.1041484 -0.4831533 -0.07679446 -0.01159129 0.9969796 6316901 male
-2.960091 -0.00435737 -0.5501772 -0.9400486 -0.09226335 -0.3283231 8281948 male
-2.845477 0.3290096 -0.4456032 -0.4787617 -0.1192679 0.869806 8479336 male
-2.706133 -0.3635243 -0.6329325 -0.9460771 -0.1193392 -0.3011581 6964289 male
-2.897208 0.7053378 -0.6454189 -0.607259 0.638124 -0.4733226 7492681 male
-2.888325 0.6071357 -0.5086471 -0.4314264 0.2516832 0.8663295 10518647 male
-2.799073 0.833899 -0.4970224 -0.4843326 0.08586645 0.87066 6964032 male
-2.656738 0.1627914 -0.6110104 0.9084126 0.03413612 -0.416679 7040371 male
-2.928508 -0.3555233 -0.5486071 0.9753023 0.005777772 0.2207989 7097939 male
-2.736536 0.812998 -0.592742 0.9516684 -0.3051148 -0.03510303 7160636 male
-2.728117 0.5671395 -0.7155157 0.1961987 -0.2432805 -0.9499056 10975605 male
-2.800545 0.3090114 -0.4392394 0.009125415 -0.1741726 0.9846729 9269620 male
-2.942642 0.290298 -0.584283 -0.9551109 0.2936228 -0.03935476 9342869 male
-2.917207 -0.07522828 -0.5683007 0.1053307 -0.1766413 -0.9786231 9203051 male
-2.754426 -0.04812569 -0.6048722 -0.7350928 -0.1214551 -0.6669987 9005159 male
-3.002653 0.5723081 -0.5874016 -0.9425213 0.3262449 0.07223475 7560530 male
-2.799121 0.6855901 -0.5356851 0.08829171 0.4113293 0.9072005 8674650 male
-2.869458 0.5075884 -0.4721207 -0.3996083 0.1414566 0.9057059 9927286 male
-2.833714 0.7725859 -0.5566816 -0.7868554 -0.06978377 0.6131793 9529184 male
-2.944767 0.1017771 -0.4860066 -0.7729009 0.1660512 0.6124142 4407875 male
-2.676763 -0.4394292 -0.5222999 -0.0686034 0.9067796 0.4159859 14923714 male
-2.639078 0.5583062 -0.68243 -0.1539546 -0.2956037 -0.9428237 10384235 male
-2.709444 0.01450834 -0.4930897 -0.0543682 -0.167823 0.9843168 7040363 male
-2.812112 0.2818326 -0.6722483 -0.07129223 0.3045155 -0.9498357 8489098 male
-2.836148 0.388133 -0.6732862 0.03899644 -0.2604645 -0.9646956 9332573 male
-2.667295 0.3087408 -0.5574009 0.9396662 0.05446284 0.3377297 7889763 male
-2.687481 0.159306 -0.4982457 0.4242601 0.2616349 0.8669202 7171957 male
-3.069654 0.2872894 -0.4821417 -0.9147575 0.1027829 0.3907101 5784132 male
-2.88642 0.6051331 -0.7028263 -0.4105909 0.03963535 -0.9109578 10843499 male
-2.679833 0.4429076 -0.5156545 0.8533264 0.08651952 0.5141482 10980230 male
-2.957183 -0.1878515 -0.5860294 -0.2068371 0.2232306 -0.9525684 7953235 male
-3.024774 0.292069 -0.5329209 0.8585058 -0.4665824 -0.2127642 4992555 male
-2.861988 0.8474994 -0.5815524 -0.7118444 0.05292093 0.7003405 7489602 male
-2.674824 0.6111587 -0.642133 -0.9547775 -0.2831996 0.09054147 6177596 male
-2.934715 0.1971327 -0.5091723 -0.7159451 0.2543492 0.6501762 5856354 male
-2.958091 0.5080984 -0.6133503 0.8458554 -0.3368396 -0.4136035 9204587 male
-2.654911 -0.2556712 -0.5625753 0.5662029 -0.2118528 0.7965756 6902352 male
-2.796346 0.2757666 -0.6751891 -0.06424797 0.3039767 -0.9505106 8685454 male
-2.788255 0.2053711 -0.6908702 -0.1203566 0.03781329 -0.9920104 9147030 male
-2.56684 0.3124522 -0.6165263 0.9641595 -0.2511106 -0.08567285 6769994 male
-2.729337 0.9114963 -0.6629637 0.8511634 -0.008497956 -0.524832 1050116 male
-2.824019 0.6079576 -0.4899574 0.1483772 0.4111328 0.8994187 9203051 male
-2.865792 0.9224883 -0.6002497 -0.982637 0.1538417 0.1037167 3614496 male
-2.644191 -0.2502184 -0.6295892 0.8461989 -0.07807098 -0.5271171 5521212 male
-2.621372 0.6523345 -0.6086113 0.6539237 0.1871146 0.7330566 11306876 male
-2.740324 0.01067491 -0.6307552 -0.3440848 -0.1679885 -0.9237886 7887450 male
-2.824264 0.6273107 -0.5005698 0.08064023 0.5172861 0.8520048 9137251 male
-2.664256 0.5646986 -0.5600478 0.9640512 -0.05598649 0.2597516 9136226 male
-2.906173 0.6478129 -0.6784959 -0.5800072 0.1389888 -0.8026667 9727331 male
-2.685731 0.09464435 -0.4881213 0.3716099 0.03046797 0.9278889 7237746 male
-2.946821 0.1844478 -0.5889136 -0.9451239 0.1141324 -0.3061283 7500922 male
-2.671779 0.2179505 -0.525518 0.6438621 0.133967 0.7533223 6514027 male
-2.920274 0.6368707 -0.5839541 0.7931386 -0.5969345 0.1208318 8678503 male
-2.858503 0.9317908 -0.649687 -0.9036107 0.2459856 -0.3506834 1642768 male
-2.926359 -0.05243406 -0.5770848 -0.2853438 -0.1597993 -0.9450095 8807781 male
-2.665373 0.4940767 -0.559728 0.9544946 -0.03518233 0.2961456 11176070 male
-2.738686 0.7235399 -0.5858958 0.90047 0.2985994 0.3162155 8149587 male
-2.995614 -0.4466763 -0.5685818 -0.8635659 -0.2289855 -0.4492435 6901584 male
-2.93357 0.09508979 -0.608707 -0.6993361 -0.2211865 -0.6797099 6579052 male
-2.687318 -0.4312287 -0.5615873 -0.8238869 0.4611468 0.3294753 11241361 male
-2.670524 -0.3152943 -0.6443785 0.3837286 -0.1368919 -0.9132431 4863025 male
-2.909341 0.7019177 -0.6275461 -0.6422827 0.750595 -0.1551772 7821646 male
-2.821619 0.03682277 -0.5652872 0.8961902 -0.3309011 -0.2955462 5264469 male
-2.627297 -0.4724712 -0.5951797 0.4427653 -0.8050838 -0.3947136 3743770 male
-2.64476 0.5042195 -0.6575357 -0.8440878 -0.09819566 0.527137 8872034 male
-2.757206 0.6071861 -0.4985391 -0.03865962 0.3835471 0.9227118 9729387 male
-2.698548 0.02624616 -0.4905216 0.1119432 -0.1481225 0.9826131 6711406 male
-2.670334 -0.399322 -0.6493677 0.5414861 -0.003804063 -0.840701 5783360 male
-2.920193 0.6417164 -0.5655848 0.6097423 -0.3355909 0.7180482 8611174 male
-2.995487 0.4070446 -0.6240514 0.5931911 -0.5969449 -0.5401677 7296086 male
-2.913659 0.5292839 -0.518272 -0.814324 0.04129679 0.5789396 10257537 male
-2.783724 0.9284872 -0.6964142 0.1266292 0.2388812 -0.9627568 2037520 male
-2.666954 0.4649537 -0.6258416 0.9485409 -0.1741916 -0.264438 9266531 male
-2.895665 0.6893917 -0.6628054 -0.5349106 0.5587286 -0.6337925 8082762 male
-2.656786 -0.3625592 -0.5978958 0.9674016 -0.1257274 0.2198337 7690839 male
-2.923799 0.500524 -0.6459062 -0.8414335 -0.1859844 -0.5073456 10252138 male
-3.068212 0.28658 -0.4618492 -0.9216716 -0.2661788 0.2822596 4335657 male
-2.814039 0.9853494 -0.5786875 -0.3776104 0.9029814 0.2050242 2693400 male
-2.976832 -0.2330024 -0.502175 -0.5468192 -0.1924509 0.8148321 6113092 male
-2.862875 0.2397538 -0.4838329 -0.3834901 -0.07620349 0.9203958 6119263 male
-3.038167 0.50076 -0.6154274 -0.957813 0.2574483 -0.1277286 5388337 male
-2.994204 0.3015955 -0.456926 0.4088348 -0.912452 -0.01689712 7100763 male
-2.992311 -0.2431217 -0.5650407 -0.9106895 -0.05718192 -0.4091147 4863535 male
-2.651649 0.1887567 -0.5948782 0.9644541 0.05161063 -0.2591615 7698815 male
-2.959715 -0.09173761 -0.5448976 -0.670176 0.1613394 -0.7244542 8083802 male
-2.893383 -0.08435866 -0.4698053 0.5718188 -0.2424676 0.78373 5519420 male
-2.721403 0.8806265 -0.6331351 0.9501911 -0.1852497 -0.250638 722178 male
-2.923872 0.327249 -0.6172754 -0.8670374 0.08459231 -0.4910095 6643551 male
-2.734642 0.7320156 -0.6317359 0.7270159 0.6733476 -0.1343537 9726820 male
-3.062277 0.2639735 -0.4320907 -0.3754334 -0.7615141 -0.5283428 1576462 male
-2.673288 0.1924063 -0.5193309 0.6364643 0.2381936 0.7336055 6908011 male
-2.574353 0.2670974 -0.5578922 -0.8798684 -0.4282165 -0.2060635 6175290 male
-2.719912 0.3446003 -0.4571283 0.6516164 -0.06122442 0.7560739 8282214 male
-2.682933 0.1010613 -0.4895791 0.439021 0.06368482 0.896217 6711405 male
-2.973129 -0.111283 -0.5002635 -0.9508557 0.06136576 0.3034924 7361876 male
-2.646274 -0.3064324 -0.605722 0.9824066 -0.1844384 0.02932353 8085859 male
-2.743459 0.9277265 -0.5293152 0.683877 0.3586078 0.6353839 8674650 male
-2.970166 -0.07299547 -0.5269228 -0.9815069 0.1254699 -0.1445735 8675165 male
-2.66152 -0.1299495 -0.5382944 0.8765049 -0.09841532 0.4712256 9463143 male
-2.939192 0.5463079 -0.5943956 -0.9665023 -0.1308481 0.2207988 7622475 male
-2.685073 -0.2561259 -0.5601381 -0.1786131 -0.2048011 0.9623688 6902608 male
-2.644231 -0.4076243 -0.6047515 0.9893733 0.1174886 0.0856553 9927808 male
-2.995219 0.3106926 -0.4749518 0.9480442 0.1614672 -0.2741179 6702923 male
-2.90036 -0.2457784 -0.5304264 0.8643672 -0.2399498 0.4419201 7164244 male
-2.593129 0.4013059 -0.6995221 0.1474196 -0.5533432 -0.8198041 7032913 male
-2.668195 0.3656006 -0.6289157 0.9036801 0.1374374 -0.4055529 8082772 male
-2.75951 0.0757135 -0.4997346 -0.5068209 -0.1865382 0.8416271 4935244 male
-2.69947 0.1785225 -0.6668488 0.6358892 -0.02786453 -0.7712772 6514027 male
-2.7485 0.9705296 -0.6487251 0.5821066 0.7367627 -0.3439949 1313800 male
-2.984031 0.6141506 -0.621646 -0.8135728 -0.0502608 -0.5792868 7887439 male
-2.770704 0.8817567 -0.6943578 0.3151222 -0.1985158 -0.9280568 1380621 male
-2.822443 0.8616781 -0.5061313 -0.451517 0.1562136 0.8784814 8804690 male
-2.955599 -0.0192723 -0.5583373 -0.8834447 -0.08042728 -0.4615809 8150619 male
-2.977487 -0.1164967 -0.5132617 -0.9857056 0.1225243 0.115639 8085084 male
-2.86818 0.3009018 -0.4722308 -0.5570562 -0.1179635 0.8220541 6514791 male
-2.874362 0.5052394 -0.6903036 -0.4021909 -0.223115 -0.8879539 9988451 male
-2.964748 -0.009481445 -0.5144373 -0.9856938 -0.09049317 0.1421929 8940649 male
-2.973455 -0.4593915 -0.549274 0.0508547 -0.9984963 -0.02046973 4931382 male
-2.827937 0.8646977 -0.6866339 -0.4555077 -0.2837672 -0.8437943 2431508 male
-2.746892 0.8869148 -0.5230144 0.529396 0.08904108 0.8436892 7425870 male
-2.776167 0.1106198 -0.6498427 -0.5010214 -0.6047934 -0.6190336 6383469 male
-2.778534 0.2527081 -0.4566149 0.2162523 -0.2008334 0.9554584 8092798 male
-2.672937 -0.4706341 -0.621871 -0.1682964 -0.9836902 0.06348131 4863801 male
-2.606114 0.3580592 -0.6055818 -0.83013 0.2925875 0.4746333 8610402 male
-2.81086 0.07447433 -0.5732064 0.9525297 -0.1823192 -0.2438173 6316904 male
-2.949543 -0.3201282 -0.5221335 0.26308 -0.155169 0.952214 7690331 male
-2.794846 0.4616061 -0.6922299 -0.3018299 -0.2253948 -0.9263347 10582129 male
-2.833654 0.7358782 -0.5573891 -0.7146654 -0.026022 0.6989822 9530209 male
-2.774159 0.02615654 -0.5314454 -0.8201959 -0.249467 0.5148251 4998464 male
-2.995482 0.4501106 -0.6484119 0.3291811 -0.5871382 -0.7395327 8608600 male
