# .PCD v0.7 - Point Cloud Data file format
VERSION 0.7
FIELDS x y z normal_x normal_y normal_z rgb label
SIZE 4 4 4 4 4 4 4 4
TYPE F F F F F F U U
COUNT 1 1 1 1 1 1 1 1
WIDTH 132
HEIGHT 1
VIEWPOINT 0 0 0 1 0 0 0
POINTS 132
DATA ascii
-2.788714 0.4588421 0.6109909 -0.5552238 0.1346111 0.8207353 9598321 male
-2.872094 0.04146444 0.5459516 -0.983862 0.01169114 0.1785469 8687244 male
-2.68628 0.09949215 0.5882522 -0.6941959 -0.139483 0.706142 4672079 male
-2.860251 -0.004261059 0.4984274 -0.8673768 -0.1086243 -0.4856524 8216672 male
-2.774806 0.3513596 0.6284995 -0.6157134 -0.004996017 0.7879544 8940137 male
-2.594575 -0.3865459 0.4473841 -0.8770165 -0.007367668 -0.4804037 7162182 male
-2.82532 0.6855647 0.4192352 -0.6239838 0.6121016 -0.4857736 8083786 male
-2.837171 0.6059428 0.4976012 -0.7638429 -0.5091486 0.3966255 8283741 male
-2.721709 0.8401448 0.5712373 -0.5594929 0.09131698 0.8237894 5846581 male
-2.556419 0.215401 0.5320796 0.9816561 0.05609845 0.1822202 9936295 male
-2.824134 -0.3575481 0.5053058 0.8348937 0.004562225 0.5503922 8676715 male
-2.643114 0.8268381 0.4672874 0.9371246 -0.3484863 -0.01883369 6897978 male
-2.626701 0.5961003 0.366402 0.2823603 -0.005554263 -0.9592924 10384488 male
-2.756001 0.4873198 0.6201305 -0.2272736 0.2992842 0.9267015 10059640 male
-2.848166 0.2858705 0.4768486 -0.9452924 0.2709273 -0.1817162 9342869 male
-2.796104 -0.1674168 0.5067325 0.9388312 0.1696562 -0.2996877 7032652 male
-2.666331 -0.05761847 0.4951917 -0.8249878 -0.06584855 -0.5613012 8478045 male
-2.914173 0.5750554 0.463365 -0.9402677 0.3365917 -0.0510165 7560530 male
-2.689062 0.6391654 0.565235 -0.02224493 0.4732865 0.8806276 9400422 male
-2.822545 0.4873673 0.5692827 -0.801302 0.04200393 0.5967838 9796470 male
-2.754596 0.7830368 0.4979989 -0.9377361 -0.08747739 0.3361529 8805204 male
-2.871872 0.0713995 0.5235876 -0.9982812 0.02151058 -0.05451604 6645352 male
-2.611038 -0.4491882 0.5810055 -0.2834218 0.868975 0.4056531 16772087 male
-2.538671 0.4934189 0.4200823 -0.599842 -0.2265023 -0.7673893 9002587 male
-2.683129 -0.005886632 0.5316111 -0.9603521 -0.2346096 0.1506059 3942955 male
-2.699191 0.2751264 0.4082007 0.06851268 0.3061924 -0.949501 8816782 male
-2.749115 0.4147997 0.3950889 -0.06364942 -0.2709671 -0.960482 11042678 male
-2.603173 0.3426645 0.5877435 0.7414876 -0.06576709 0.6677356 11899540 male
-2.562571 0.1468046 0.5680518 0.8813429 0.09481601 0.4628657 9344927 male
-2.949334 0.3218625 0.5784064 -0.5076498 0.570089 0.6459801 6572107 male
-2.780396 0.6001499 0.3612649 -0.2694212 0.01030645 -0.9629673 10843499 male
-2.600838 0.4627034 0.5750338 0.7817803 0.1030267 0.6149838 10847876 male
-2.890021 -0.2006392 0.4936128 -0.9572988 0.1174975 -0.2641467 7362903 male
-2.947747 0.2925269 0.5387578 0.8887357 -0.4307285 0.1569137 4863025 male
-2.781291 0.8635458 0.4555664 -0.7835264 0.05621953 0.6188099 8672594 male
-2.571558 0.5647247 0.4700014 -0.9679612 -0.2230199 0.1153832 8741211 male
-2.846826 0.1697464 0.564804 -0.7778516 0.236252 0.5823504 5527382 male
-2.865858 0.5217566 0.4485484 0.842046 -0.4342127 -0.3200279 11376268 male
-2.55337 -0.1955204 0.4623305 0.7431735 0.1986255 -0.6389374 7163467 male
-2.646554 0.2472846 0.4055907 0.1826963 0.2487215 -0.9511886 7897222 male
-2.644195 0.1719144 0.3985197 0.2099327 -0.1376931 -0.9679715 8884631 male
-2.480261 0.3436647 0.4796839 0.7362128 -0.507535 -0.4476594 7689810 male
-2.624067 0.9324706 0.4397987 0.9465773 0.2996571 -0.1191516 1248008 male
-2.753692 0.571822 0.5954702 0.04398985 0.1842231 0.9818996 10059376 male
-2.77228 0.9214577 0.4543807 -0.9844128 0.1656881 -0.058983 3614496 male
-2.573429 -0.233504 0.4430603 0.349434 0.01881517 -0.936772 5190702 male
-2.558796 0.6480517 0.5054452 0.06055913 -0.01392381 0.9980675 11242625 male
-2.622866 0.06041668 0.4522525 0.1333866 -0.2147934 -0.9675081 9410976 male
-2.739855 0.596481 0.5861 0.1555779 0.3576572 0.9208022 9927538 male
-2.579347 0.6134888 0.511036 0.595969 -0.6376274 0.488111 9269356 male
-2.804705 0.6433541 0.3814442 -0.4604226 0.1136704 -0.880392 9727331 male
-2.696077 0.108752 0.5750334 -0.8856906 0.04322438 0.4622595 5526870 male
-2.751281 0.006322913 0.477091 0.6725122 -0.3045322 -0.6745276 7495524 male
-2.628074 0.2226932 0.5931335 0.3397385 -0.004710298 0.9405081 7369338 male
-2.831819 0.6384314 0.4719307 0.7644396 -0.5991409 0.2380386 8678503 male
-2.757172 0.9286026 0.4063645 -0.8338886 0.2378032 -0.4980758 1642768 male
-2.798279 -0.1399581 0.5089861 0.813452 0.06319048 -0.5781893 6836564 male
-2.691298 0.5174029 0.6134039 -0.03816162 0.3588009 0.9326337 9598833 male
-2.650396 0.7324672 0.4809946 0.9469069 0.2505667 0.2014541 8215123 male
-2.840406 -0.4638729 0.4635774 0.2758255 -0.9198174 -0.2790275 4995125 male
-2.837446 0.1092468 0.454986 -0.7060206 -0.1713738 -0.6871434 6908529 male
-2.595219 -0.4169752 0.5065033 -0.8937946 0.3457066 0.285689 9464693 male
-2.551131 -0.3033858 0.4976837 0.9311861 -0.1992971 0.3052429 8085344 male
-2.824693 0.6649827 0.403603 -0.6342814 0.3830085 -0.671559 9200986 male
-2.723268 0.0356548 0.5087076 0.9415405 -0.2904885 -0.1706392 5264469 male
-2.554083 -0.4709128 0.4734036 0.002620863 -0.9982442 -0.05917498 4271656 male
-2.522292 0.4808376 0.4427159 -0.710983 0.2857477 0.6425352 7557458 male
-2.683731 0.6820152 0.537875 0.1145684 0.5013312 0.857637 8479577 male
-2.628765 0.03533076 0.6029331 -0.200029 -0.156296 0.9672436 7302769 male
-2.536447 -0.4553222 0.4586906 0.9734223 -0.003938919 -0.2289838 7032145 male
-2.833977 0.645057 0.4924251 0.3035634 -0.4299625 0.8502832 9336693 male
-2.906234 0.4083656 0.4359366 0.6385629 -0.6265757 -0.4468112 7296086 male
-2.814622 0.509598 0.5780261 -0.73013 0.09166957 0.6771313 9335661 male
-2.676035 0.922742 0.3721884 0.279786 0.1968935 -0.9396556 2037520 male
-2.579228 0.4680479 0.4517348 0.9192247 -0.2382343 -0.3134811 10055280 male
-2.831202 0.6894518 0.4376856 -0.6270206 0.7400483 -0.2432565 7755853 male
-2.570548 -0.3349273 0.5127462 0.4214256 -0.198382 0.8848983 7558490 male
-2.825684 0.4965629 0.41502 -0.7539479 -0.2093075 -0.6226982 10252138 male
-2.9948 0.2997854 0.6015174 -0.9662065 -0.008570159 0.2576269 4993588 male
-2.723663 0.9847819 0.4812828 -0.3920767 0.9137579 0.1064064 2693400 male
-2.886037 -0.2639866 0.4832693 -0.939139 -0.1124827 -0.3246007 5324345 male
-2.782944 0.2357254 0.5880978 -0.5139149 -0.1014384 0.8518226 6119263 male
-2.953746 0.4796377 0.428308 -0.9283137 0.0519436 -0.3681515 6242101 male
-2.919489 0.3132679 0.608708 0.4066274 -0.9102781 0.07776842 7100763 male
-2.883432 -0.2528263 0.4747111 -0.8473502 -0.06726804 -0.5267566 4863535 male
-2.559886 0.2191677 0.4902851 0.9583807 -0.00109479 -0.2854912 7239551 male
-2.856138 -0.09920671 0.5004604 -0.5644208 0.1597238 -0.8098873 8083802 male
-2.788356 -0.1090946 0.5675419 0.6730733 -0.3244229 0.6646218 6571594 male
-2.624379 0.8836249 0.4408435 0.9707557 -0.1810934 -0.1576025 919042 male
-2.810371 0.3310864 0.4304602 -0.574742 -0.06877544 -0.8154396 8742244 male
-2.650131 0.7169623 0.416284 0.2868895 0.5903102 -0.7544723 6638401 male
-2.98761 0.2804308 0.6251935 0.3153006 -0.7662209 -0.5599028 6967377 male
-2.580668 0.2027886 0.575157 0.5991719 0.1840144 0.7791866 6776939 male
-2.489043 0.2618452 0.5783271 -0.8297253 -0.2777168 -0.484179 7817805 male
-2.672607 0.3601238 0.646894 0.2231552 0.0417894 0.9738867 9268852 male
-2.674467 0.1137627 0.5980101 -0.5334802 -0.06690268 0.8431625 4933451 male
-2.868795 -0.109485 0.5543272 -0.9621465 0.04700715 0.2684484 6966606 male
-2.554622 -0.3332818 0.4805211 0.966734 -0.2434886 -0.07834942 6507338 male
-2.654958 0.9236298 0.5390266 0.7026667 0.3248675 0.633025 8148563 male
-2.870124 -0.08059662 0.5182525 -0.9544647 0.1042774 -0.2795054 8675165 male
-2.606781 -0.08692411 0.5868767 0.2074761 -0.09985718 0.9731301 6307903 male
-2.848711 0.5165331 0.4901426 -0.9928964 -0.001510691 0.1189725 7296084 male
-2.562088 -0.3816472 0.4496921 0.656355 -0.09177314 -0.7488496 4667447 male
-2.556108 -0.4052604 0.5063726 0.7498234 0.403901 0.5240505 8808554 male
-2.91889 0.321188 0.5901058 0.9690358 0.1452316 -0.1996931 6702923 male
-2.801397 -0.2562675 0.5260287 0.6924281 -0.2355936 0.6819376 6769742 male
-2.51297 0.5280829 0.4282771 0.4601386 -0.1439442 -0.8761007 6701629 male
-2.606251 0.3814001 0.4257875 0.6335344 -0.01268394 -0.7736106 8806236 male
-2.657609 0.08789429 0.6014177 -0.4145446 -0.1229351 0.9016872 6249823 male
-2.585604 0.3934763 0.5632058 0.8705732 0.01232672 0.4918846 12888235 male
-2.648116 0.9665046 0.4231126 0.639299 0.7170265 -0.2777942 1313800 male
-2.890128 0.5843444 0.4283602 -0.6040168 -0.05201402 -0.7952725 7360839 male
-2.664154 0.8760493 0.3781698 0.4541816 -0.2397434 -0.8580456 1380621 male
-2.737564 0.8572561 0.5617715 -0.3804309 0.1342662 0.9150109 8673622 male
-2.80571 -0.061833 0.4786103 0.2199542 -0.1789893 -0.9589489 9730419 male
-2.877277 -0.1251842 0.5282759 -0.99423 0.105637 -0.01864296 8085084 male
-2.790671 0.2852093 0.5954233 -0.6247901 -0.1195569 0.771585 6579560 male
-2.769971 0.5007287 0.3785379 -0.2615294 -0.2511479 -0.9319481 9988451 male
-2.868451 -0.01434332 0.5230121 -0.9751899 -0.1169598 -0.1879498 7361103 male
-2.854652 -0.4654371 0.4644784 0.02872543 -0.985516 -0.1671317 5523268 male
-2.722152 0.8598013 0.3774871 -0.3213709 -0.3152414 -0.892941 2431508 male
-2.666907 0.8789586 0.5522071 0.4133347 0.2839478 0.8651752 8673879 male
-2.680833 0.1019985 0.4530889 -0.6123953 -0.4213338 -0.6689169 6514027 male
-2.709296 0.2028829 0.6237282 0.05741943 0.01688538 0.9982073 7170925 male
-2.582008 -0.4660783 0.4564159 -0.5169191 -0.8528506 -0.07375975 5586500 male
-2.505121 0.3884562 0.4280409 -0.2152093 -0.6257915 -0.7497132 10122612 male
-2.719875 0.04178254 0.5257503 0.9717284 -0.2194628 0.08706224 3026479 male
-2.832819 -0.2906018 0.5298116 0.2392103 -0.2501184 0.9382 7097670 male
-2.603826 0.3308917 0.4342095 0.5424659 -0.2191882 -0.8109792 7556428 male
-2.621381 0.6576824 0.529058 0.3369919 0.5405605 0.7708637 9334629 male
-2.639446 0.03736028 0.6002212 -0.3600672 -0.1579561 0.9194572 7105644 male
-2.903736 0.4496577 0.4094027 0.3958617 -0.6311474 -0.6670431 8608600 male
