# .PCD v0.7 - Point Cloud Data file format
VERSION 0.7
FIELDS x y z normal_x normal_y normal_z rgb label
SIZE 4 4 4 4 4 4 4 4
TYPE F F F F F F U U
COUNT 1 1 1 1 1 1 1 1
WIDTH 132
HEIGHT 1
VIEWPOINT 0 0 0 1 0 0 0
POINTS 132
DATA ascii
-2.866977 0.482793 -0.4751069 -0.3424692 0.1660782 0.9247339 10322554 male
-2.967285 0.04513588 -0.4920781 -0.8350646 0.07863926 0.5445024 5331545 male
-2.758603 0.07928775 -0.505955 -0.3675134 -0.1519477 0.9175216 5395802 male
-2.975273 0.03767519 -0.5508372 -0.9696713 -0.04848463 -0.2395556 7632505 male
-2.853136 0.3291816 -0.4586408 -0.4619531 -0.1030674 0.8808952 8151396 male
-2.723706 -0.349465 -0.6304213 -0.9765824 -0.1823926 0.1141039 7624019 male
-2.907541 0.6748396 -0.5714048 -0.02079396 0.7051973 0.7087061 9203307 male
-2.896331 0.6058094 -0.5181934 -0.3910281 0.2597554 0.8829632 10453110 male
-2.824861 0.8641816 -0.5113799 -0.285622 0.2677948 0.9201663 8673106 male
-2.669415 0.1599624 -0.6279569 0.8944032 0.03201893 -0.4461139 7040371 male
-2.94379 -0.3419186 -0.541667 0.9114155 -0.02095605 0.4109535 8676715 male
-2.74602 0.8095185 -0.6012411 0.9483419 -0.3105069 -0.06506269 7160636 male
-2.741641 0.5661762 -0.7288055 0.174764 -0.2284133 -0.9577499 10975605 male
-2.807285 0.3069389 -0.453396 0.03935535 -0.1727772 0.9841744 9269620 male
-2.951192 0.2867223 -0.5708975 -0.9140137 0.3339775 0.2302999 9541532 male
-2.932055 -0.07450912 -0.5616779 0.06805652 -0.1916897 -0.9790931 9203051 male
-2.768413 -0.03834952 -0.6142901 -0.7954384 -0.1737042 -0.580607 9202027 male
-3.014626 0.5714603 -0.5885805 -0.9328409 0.3478552 0.09383221 7560530 male
-2.790368 0.664817 -0.5399324 0.1498105 0.4917748 0.8577379 7689807 male
-2.895422 0.5023563 -0.4945626 -0.5866668 0.0687677 0.8069034 9532784 male
-2.850322 0.7735913 -0.5742343 -0.8632647 -0.05665528 0.5015618 9002839 male
-2.917551 0.1262898 -0.4724786 -0.309278 0.2440571 0.919121 6513252 male
-2.692127 -0.4509001 -0.5206773 0.1118243 0.9124867 0.3935267 15320781 male
-2.648905 0.5393935 -0.6929774 -0.3175527 -0.3169318 -0.8937083 11041906 male
-2.774252 -0.03950495 -0.5579094 -0.8904329 -0.1618465 0.4253645 5388344 male
-2.751924 0.2683024 -0.6930737 0.07423913 0.2712491 -0.9596419 7699332 male
-2.887623 0.4612454 -0.6922311 -0.4514193 -0.2219707 -0.8642625 9856869 male
-2.666871 0.2815973 -0.6137422 0.9268789 0.3540309 -0.1247302 6712175 male
-2.696589 0.1579871 -0.5144212 0.4504362 0.2761333 0.8490334 7171957 male
-3.037873 0.3211032 -0.4702131 -0.4154127 0.5931873 0.6896093 6572107 male
-2.898679 0.624419 -0.7091911 -0.4772624 0.1887565 -0.8582491 10252643 male
-2.689088 0.4391011 -0.5324256 0.8664801 0.07768452 0.4931301 10980230 male
-2.972311 -0.1801447 -0.5754172 -0.2295597 0.2642553 -0.9367344 7953235 male
-3.04476 0.2868298 -0.5051002 0.9137268 -0.3970745 0.08622723 5323575 male
-2.866306 0.8475121 -0.5776706 -0.9733981 -0.08814386 0.211487 7359047 male
-2.685785 0.6083103 -0.6550667 -0.9560023 -0.2806521 0.08540504 6177596 male
-2.96097 0.1465736 -0.6010398 -0.9382967 0.02709678 -0.344768 7172469 male
-2.965385 0.5579991 -0.6300578 0.3121262 -0.5527595 -0.77268 8280406 male
-2.67977 -0.2423866 -0.5669135 0.1244042 -0.2040071 0.9710328 6572875 male
-2.757405 0.2652744 -0.6944281 0.03589952 0.2770243 -0.960192 8094348 male
-2.814309 0.2174085 -0.7015558 -0.1305055 0.1099085 -0.9853367 8949136 male
-2.580694 0.3356235 -0.6407488 0.8079006 -0.3605056 -0.4661892 7164492 male
-2.739623 0.9103568 -0.6681911 0.8399863 0.004084653 -0.5425923 1050116 male
-2.763557 0.4828764 -0.4737318 0.1950147 0.3088328 0.930909 9730935 male
-2.874635 0.9200612 -0.6022562 -0.979112 0.1565115 0.1297839 3614496 male
-2.654713 -0.2510585 -0.6422867 0.8292165 -0.07214977 -0.5542512 5521212 male
-2.641507 0.6456091 -0.6150135 0.4191042 0.0259505 0.9075672 11701637 male
-2.713636 0.05478655 -0.6510732 0.2618179 -0.1612272 -0.9515551 7304576 male
-2.863612 0.6413478 -0.5270349 -0.10631 0.5613909 0.8206939 9466219 male
-2.671392 0.5359079 -0.5876625 0.9783328 -0.01926835 0.2061401 7688782 male
-2.922544 0.6729558 -0.6699127 -0.6381837 0.454464 -0.621437 8805970 male
-2.694053 0.09359121 -0.5034733 0.4004363 0.04610612 0.9151639 7237746 male
-2.959054 0.1480408 -0.6052133 -0.9292321 0.01554446 -0.3691694 7106676 male
-2.675305 0.2198139 -0.5476006 0.7172105 0.133927 0.6838659 6975346 male
-2.93347 0.6276274 -0.5926955 -0.0719766 -0.8265101 0.5583014 7690326 male
-2.868311 0.9310145 -0.6514757 -0.9087713 0.2638361 -0.3233036 1642768 male
-2.932461 -0.06146873 -0.5703138 -0.0729102 -0.2104703 -0.9748777 9598833 male
-2.801165 0.5229729 -0.4835227 0.1593594 0.3245358 0.9323524 10257018 male
-2.75013 0.7241845 -0.597928 0.945121 0.2210463 0.2405928 8412502 male
-2.99429 -0.4503751 -0.5699083 -0.1519717 -0.9706593 -0.1863469 6508619 male
-2.863811 0.001081281 -0.5864261 0.6254827 -0.4043347 -0.6672966 7495008 male
-2.697179 -0.4272594 -0.5833589 -0.7933435 0.4647542 0.3932043 8674667 male
-2.681729 -0.315828 -0.6572217 0.3553344 -0.1243326 -0.9264334 4863025 male
-2.91788 0.6992807 -0.6115991 -0.3577436 0.8940705 0.2695506 9730674 male
-2.83998 0.06861241 -0.6135256 0.6462669 -0.3913613 -0.6551149 4015947 male
-2.638531 -0.4735029 -0.6118882 0.435604 -0.798777 -0.4149752 3743770 male
-2.650298 0.4978326 -0.6730427 -0.7481483 -0.004549953 0.6635159 8282973 male
-2.765962 0.6044464 -0.5113022 -0.01357106 0.3748528 0.926985 9532264 male
-2.706358 0.0250475 -0.5043878 0.1430876 -0.1344949 0.980529 6711406 male
-2.651254 -0.458037 -0.6539131 0.8985124 0.006864357 -0.4388945 7031114 male
-2.932154 0.6461051 -0.5563779 -0.0619211 -0.005240341 0.9980673 10454142 male
-3.020695 0.3819537 -0.5396465 0.8722608 0.2752671 0.4042141 7427666 male
-2.941787 0.5079002 -0.5617551 -0.9293532 0.02464802 0.3683681 6308929 male
-2.794553 0.9288501 -0.6998613 0.108206 0.271232 -0.9564124 2037520 male
-2.675119 0.4410133 -0.6179084 0.9849865 -0.08826985 -0.1483579 9267560 male
-2.926113 0.6918958 -0.6473484 -0.6523702 0.6465905 -0.3953907 7688775 male
-2.660082 -0.30905 -0.6009593 0.8785245 -0.2012618 0.4332303 7690585 male
-2.943027 0.4727934 -0.6335555 -0.9348272 -0.1719296 -0.3107061 9727075 male
-3.078423 0.3000343 -0.4316251 -0.6865001 0.4721039 0.5530238 5718599 male
-2.822011 0.9818126 -0.5796491 -0.3664609 0.8978477 0.2440817 2693400 male
-3.007994 -0.2477696 -0.5480641 -0.9787915 -0.0982694 -0.1797509 5324345 male
-2.855223 0.2218384 -0.4918492 -0.326457 0.01712982 0.9450568 6316384 male
-3.059527 0.4783815 -0.610934 -0.9323149 0.3201377 0.1682281 6113084 male
-3.001607 0.3151079 -0.443668 0.7967284 -0.6032634 -0.03601378 7035744 male
-3.00672 -0.2361906 -0.5562664 -0.9193891 -0.04214516 -0.391085 4863535 male
-2.66429 0.2009673 -0.6104097 0.9629418 0.02356313 -0.2686778 7040627 male
-2.982701 -0.06952175 -0.5206054 -0.9797934 0.1311064 -0.1510495 8543323 male
-2.904177 -0.0715313 -0.4654639 0.564756 -0.1692102 0.8077243 5583924 male
-2.74206 0.8716221 -0.6602508 0.8274952 -0.2461669 -0.504632 1379597 male
-2.928572 0.3173274 -0.6399409 -0.7588757 0.17976 -0.6259345 6776167 male
-2.745439 0.7296605 -0.6421958 0.7282064 0.6722494 -0.1334024 9726820 male
-3.074351 0.2826568 -0.4189137 -0.4703861 -0.814487 -0.3396291 1973022 male
-2.69786 0.1860792 -0.5238665 0.4815688 0.2749322 0.8321681 7304311 male
-2.604945 0.2734098 -0.5731686 -0.8978087 -0.3397696 -0.2801715 6437692 male
-2.712422 0.2973028 -0.5064124 0.7581849 -0.1721609 0.6289009 7894140 male
-2.712331 0.0970995 -0.4987533 0.1413869 0.01918925 0.9897684 7632250 male
-2.986136 -0.1084775 -0.4890122 -0.9428864 0.0606864 0.3275401 7361876 male
-2.656228 -0.3075814 -0.6191786 0.9823921 -0.1867988 -0.003442202 8085859 male
-2.737761 0.9090478 -0.5484251 0.916536 0.156505 0.3680596 8806234 male
-2.966273 -0.07302186 -0.5444458 -0.6922412 0.04079749 -0.7205122 7689556 male
-2.66924 -0.1319571 -0.5498355 0.8909104 -0.09886599 0.4432878 9463143 male
-2.943197 0.5358256 -0.5721717 -0.9314036 0.02580842 0.3630721 7165266 male
-2.692884 -0.2789063 -0.5769174 -0.1441727 -0.2346532 0.9613283 5520188 male
-2.6552 -0.4087495 -0.6199952 0.9913276 0.1170717 0.0596977 9927808 male
-3.006107 0.3145534 -0.4575202 0.6665721 -0.6784452 -0.3088588 6638412 male
-2.920703 -0.2694272 -0.5525349 0.9338607 -0.2378447 -0.2670844 5190707 male
-2.602507 0.3841303 -0.7023482 0.1436094 -0.6409156 -0.754058 7952472 male
-2.680643 0.3627791 -0.6469858 0.8918694 0.137151 -0.4309972 8082772 male
-2.767998 0.07407104 -0.5123342 -0.4793595 -0.1777731 0.8594249 4935244 male
-2.76572 0.1411455 -0.697852 0.02841793 -0.3228478 -0.9460242 8358288 male
-2.773131 0.9852431 -0.6168547 0.4015803 0.9124238 -0.0788423 4731947 male
-2.996356 0.61191 -0.6246876 -0.8346194 -0.05223022 -0.5483453 7887439 male
-2.779308 0.8959776 -0.6998502 0.3160195 -0.04327583 -0.9477652 1184010 male
-2.830183 0.8515072 -0.5109387 -0.4499479 0.07403816 0.8899804 8804180 male
-2.96361 -0.01485477 -0.5659477 -0.8369315 -0.1145693 -0.5351818 8545121 male
-2.998981 -0.1382722 -0.5216593 -0.9473451 0.2918158 -0.1318357 9136741 male
-2.873179 0.2817729 -0.4879581 -0.4546252 -0.1099166 0.8838746 6644838 male
-2.902098 0.5166368 -0.694847 -0.5311705 -0.2007885 -0.8231293 10844531 male
-2.976149 -0.007786653 -0.5122544 -0.9804382 -0.06999567 0.1839607 8940649 male
-3.020501 -0.4465129 -0.5414334 -0.819295 -0.1682609 -0.5481277 6375495 male
-2.839016 0.8650205 -0.6913835 -0.4749081 -0.2517152 -0.8432686 2431508 male
-2.733508 0.8734428 -0.5535874 0.9335544 0.06110212 0.3531896 8673618 male
-2.789909 0.1065844 -0.662363 -0.5207791 -0.6146491 -0.5924489 6383469 male
-2.782776 0.2039327 -0.4764234 0.4341882 0.007839273 0.9007881 7566715 male
-2.684751 -0.4714526 -0.637317 -0.1629613 -0.985083 0.05527206 4863801 male
-2.624445 0.3577133 -0.6334444 -0.9859246 -0.00923371 0.1669351 10058110 male
-2.823201 0.07135273 -0.5822837 0.9400769 -0.2040009 -0.2732012 6316904 male
-2.94819 -0.2765406 -0.5119405 0.3821232 -0.2993577 0.8742808 7097670 male
-2.817005 0.4669746 -0.7032689 -0.2199331 -0.2335003 -0.9471573 10780530 male
-2.842911 0.732324 -0.5658485 -0.7006368 -0.03865401 0.7124704 9530209 male
-2.764453 0.03806999 -0.5200374 -0.5622941 -0.1961291 0.8033422 5197383 male
-2.996837 0.5222281 -0.6267103 -0.06004461 -0.3169914 -0.9465258 8016969 male
