# .PCD v0.7 - Point Cloud Data file format
VERSION 0.7
FIELDS x y z normal_x normal_y normal_z rgb label
SIZE 4 4 4 4 4 4 4 4
TYPE F F F F F F U U
COUNT 1 1 1 1 1 1 1 1
WIDTH 132
HEIGHT 1
VIEWPOINT 0 0 0 1 0 0 0
POINTS 132
DATA ascii
-2.855413 0.4898998 -0.4533226 -0.4039505 0.1923142 0.8943374 10322554 male
-2.954364 0.04824121 -0.4970938 -0.9546518 0.03660626 0.2954656 8687244 male
-2.717895 0.08433497 -0.4681296 -0.190252 -0.08342995 0.9781839 6645354 male
-2.949161 -0.005248022 -0.5417553 -0.9297552 -0.1045146 -0.3530326 8281948 male
-2.841449 0.3308556 -0.4322817 -0.5091941 -0.1144522 0.8530076 8479336 male
-2.702101 -0.3692552 -0.6084761 -0.9972943 -0.07057958 0.02055646 9267820 male
-2.901 0.7023321 -0.6165149 -0.6126513 0.7817546 -0.1162672 8084818 male
-2.90099 0.6281936 -0.5297563 -0.4978569 -0.05504229 0.8655108 10782592 male
-2.798963 0.8512484 -0.4897361 -0.4903309 0.221366 0.8429548 6505023 male
-2.64654 0.1636719 -0.590876 0.9224346 0.03078776 -0.3849241 7040371 male
-2.915134 -0.350369 -0.5340924 0.8927523 0.01163607 0.4503974 8676715 male
-2.725177 0.8300433 -0.5998159 0.9336112 -0.3346304 -0.1280336 6897978 male
-2.70721 0.606384 -0.7020508 0.4002593 0.04769905 -0.9151597 9924708 male
-2.801764 0.3185815 -0.4228806 -0.02706747 -0.1699388 0.9850829 9532021 male
-2.933691 0.2909898 -0.5741355 -0.9536723 0.2920888 -0.07206388 9342869 male
-2.898045 -0.09524984 -0.5491803 0.3527587 -0.1290337 -0.9267749 9333869 male
-2.75311 -0.05494953 -0.5825034 -0.8345231 -0.06667189 -0.5469241 8609373 male
-2.999828 0.5562763 -0.5870026 -0.9322742 0.3613264 -0.01755192 7427661 male
-2.75931 0.6458584 -0.5054532 0.115377 0.4627845 0.8789303 9202787 male
-2.915879 0.508457 -0.5203586 -0.877293 0.03704461 0.4785235 9072233 male
-2.825998 0.7739055 -0.549117 -0.8160925 -0.063675 0.5744027 9529184 male
-2.937321 0.1006138 -0.4761019 -0.791231 0.1484541 0.593224 4407875 male
-2.67644 -0.4468842 -0.5016227 0.1396171 0.9071971 0.3968632 13279402 male
-2.624337 0.5076878 -0.6668344 -0.5350338 -0.1943675 -0.822168 7883591 male
-2.701195 0.01843372 -0.4760019 -0.02789402 -0.1794086 0.9833792 7566715 male
-2.734898 0.2563287 -0.6654533 0.09945033 0.2583175 -0.9609275 8488074 male
-2.823883 0.3880778 -0.6600308 0.07575795 -0.2716124 -0.9594204 9332573 male
-2.657161 0.3238437 -0.5317342 0.9342725 -0.1486273 0.3241063 10978182 male
-2.656869 0.1633271 -0.4967668 0.7344844 0.2015969 0.6479903 6317161 male
-3.016655 0.3161628 -0.4822291 -0.4764975 0.5349571 0.6976897 6572107 male
-2.872076 0.6049622 -0.6954629 -0.3674522 0.02989832 -0.9295617 10843499 male
-2.684896 0.424876 -0.4757649 0.7671878 0.04074885 0.6401269 10847876 male
-2.942885 -0.190631 -0.5796003 -0.190445 0.2093203 -0.9591224 7953235 male
-3.020134 0.2840619 -0.5196171 0.9191235 -0.3749216 0.1210197 5323575 male
-2.859241 0.8597326 -0.5920362 -0.4957094 0.3315529 0.802711 6502967 male
-2.656077 0.5738736 -0.6089848 -0.9361632 -0.2337608 0.2625914 7557970 male
-2.928133 0.1968618 -0.4984933 -0.7364684 0.2427265 0.6314255 5856354 male
-2.946826 0.510168 -0.6110465 0.8665106 -0.3292301 -0.3751891 9204587 male
-2.63273 -0.2488033 -0.5881299 0.9909106 -0.1277167 0.04224448 8479073 male
-2.709633 0.249998 -0.66187 0.321249 0.1774597 -0.9302189 7172728 male
-2.801794 0.2031296 -0.672594 -0.04783542 -0.003417888 -0.9988494 9081240 male
-2.562542 0.3257995 -0.6072696 0.6965893 -0.4067438 -0.5910354 7097931 male
-2.710386 0.9367463 -0.6261142 0.9249246 0.3168203 -0.2100937 1248008 male
-2.775671 0.5087829 -0.451579 0.07166611 0.3656903 0.9279734 9468022 male
-2.856053 0.9231133 -0.5963073 -0.9870005 0.152771 0.04990943 3614496 male
-2.649484 -0.2491224 -0.6287841 0.6666411 -0.06447032 -0.7425854 6046267 male
-2.622057 0.654264 -0.5811983 0.434002 0.1610776 0.8863951 11504774 male
-2.72205 0.01262967 -0.6185129 -0.180942 -0.1198928 -0.9761586 8412508 male
-2.846751 0.6349198 -0.4997496 -0.1710042 0.5743272 0.800566 9532272 male
-2.65684 0.5659711 -0.5422387 0.9512078 -0.05368553 0.3038447 9136226 male
-2.892625 0.6481946 -0.6727312 -0.538172 0.1334185 -0.8322082 9727331 male
-2.709264 0.1164651 -0.4660718 0.001383759 0.05375383 0.9985533 6316130 male
-2.936908 0.1904139 -0.5788388 -0.9349506 0.1116942 -0.336737 7895681 male
-2.700426 0.2297271 -0.4845181 0.4784994 -0.03415274 0.8774235 8620435 male
-2.912542 0.6255256 -0.5693323 0.8380623 -0.3522817 0.4165924 5916481 male
-2.846211 0.9317847 -0.6454182 -0.8847896 0.2385563 -0.4002978 1642768 male
-2.887844 -0.1216913 -0.5358855 0.6251316 -0.05909828 -0.7782788 6968146 male
-2.780585 0.5375897 -0.4627113 0.07628145 0.3538995 0.9321675 10059382 male
-2.731032 0.728534 -0.574777 0.9262211 0.2345329 0.295142 8412502 male
-2.961747 -0.459184 -0.5661204 -0.2203263 -0.9436539 -0.2469284 5459275 male
-2.922967 0.09523131 -0.5984178 -0.6773413 -0.2257652 -0.7001706 6579052 male
-2.685257 -0.4253038 -0.5596454 -0.8080825 0.4757775 0.3473305 8674667 male
-2.655425 -0.3157909 -0.6243453 0.7243009 -0.170702 -0.6680188 5455162 male
-2.904198 0.695762 -0.6280308 -0.6373011 0.6926842 -0.3376919 8214603 male
-2.811188 0.03829743 -0.5523757 0.9087342 -0.314668 -0.2742011 5264469 male
-2.611601 -0.4705301 -0.5559855 0.6786295 -0.6401888 -0.3600281 5389369 male
-2.635561 0.4977213 -0.6498868 -0.9560655 -0.1026345 0.2745995 9398630 male
-2.752336 0.6357381 -0.5000202 0.07726556 0.487231 0.8698483 9466215 male
-2.764764 -0.02746689 -0.5474272 -0.9741473 -0.1612931 0.1581819 6703941 male
-2.635939 -0.4569953 -0.6275685 0.9213841 -0.007919936 -0.3885724 7031114 male
-2.912974 0.638195 -0.5620514 0.6465614 -0.2985277 0.7020254 8874342 male
-2.983167 0.4082786 -0.6236315 0.616855 -0.599705 -0.5097489 7296086 male
-2.852252 0.5254406 -0.4607575 -0.2782456 0.1875774 0.942016 9598061 male
-2.769087 0.9280749 -0.6881219 0.1762577 0.2265527 -0.9579181 2037520 male
-2.654263 0.4510367 -0.5842268 0.9929325 -0.09057938 -0.07668418 10122097 male
-2.911957 0.6765085 -0.6411366 -0.7162431 0.4512241 -0.5323464 8674899 male
-2.653416 -0.3570589 -0.5837075 0.9341238 -0.1685344 0.3146569 7559514 male
-2.912459 0.5007238 -0.638629 -0.8188927 -0.1932342 -0.54044 10252138 male
-3.059285 0.2915204 -0.4476784 -0.74133 0.4076671 0.5331392 5718599 male
-2.805622 0.9864168 -0.5728914 -0.3894162 0.9046549 0.1730744 2693400 male
-2.979322 -0.2572426 -0.5497636 -0.9695807 -0.1178125 -0.214554 5324345 male
-2.857317 0.2404418 -0.4709034 -0.4120556 -0.08067554 0.9075801 6119263 male
-3.032053 0.4791421 -0.6252166 -0.9506375 0.05277658 -0.3057826 6242101 male
-2.983716 0.3082496 -0.4497033 0.5405669 -0.8181449 0.1960265 9140346 male
-2.977765 -0.2461359 -0.5586245 -0.901648 -0.07367922 -0.4261483 4863535 male
-2.641848 0.1895075 -0.5743944 0.9730594 0.04724994 -0.2256607 7698815 male
-2.947433 -0.09322555 -0.5385222 -0.655173 0.1502544 -0.7403864 8083802 male
-2.87057 -0.09334539 -0.4782068 0.7708009 -0.3043361 0.5596833 5914689 male
-2.712986 0.8815245 -0.6323839 0.9231268 -0.1960641 -0.3307503 1181189 male
-2.913746 0.3278444 -0.6065915 -0.8494059 0.08204823 -0.521323 6643551 male
-2.72339 0.7324859 -0.6188084 0.7336211 0.670993 -0.1075565 9726820 male
-3.051026 0.274687 -0.438351 0.3119516 -0.7431408 -0.5919695 6247250 male
-2.665852 0.1924053 -0.4993532 0.6135022 0.2258679 0.7567026 6908011 male
-2.557826 0.258314 -0.5244532 -0.4977288 -0.6398637 -0.5855258 10120821 male
-2.72414 0.35845 -0.4329634 0.5220876 0.01512341 0.8527578 9400694 male
-2.727508 0.1164552 -0.467551 -0.1707214 -0.007683072 0.9852894 5855580 male
-2.95364 -0.1024948 -0.4834926 -0.9239312 0.06035646 0.3777675 6966606 male
-2.646514 -0.3115948 -0.6111216 0.9087567 -0.200599 -0.3659525 5783102 male
-2.730467 0.9247451 -0.5244852 0.761563 0.318314 0.5645334 8148563 male
-2.954746 -0.08018635 -0.530857 -0.8502974 0.108014 -0.5150993 8018776 male
-2.652485 -0.1377185 -0.5324538 0.9187097 -0.07010396 0.3886618 8478303 male
-2.926963 0.5599998 -0.6280761 -0.8544914 -0.364055 -0.3705514 10253675 male
-2.691628 -0.2481249 -0.5502599 -0.3115716 -0.1945816 0.9300866 6506826 male
-2.641533 -0.4073752 -0.5939264 0.9873703 0.1061427 0.1176163 9927808 male
-2.987629 0.3078182 -0.4671188 0.4605545 -0.8530995 -0.2451751 6309447 male
-2.890399 -0.2489315 -0.5169457 0.7666023 -0.2285371 0.6000765 6769742 male
-2.58487 0.4025536 -0.678468 0.0994822 -0.5586666 -0.8234045 7361107 male
-2.673703 0.3696758 -0.6336451 0.7533565 0.1149706 -0.6474841 8674912 male
-2.652272 0.06875281 -0.4910081 0.7778478 -0.02359988 0.6280094 6580334 male
-2.686766 0.171131 -0.6467838 0.645002 -0.004543864 -0.7641674 6711406 male
-2.736463 0.9708515 -0.639194 0.5977478 0.7337639 -0.3229368 1313800 male
-2.977259 0.6042854 -0.6135126 -0.8304045 0.02130068 -0.5567537 7689543 male
-2.756088 0.8814177 -0.6847582 0.3635864 -0.2097251 -0.9076455 1380621 male
-2.809031 0.8444715 -0.4947624 -0.3651116 -0.05466584 0.9293574 7360071 male
-2.888768 -0.06155447 -0.5650921 0.2623165 -0.2275102 -0.9377788 9334893 male
-2.965547 -0.1183566 -0.5075644 -0.9894735 0.1096743 0.0944123 8085084 male
-2.865631 0.3080407 -0.4597185 -0.6104922 -0.1118505 0.7840847 6646120 male
-2.861208 0.504836 -0.6808327 -0.3643368 -0.2354369 -0.9010151 9988451 male
-2.954549 -0.008233177 -0.5185236 -0.9925362 -0.10283 -0.06555838 7361103 male
-2.972726 -0.4591433 -0.5536312 -0.3957136 -0.8786629 -0.2671369 6180167 male
-2.813636 0.8643078 -0.6798216 -0.4104164 -0.2957908 -0.8625928 2431508 male
-2.738459 0.8804251 -0.5128899 0.5432847 0.2467803 0.8024595 8608087 male
-2.774563 0.1263432 -0.6426305 -0.4857893 -0.7215828 -0.4932819 8357004 male
-2.775035 0.2307819 -0.4448381 0.2258671 -0.07424357 0.9713249 7041395 male
-2.653731 -0.4636502 -0.6501073 0.377764 -0.598203 -0.706716 2496533 male
-2.609825 0.379717 -0.6399593 -0.8981133 -0.3954113 -0.1924644 8807269 male
-2.805596 0.04474984 -0.5361096 0.9710619 -0.2375801 -0.02438034 3026479 male
-2.921046 -0.283319 -0.5093544 0.3459311 -0.2429844 0.9062507 7097670 male
-2.652371 0.377357 -0.5678259 0.9971066 0.07112297 -0.02683287 10582907 male
-2.813718 0.7363151 -0.5377263 -0.5812676 -0.08365848 0.8094006 11043190 male
-2.768969 0.04334164 -0.5112476 -0.7986243 -0.2383309 0.552628 4867394 male
-2.982986 0.4508182 -0.648442 0.3612128 -0.5970137 -0.7163099 8608600 male
