# .PCD v0.7 - Point Cloud Data file format
VERSION 0.7
FIELDS x y z normal_x normal_y normal_z rgb label
SIZE 4 4 4 4 4 4 4 4
TYPE F F F F F F U U
COUNT 1 1 1 1 1 1 1 1
WIDTH 132
HEIGHT 1
VIEWPOINT 0 0 0 1 0 0 0
POINTS 132
DATA ascii
-2.867249 0.4828414 -0.4739438 -0.3414609 0.1674708 0.9248556 10322554 male
-2.967772 0.04502221 -0.4908473 -0.8353596 0.07888246 0.5440147 5331545 male
-2.758903 0.07912215 -0.504682 -0.366835 -0.1523819 0.917721 5395802 male
-2.975725 0.03759262 -0.5496151 -0.9695549 -0.04778531 -0.2401665 7632505 male
-2.853407 0.3291382 -0.4573451 -0.4612798 -0.1024766 0.881317 8151396 male
-2.723933 -0.3496579 -0.6292301 -0.976447 -0.1827939 0.1146194 7624019 male
-2.913033 0.6848915 -0.5823238 -0.008596087 0.7895098 0.6136777 8677731 male
-2.896643 0.6058294 -0.517207 -0.3896758 0.2615695 0.8830256 10453110 male
-2.82522 0.8643655 -0.5111892 -0.2844747 0.2708909 0.9196153 8673106 male
-2.669813 0.1598378 -0.6267297 0.8941302 0.03217985 -0.4466495 7040371 male
-2.944362 -0.3419922 -0.5406376 0.9108825 -0.02111918 0.4121251 8676715 male
-2.74648 0.8094192 -0.6009688 0.9483568 -0.3104124 -0.06529571 7160636 male
-2.74227 0.5657766 -0.7279537 0.1732944 -0.230403 -0.9575404 10975605 male
-2.80756 0.3068901 -0.4521203 0.04001498 -0.1720525 0.9842747 9269620 male
-2.951545 0.2865875 -0.5695375 -0.913915 0.3340277 0.2306184 9541532 male
-2.932586 -0.07460381 -0.5604722 0.06875581 -0.1911997 -0.9791402 9203051 male
-2.768765 -0.03848061 -0.6130754 -0.7958078 -0.173723 -0.580095 9202027 male
-3.015058 0.571288 -0.5874274 -0.9326241 0.3481345 0.09494561 7560530 male
-2.79072 0.6648089 -0.5392331 0.1510983 0.4937167 0.8563954 7689807 male
-2.905899 0.5021898 -0.5036249 -0.6784745 0.0412464 0.7334651 9730932 male
-2.850735 0.7735465 -0.573697 -0.8624967 -0.05522487 0.5030405 9002839 male
-2.91799 0.1261398 -0.4711787 -0.3096751 0.2438757 0.9190354 6513252 male
-2.692236 -0.4510111 -0.5194376 0.1117002 0.9127995 0.3928361 15320781 male
-2.649639 0.5391672 -0.6924528 -0.3198305 -0.3165737 -0.8930228 11041906 male
-2.774563 -0.03965285 -0.5566918 -0.8900812 -0.162188 0.4259702 5388344 male
-2.76223 0.2567448 -0.69477 0.03454442 0.2592523 -0.9651917 8553867 male
-2.888126 0.460965 -0.6910149 -0.4522615 -0.22331 -0.8634768 9856869 male
-2.667256 0.2814526 -0.6125377 0.9268001 0.3540153 -0.1253587 6712175 male
-2.696912 0.1578459 -0.513168 0.4509302 0.2760802 0.8487884 7171957 male
-3.038213 0.3207781 -0.4690235 -0.4141386 0.5926899 0.6908024 6572107 male
-2.899287 0.6240483 -0.7082418 -0.4786386 0.1869462 -0.8578789 10252643 male
-2.689419 0.4390887 -0.5313916 0.8669759 0.07858586 0.4921148 10980230 male
-2.972841 -0.1802029 -0.5742981 -0.2284692 0.2648091 -0.9368447 7953235 male
-3.04517 0.2865488 -0.5039413 0.9135487 -0.3978393 0.08457369 5323575 male
-2.866747 0.8474503 -0.5773642 -0.9730763 -0.0877931 0.2131073 7359047 male
-2.686371 0.6080881 -0.6544778 -0.9560162 -0.2798689 0.08778652 6177596 male
-2.961346 0.1464778 -0.599727 -0.9382018 0.02750538 -0.3449941 7172469 male
-2.965881 0.5577798 -0.6289691 0.3108628 -0.5534437 -0.7726995 8280406 male
-2.680032 -0.2425116 -0.5658181 0.1249337 -0.2032884 0.9711155 6572875 male
-2.812636 0.2835246 -0.6845372 -0.09186602 0.2919635 -0.9520074 8356231 male
-2.814738 0.2172271 -0.7002533 -0.1310112 0.1095547 -0.985309 8949136 male
-2.579238 0.3242048 -0.6328734 0.8704394 -0.3163406 -0.3771789 6967369 male
-2.740208 0.9100277 -0.6682736 0.839256 0.002516715 -0.5437306 1050116 male
-2.76383 0.482945 -0.4726838 0.1959992 0.3103215 0.9302069 9730935 male
-2.875136 0.9199108 -0.6021937 -0.9789971 0.1566017 0.1305393 3614496 male
-2.655005 -0.2512223 -0.6411949 0.8290221 -0.07211124 -0.5545468 5521212 male
-2.635789 0.6544345 -0.6192933 0.6505119 0.3763783 0.6596769 11043961 male
-2.714032 0.05467905 -0.6498308 0.2611583 -0.1609009 -0.9517916 7304576 male
-2.86394 0.6413575 -0.5261744 -0.1050986 0.5631243 0.8196617 9466219 male
-2.671807 0.5358072 -0.5868415 0.9786244 -0.01873545 0.2048007 7688782 male
-2.923103 0.6726785 -0.6690201 -0.6393643 0.4532153 -0.6211354 8805970 male
-2.69435 0.09344033 -0.5022425 0.4010876 0.04588609 0.9148897 7237746 male
-2.959429 0.1479436 -0.6038974 -0.9291423 0.01593788 -0.3693787 7106676 male
-2.675662 0.2196833 -0.5463644 0.7175892 0.1340067 0.683453 6975346 male
-2.935353 0.6191301 -0.5905295 -0.3152101 -0.7301605 0.6062245 7690068 male
-2.868881 0.9306955 -0.6514594 -0.9093087 0.2623639 -0.3229905 1642768 male
-2.932975 -0.06156215 -0.5691044 -0.07228412 -0.2099326 -0.9750402 9598833 male
-2.801448 0.5230388 -0.4825006 0.1604309 0.3262181 0.9315813 10257018 male
-2.749095 0.7200788 -0.5959607 0.9083103 0.287928 0.3034301 8149587 male
-2.994848 -0.4504309 -0.5690853 -0.1517187 -0.9706619 -0.1865388 6508619 male
-2.86426 0.0009472183 -0.585143 0.6256299 -0.4044126 -0.6671115 7495008 male
-2.697321 -0.4274092 -0.5821141 -0.7933626 0.4647298 0.3931947 8674667 male
-2.681989 -0.3160177 -0.6560748 0.3550044 -0.1247894 -0.9264985 4863025 male
-2.918352 0.699097 -0.6107603 -0.3576046 0.8943934 0.2686621 9730674 male
-2.840369 0.0684734 -0.6121987 0.6462762 -0.3914593 -0.6550471 4015947 male
-2.638661 -0.4736536 -0.6106291 0.4357131 -0.7988988 -0.4146262 3743770 male
-2.651039 0.4976812 -0.672343 -0.7462857 -0.005079906 0.6656064 8282973 male
-2.766268 0.6044978 -0.5104988 -0.01221612 0.3768382 0.9261985 9532264 male
-2.706641 0.02489618 -0.5031828 0.1438319 -0.1348308 0.9803739 6711406 male
-2.651403 -0.4582147 -0.6526585 0.8983738 0.006853453 -0.4391782 7031114 male
-2.932511 0.6459988 -0.5554169 -0.06031091 -0.003821118 0.9981723 10454142 male
-3.021104 0.3817391 -0.5383839 0.872974 0.2741765 0.4034149 7427666 male
-2.942161 0.507808 -0.5605288 -0.9288935 0.025127 0.3694936 6308929 male
-2.795188 0.9283902 -0.6999364 0.1068156 0.2679525 -0.9574925 2037520 male
-2.67554 0.440885 -0.6168917 0.9848521 -0.08822508 -0.1492737 9267560 male
-2.92664 0.6916531 -0.6464795 -0.6532526 0.6457218 -0.3953535 7688775 male
-2.660325 -0.3091895 -0.5998265 0.8788227 -0.200525 0.432967 7690585 male
-2.942608 0.4757991 -0.6360747 -0.9246871 -0.1784517 -0.3363163 9726307 male
-3.07871 0.299702 -0.4303959 -0.685757 0.4717751 0.5542253 5718599 male
-2.822506 0.9817603 -0.5798702 -0.366453 0.8985577 0.2414667 2693400 male
-3.008555 -0.2478422 -0.5470244 -0.978577 -0.09815464 -0.1809776 5324345 male
-2.855558 0.2217018 -0.4905114 -0.326305 0.01720718 0.9451079 6316384 male
-3.05998 0.4782919 -0.609517 -0.9319035 0.320471 0.169865 6113084 male
-3.009391 0.3116474 -0.4422239 -0.03002281 -0.9845896 0.172284 5784903 male
-3.00727 -0.2362586 -0.555219 -0.9189204 -0.04190475 -0.3922107 4863535 male
-2.664232 0.1859133 -0.6110767 0.9553989 0.05065027 -0.2909423 7698815 male
-2.983262 -0.06961532 -0.5194406 -0.9796121 0.1316273 -0.151771 8543323 male
-2.904774 -0.07169066 -0.4642451 0.5640486 -0.1699245 0.8080686 5583924 male
-2.74262 0.8713204 -0.6601953 0.8269235 -0.2476153 -0.5048606 1379597 male
-2.928967 0.3171561 -0.6385998 -0.759234 0.1793592 -0.6256148 6776167 male
-2.745949 0.7294238 -0.6416957 0.727937 0.6719508 -0.1363446 9726820 male
-3.072894 0.2819874 -0.4185206 -0.1809712 -0.8643583 -0.4691846 3287085 male
-2.698195 0.1859415 -0.5226091 0.4820307 0.2749487 0.8318952 7304311 male
-2.605566 0.2728375 -0.5731435 -0.898783 -0.3382017 -0.2789422 6437692 male
-2.712735 0.2972199 -0.5051919 0.7585779 -0.1716962 0.6285539 7894140 male
-2.712626 0.09694241 -0.4975076 0.1420899 0.01889291 0.9896735 7632250 male
-2.986753 -0.1085863 -0.4878722 -0.943188 0.06072223 0.3266638 7361876 male
-2.65648 -0.3077315 -0.6180489 0.982486 -0.1862986 -0.003753633 8085859 male
-2.738188 0.9091356 -0.5485067 0.9169725 0.1581081 0.366283 8806234 male
-2.966818 -0.07310932 -0.5432637 -0.6916449 0.04146237 -0.7210466 7689556 male
-2.669541 -0.1320673 -0.5487759 0.8911853 -0.09840669 0.4428373 9463143 male
-2.943588 0.5357215 -0.5709778 -0.9309037 0.02640519 0.3643091 7165266 male
-2.693131 -0.2790456 -0.5757906 -0.1436364 -0.2340697 0.9615508 5520188 male
-2.655373 -0.4089062 -0.6187815 0.9913033 0.1175007 0.05925784 9927808 male
-3.00554 0.3185426 -0.459096 0.9274409 -0.0633917 -0.3685577 6571594 male
-2.921259 -0.269498 -0.5514075 0.9341767 -0.2376911 -0.2661142 5190707 male
-2.603393 0.3839963 -0.7019659 0.1413024 -0.6382304 -0.7567666 7952472 male
-2.681056 0.3626252 -0.6458448 0.8915073 0.1369307 -0.4318156 8082772 male
-2.768301 0.07390584 -0.5110571 -0.4787145 -0.1782144 0.8596931 4935244 male
-2.766147 0.1409815 -0.6965479 0.02791563 -0.3230302 -0.9459769 8358288 male
-2.773677 0.9850794 -0.6171553 0.4011416 0.9122883 -0.08255596 4731947 male
-2.996833 0.6116975 -0.6236018 -0.8354372 -0.05251558 -0.5470711 7887439 male
-2.77993 0.8955236 -0.699831 0.3147629 -0.04644445 -0.9480333 1184010 male
-2.830413 0.8492192 -0.5105638 -0.4406103 0.04099016 0.8967621 8738387 male
-2.964089 -0.01493595 -0.5647454 -0.8366486 -0.1138183 -0.5357841 8545121 male
-2.999574 -0.1383599 -0.520547 -0.9471741 0.2919635 -0.1327351 9136741 male
-2.873488 0.2816709 -0.4866319 -0.45416 -0.109615 0.8841512 6644838 male
-2.902641 0.5163146 -0.6936807 -0.5321774 -0.2023686 -0.8220913 10844531 male
-2.976659 -0.007885868 -0.5110564 -0.9806015 -0.06948163 0.1832837 8940649 male
-3.021104 -0.4465675 -0.5406467 -0.8185257 -0.1682666 -0.5492741 6375495 male
-2.839615 0.8645761 -0.6911749 -0.4759625 -0.2548021 -0.8417456 2431508 male
-2.733927 0.8735151 -0.5535531 0.9339981 0.06268291 0.3517361 8673618 male
-2.790313 0.1064502 -0.6610465 -0.5210391 -0.6145635 -0.592309 6383469 male
-2.783085 0.2038208 -0.4751267 0.434668 0.008082414 0.9005545 7566715 male
-2.684888 -0.4716303 -0.6360425 -0.1626825 -0.9850929 0.05591319 4863801 male
-2.625165 0.3573434 -0.6330944 -0.9854811 -0.009384071 0.1695253 10058110 male
-2.8236 0.07119429 -0.5809483 0.9400803 -0.2043857 -0.2729022 6316904 male
-2.948797 -0.2766345 -0.5108553 0.3810596 -0.2998505 0.874576 7097670 male
-2.817527 0.4666887 -0.7021283 -0.2209259 -0.2349668 -0.9465635 10780530 male
-2.843306 0.7322889 -0.565203 -0.6995391 -0.03678762 0.7136468 9530209 male
-2.764749 0.03790829 -0.5187812 -0.5616593 -0.196558 0.8036814 5197383 male
-2.997331 0.5220399 -0.6255352 -0.06151767 -0.317569 -0.9462376 8016969 male
