# .PCD v0.7 - Point Cloud Data file format
VERSION 0.7
FIELDS x y z normal_x normal_y normal_z rgb label
SIZE 4 4 4 4 4 4 4 4
TYPE F F F F F F U U
COUNT 1 1 1 1 1 1 1 1
WIDTH 132
HEIGHT 1
VIEWPOINT 0 0 0 1 0 0 0
POINTS 132
DATA ascii
-2.799155 0.4610337 0.5863068 -0.506839 0.146581 0.849487 9598321 male
-2.890496 0.04586556 0.5379287 -0.9655288 0.0323729 0.2582753 8687244 male
-2.71419 0.09570909 0.5447049 -0.8464319 -0.08383719 0.525856 5393748 male
-2.883433 -0.001035111 0.4911167 -0.9061607 -0.1043407 -0.4098608 8216672 male
-2.784626 0.354563 0.6048449 -0.5651302 0.01395966 0.8248836 8940137 male
-2.629544 -0.3853269 0.4138886 -0.910219 0.01052302 -0.4139936 7162182 male
-2.830124 0.6906405 0.3842131 -0.5508952 0.5982498 -0.5819034 7688772 male
-2.851831 0.6044051 0.4910823 -0.8062294 -0.366587 0.4643363 7034960 male
-2.732055 0.8426532 0.5409124 -0.4697981 -0.1820031 0.8638082 6504252 male
-2.577565 0.1906645 0.4684339 0.9667001 0.04095395 -0.2526137 7237750 male
-2.843697 -0.3415184 0.4849234 0.9540933 -0.1430203 0.263156 6900560 male
-2.659027 0.8264269 0.432892 0.9316511 -0.3567697 -0.06885916 6897978 male
-2.645476 0.5829039 0.3345645 0.2747149 -0.1081652 -0.9554224 10581351 male
-2.747885 0.329895 0.6180534 -0.094616 -0.1190273 0.9883726 9663859 male
-2.869897 0.2838696 0.4706211 -0.963017 0.2690587 -0.01433992 9870754 male
-2.818372 -0.1790298 0.4986587 0.9633167 0.1634119 -0.2128788 7032396 male
-2.695201 -0.05938851 0.4810934 -0.9618796 -0.05389222 -0.2681104 7556430 male
-2.932977 0.5710714 0.4465962 -0.9442945 0.2756256 -0.1798293 5980722 male
-2.621877 0.507099 0.5449879 0.7708959 0.02173885 0.6365901 10518138 male
-2.833517 0.5042154 0.5467456 -0.7588229 0.06259523 0.6482822 9862261 male
-2.763538 0.7732188 0.4787218 -0.8495699 -0.03850824 0.5260686 9529184 male
-2.874484 0.09821582 0.5601643 -0.8143944 0.1432248 0.5623597 4407875 male
-2.641425 -0.4558393 0.5545992 0.1679954 0.8997713 0.4027272 16768996 male
-2.559906 0.5549478 0.3915434 -0.119501 -0.4277423 -0.8959665 10779249 male
-2.704207 -0.005120382 0.5069251 -0.9509603 -0.2189557 0.2184785 3942955 male
-2.699062 0.267833 0.3801378 0.02827501 0.282957 -0.9587157 8093828 male
-2.772483 0.4145479 0.3692528 -0.1230097 -0.2814298 -0.9516648 11042678 male
-2.599316 0.3097055 0.5167602 0.8775768 0.04730488 0.4770966 10979209 male
-2.579104 0.1459497 0.5342523 0.9125816 0.08435591 0.4000986 9344927 male
-2.989197 0.3254994 0.5920677 -0.7745707 0.4809443 0.4107709 6243658 male
-2.803337 0.5996289 0.3351242 -0.3198077 0.001663178 -0.947481 10843499 male
-2.613572 0.4628559 0.5398653 0.8157613 0.1007014 0.5695547 10847876 male
-2.918591 -0.1963652 0.5065457 -0.996917 0.05978452 0.05081701 7428697 male
-2.963969 0.3182874 0.5293998 0.4172243 -0.5589424 -0.7165942 6111292 male
-2.798441 0.8621398 0.4258438 -0.7847695 0.1668343 0.5969113 9788245 male
-2.589303 0.564635 0.4381236 -0.9733254 -0.2020421 0.1087038 8741211 male
-2.862163 0.1738153 0.5518532 -0.7259995 0.2604162 0.6364811 5527382 male
-2.88396 0.5405233 0.4261738 0.5764679 -0.6030844 -0.5513383 8282973 male
-2.582884 -0.1952366 0.4302116 0.6976382 0.1992546 -0.688185 7163467 male
-2.713924 0.2624209 0.3777614 0.0149135 0.2720907 -0.962156 9080728 male
-2.646209 0.1894137 0.3757338 0.4337461 -0.05258122 -0.8994996 7042170 male
-2.503003 0.3373533 0.4718145 0.7474703 -0.5399958 -0.3869014 7558481 male
-2.640418 0.9321892 0.4055383 0.9419315 0.2932862 -0.1635487 1248008 male
-2.74409 0.5275322 0.5799918 0.04964793 0.3527648 0.9343939 10060664 male
-2.787817 0.9222926 0.4274105 -0.984542 0.174969 -0.00792853 3614496 male
-2.605009 -0.2324668 0.4117639 0.2795012 0.03180194 -0.9596185 5190702 male
-2.57538 0.6488773 0.4695361 0.05537006 0.02618345 0.9981225 11242625 male
-2.654825 0.05304147 0.4230065 -0.02510066 -0.2069952 -0.97802 9344671 male
-2.778321 0.6272907 0.5406938 -0.1522669 0.5691277 0.8080275 9466218 male
-2.595038 0.6136418 0.4748045 0.6082134 -0.6343846 0.4771087 9269356 male
-2.831958 0.6447854 0.3606629 -0.5426088 0.1192893 -0.8314721 9332567 male
-2.673664 0.1198766 0.5775135 -0.2631704 -0.01049636 0.9646923 5724509 male
-2.870284 0.1880193 0.4570927 -0.9200271 0.1058422 -0.3772897 7895681 male
-2.648003 0.2418068 0.5684044 0.4742597 -0.1283668 0.8709763 7040371 male
-2.852355 0.6195121 0.4553417 -0.5025018 -0.6471611 0.5733014 7362132 male
-2.77507 0.9298066 0.3787758 -0.8556344 0.2499543 -0.4532247 1642768 male
-2.825855 -0.1023554 0.494509 0.4400305 -0.1176949 -0.8902366 8939623 male
-2.618786 0.492554 0.5427733 0.7991205 0.06736945 0.5973842 10651009 male
-2.666466 0.7321632 0.4469427 0.9569856 0.243266 0.1581147 8215123 male
-2.868491 -0.4547649 0.44718 0.2492051 -0.9081706 -0.3363375 4995125 male
-2.862289 0.1112076 0.442872 -0.7609112 -0.1730774 -0.6253467 6908529 male
-2.627116 -0.4166367 0.4717547 -0.8672286 0.348208 0.3559014 9464693 male
-2.579974 -0.3037394 0.4632421 0.9478177 -0.2194048 0.2313076 8085344 male
-2.848294 0.6761194 0.3910661 -0.6987653 0.4907641 -0.520459 8674899 male
-2.745301 0.03668706 0.4884228 0.9199038 -0.310658 -0.2393085 5264469 male
-2.589525 -0.4702929 0.4346056 -0.006539482 -0.997533 -0.06989349 4271656 male
-2.557386 0.4876087 0.4072279 -0.9555192 0.02828006 0.2935699 8413789 male
-2.711575 0.6926711 0.5035918 0.06638921 0.4464711 0.8923318 8609113 male
-2.644361 0.03544275 0.5739725 -0.1356629 -0.149488 0.9794126 7302769 male
-2.572703 -0.4546365 0.4189799 0.9537847 -0.006144216 -0.300428 7032145 male
-2.865015 0.6609525 0.4785907 -0.1164652 0.1091236 0.9871818 10585728 male
-2.922135 0.4011577 0.4694168 0.9590824 -0.2514692 0.1300925 6706519 male
-2.837662 0.5118492 0.5407672 -0.7826577 0.06212333 0.6193445 10059640 male
-2.695807 0.9236069 0.340514 0.2341714 0.2042796 -0.9504912 2037520 male
-2.598805 0.4670593 0.4156195 0.8983737 -0.2490448 -0.361803 10055280 male
-2.864368 0.6296278 0.3796835 -0.5155298 0.008628239 -0.8568282 9463647 male
-2.59892 -0.335251 0.478947 0.4826974 -0.2217583 0.8472464 7558490 male
-2.847926 0.4937432 0.3953604 -0.8059801 -0.2125301 -0.5524735 9989994 male
-2.994108 0.3141273 0.6509659 0.114611 0.8557352 0.5045609 8479335 male
-2.737344 0.9849318 0.4524763 -0.3775302 0.9160578 0.1353113 2693400 male
-2.90824 -0.2386513 0.4684038 -0.8171219 -0.02166351 -0.5760576 5190702 male
-2.780971 0.2220353 0.5729337 -0.4305734 -0.006869647 0.9025294 6316384 male
-2.948622 0.5410051 0.453701 -0.8516118 0.5230618 0.0341118 7558991 male
-2.935332 0.3325565 0.610728 -0.2898352 -0.945367 0.1492533 3615015 male
-2.911998 -0.2587544 0.5058916 -0.9527048 -0.1850337 0.2410727 6114124 male
-2.580723 0.217548 0.4552602 0.9365376 -0.01924019 -0.3500389 7239551 male
-2.889254 -0.07946609 0.5059918 -0.8451932 0.1177328 -0.5213324 7821139 male
-2.808349 -0.1054788 0.5597116 0.7227877 -0.3330646 0.605513 6571594 male
-2.641126 0.8833426 0.4060963 0.9598628 -0.1881382 -0.208008 919042 male
-2.834096 0.3229813 0.4141469 -0.6503855 0.07504282 -0.7558883 6776424 male
-2.658401 0.7295501 0.406046 0.6410257 0.7045515 -0.3044556 7030849 male
-2.998087 0.2973077 0.5994548 0.6686159 -0.7424657 -0.04119892 4664621 male
-2.57099 0.1484208 0.4941148 0.9988621 0.04752217 -0.004006085 9474712 male
-2.523895 0.2567861 0.5968565 -0.8858348 0.001407417 -0.4639987 12422294 male
-2.694967 0.3917601 0.6174488 0.1144318 0.1004149 0.9883431 8940655 male
-2.689138 0.114834 0.571942 -0.4755306 -0.05294572 0.8781044 4933451 male
-2.889643 -0.1050802 0.5531502 -0.9380639 0.05120823 0.342657 6966606 male
-2.59517 -0.3495095 0.4236561 0.8024985 -0.1357992 -0.5809947 5917002 male
-2.666423 0.9225747 0.5060672 0.7362207 0.3124634 0.6002881 8148563 male
-2.883411 -0.07343443 0.5001181 -0.778884 0.08767315 -0.6210098 7952210 male
-2.604285 -0.1245534 0.5442175 0.7037098 -0.1919677 0.6840621 7096907 male
-2.861844 0.5350382 0.4843081 -0.9571662 0.05962535 0.2833332 6507590 male
-2.600091 -0.3864023 0.4097246 0.5666285 -0.06203542 -0.8216348 5061179 male
-2.587692 -0.4052877 0.4690715 0.790474 0.3899474 0.4723261 8808554 male
-2.933174 0.3324001 0.5962569 0.4262966 -0.9045823 -0.001417227 6376269 male
-2.825317 -0.2497745 0.5170487 0.7440413 -0.2612945 0.6149209 6769742 male
-2.509247 0.4116345 0.3828021 0.2077148 -0.6357076 -0.7434584 7489866 male
-2.632843 0.3813116 0.3881632 0.5471194 -0.06288299 -0.8346892 8674395 male
-2.672477 0.08858776 0.574226 -0.3536039 -0.1119777 0.9286686 6249823 male
-2.60252 0.3937145 0.5338234 0.8725181 0.005776707 0.4885477 12755617 male
-2.664981 0.9665973 0.3904178 0.6313988 0.714138 -0.3022292 1313800 male
-2.908301 0.5768457 0.4137675 -0.5759196 -0.1559363 -0.8024963 7557442 male
-2.684066 0.8767574 0.3454367 0.4086227 -0.2346342 -0.8820285 1380621 male
-2.748354 0.8566957 0.5322885 -0.3326213 0.1285763 0.9342543 8673622 male
-2.831955 -0.05918603 0.4699485 0.138265 -0.1930788 -0.9713925 9730419 male
-2.899689 -0.148401 0.4886594 -0.749199 0.3886452 -0.5363355 7163716 male
-2.802811 0.2886401 0.5742559 -0.5724106 -0.09751929 0.8141475 6579560 male
-2.792904 0.500783 0.3527127 -0.3133647 -0.2563182 -0.914387 9988451 male
-2.889681 -0.01046034 0.5164821 -0.9890035 -0.1045882 -0.1045624 7361103 male
-2.882601 -0.4564018 0.4492724 0.01249154 -0.9787084 -0.2048748 5523268 male
-2.742168 0.8609919 0.3474669 -0.3684959 -0.3032901 -0.8787639 2431508 male
-2.678094 0.8778805 0.5193826 0.4586628 0.2711038 0.8462453 8673879 male
-2.70577 0.1021622 0.4277908 -0.6642132 -0.4177555 -0.6199203 6514027 male
-2.717359 0.1870013 0.5978398 0.2187399 -0.04029679 0.9749508 7039857 male
-2.617003 -0.4642345 0.4060882 -0.5232667 -0.8165389 -0.2438366 2632231 male
-2.533659 0.3833987 0.412104 -0.5421385 -0.6128942 -0.5748448 10254715 male
-2.740403 0.04313499 0.50482 0.9721217 -0.2341056 0.01319651 3026479 male
-2.867188 -0.2569237 0.5344912 0.2039107 -0.2938037 0.9338628 5913666 male
-2.644457 0.3270004 0.392788 0.3006593 -0.2049313 -0.9314544 8542296 male
-2.635417 0.6511353 0.499286 0.3464491 0.5091023 0.7879009 9005928 male
-2.655194 0.03762253 0.5720249 -0.2986058 -0.1487819 0.9427081 7105644 male
-2.910547 0.5109642 0.4183273 0.2148076 -0.4469282 -0.8683968 7162692 male
