# .PCD v0.7 - Point Cloud Data file format
VERSION 0.7
FIELDS x y z normal_x normal_y normal_z rgb label
SIZE 4 4 4 4 4 4 4 4
TYPE F F F F F F U U
COUNT 1 1 1 1 1 1 1 1
WIDTH 132
HEIGHT 1
VIEWPOINT 0 0 0 1 0 0 0
POINTS 132
DATA ascii
-2.846997 0.4897293 -0.4498554 -0.4138138 0.1956891 0.8890804 10322554 male
-2.947356 0.04841238 -0.4912186 -0.9543831 0.03824259 0.2961256 8687244 male
-2.712648 0.08313408 -0.4614113 -0.1987202 -0.07868412 0.9768926 6645354 male
-2.942302 0.001031563 -0.5382259 -0.9218836 -0.1043465 -0.373152 8216672 male
-2.834067 0.3312489 -0.427566 -0.5175571 -0.1061108 0.8490437 8479336 male
-2.703513 -0.3695039 -0.6123322 -0.9794161 -0.09942031 -0.175669 8281178 male
-2.881341 0.7082726 -0.6163598 -0.6351507 0.7651491 -0.1055007 7295814 male
-2.890478 0.6284953 -0.5266991 -0.5075729 -0.05304227 0.8599746 10782592 male
-2.780054 0.8141218 -0.4797161 -0.3357832 -0.0626122 0.9398561 6702658 male
-2.639229 0.161365 -0.5837943 0.9254525 0.01723109 -0.3784716 7040371 male
-2.903672 -0.3423882 -0.5365382 0.9634977 -0.1307672 0.2336067 6900560 male
-2.712095 0.8256559 -0.5813405 0.9195713 -0.3552666 -0.167852 7358273 male
-2.693674 0.605669 -0.6959853 0.4192765 0.04958924 -0.9065033 9924708 male
-2.794536 0.318666 -0.4177771 -0.03705449 -0.1651165 0.9855778 9532021 male
-2.926775 0.2870623 -0.5591403 -0.9579747 0.2855773 0.02701891 9870754 male
-2.877716 -0.1792062 -0.5326908 0.9542353 0.1513467 -0.2579325 7032396 male
-2.752352 -0.04280141 -0.5738768 -0.8682841 -0.09349244 -0.4871774 8544092 male
-2.980831 0.5752068 -0.5835364 -0.9505077 0.3094378 0.02798978 7560530 male
-2.661246 0.5062966 -0.5071515 0.8550604 -0.04942523 0.5161675 11374220 male
-2.906472 0.5086982 -0.5177763 -0.8834026 0.04336538 0.466604 9072233 male
-2.820518 0.7834311 -0.5535251 -0.9044018 -0.1029559 0.4140742 8805204 male
-2.930314 0.1008388 -0.4703128 -0.7907766 0.1509667 0.593196 4407875 male
-2.680471 -0.4480773 -0.4968258 0.1480503 0.9073072 0.3935413 13279402 male
-2.604707 0.4653402 -0.6808506 -0.6224322 -0.3520696 -0.6990172 9528936 male
-2.69702 0.01692503 -0.4690702 -0.03779866 -0.1773204 0.983427 7566715 male
-2.760065 0.2734981 -0.6552921 -0.009199704 0.2976289 -0.9546373 7896448 male
-2.830828 0.4176717 -0.6630753 -0.1691012 -0.2640409 -0.9495721 11042678 male
-2.648625 0.2938152 -0.5276425 0.8493892 0.2616966 0.4583152 9672349 male
-2.650127 0.1612534 -0.4897325 0.7329462 0.1918186 0.6526834 6317161 male
-3.042948 0.2957928 -0.470719 -0.921478 0.08897617 0.3781026 5784132 male
-2.859378 0.6054728 -0.6920893 -0.3533561 0.03670322 -0.9347686 10843499 male
-2.676644 0.4235842 -0.4699681 0.7599339 0.03649377 0.6489751 10847876 male
-2.975739 -0.1937061 -0.532805 -0.9814994 0.1166122 -0.1518567 7362903 male
-2.997079 0.2985789 -0.5216057 0.8781066 -0.4458175 -0.1737112 4992555 male
-2.853121 0.8743029 -0.5936409 -0.9293813 -0.002990135 0.3691089 7817542 male
-2.65057 0.5989185 -0.6172115 -0.9647703 -0.2614095 0.02972205 6046266 male
-2.91804 0.1763875 -0.4797499 -0.6986995 0.2683462 0.6631812 5527382 male
-2.920317 0.5957842 -0.630573 0.3229982 -0.3634542 -0.8738267 5913649 male
-2.652038 -0.2582209 -0.542431 0.5334804 -0.2400566 0.811031 6902352 male
-2.734757 0.2659259 -0.656731 0.06115604 0.2788941 -0.9583726 8356487 male
-2.793569 0.2020074 -0.666857 -0.04073492 -0.007998748 -0.9991379 9081240 male
-2.554315 0.3167261 -0.5802987 0.9400401 -0.3324142 -0.07632434 7164236 male
-2.695812 0.9358208 -0.616843 0.9312649 0.3109286 -0.1899188 1248008 male
-2.767167 0.5079131 -0.4470848 0.06234442 0.3645734 0.9290853 9468022 male
-2.842094 0.9231624 -0.5896784 -0.9861944 0.1616974 0.03569982 3614496 male
-2.649342 -0.2511162 -0.6212772 0.6662805 -0.07107799 -0.742306 6046267 male
-2.603208 0.6573754 -0.5791293 0.5908144 0.3778679 0.7128493 11043961 male
-2.726578 0.0117206 -0.6090637 -0.3118984 -0.1440981 -0.9391246 7887450 male
-2.725378 0.4812032 -0.4414039 0.289714 0.2882751 0.9126682 9269100 male
-2.64676 0.5641502 -0.5357003 0.9457427 -0.06225314 0.3188971 9136226 male
-2.880404 0.6485586 -0.6692002 -0.5291947 0.1393192 -0.8369846 9727331 male
-2.70348 0.1151415 -0.4593565 -0.005126175 0.05519755 0.9984623 6316130 male
-2.836579 0.008618609 -0.5733064 0.5798755 -0.3393521 -0.7406649 7495524 male
-2.693059 0.228555 -0.478043 0.4720165 -0.03537765 0.8808796 8620435 male
-2.899817 0.6336946 -0.5690588 0.8621022 -0.4059507 0.3032886 6705486 male
-2.831347 0.9324645 -0.6384841 -0.8756732 0.2529977 -0.4113255 1642768 male
-2.885224 -0.1014009 -0.5385305 0.402934 -0.1446738 -0.9037221 8939623 male
-2.651739 0.48088 -0.527697 0.92772 0.03249418 0.3718598 9925742 male
-2.719276 0.727262 -0.568546 0.9225568 0.2241433 0.3140839 8412502 male
-2.948424 -0.4603968 -0.5531252 -0.01827875 -0.9944599 -0.1035159 6049102 male
-2.922889 0.1131797 -0.5882605 -0.7863557 -0.1711551 -0.5935913 6908529 male
-2.69005 -0.4323403 -0.5476982 -0.8237171 0.4743265 0.3106517 11241361 male
-2.653292 -0.3087525 -0.6154084 0.7557899 -0.1722935 -0.6317409 5453876 male
-2.892046 0.6961379 -0.6244841 -0.6285177 0.69872 -0.3416956 8214603 male
-2.811204 0.01552978 -0.534301 0.9198814 -0.3546836 -0.1673851 4997442 male
-2.630138 -0.4744264 -0.5803163 0.4387228 -0.8105252 -0.388035 3743770 male
-2.621502 0.5033801 -0.6318719 -0.8969 -0.06145844 0.437942 8872034 male
-2.74245 0.634405 -0.4945714 0.06620762 0.4820599 0.8736331 9466215 male
-2.760917 -0.02797656 -0.5407478 -0.9776815 -0.144664 0.152352 6703941 male
-2.640455 -0.4590723 -0.6230097 0.9200118 -0.01732402 -0.3915077 7031114 male
-2.900978 0.6465164 -0.5558141 0.3718921 -0.4522211 0.810674 9336693 male
-2.966174 0.4021302 -0.6038632 0.8512468 -0.4760985 -0.2207014 9204340 male
-2.824607 0.5174829 -0.4500603 -0.1382736 0.2549948 0.9570047 9993079 male
-2.753552 0.9286354 -0.6799418 0.1945438 0.2389503 -0.951344 2037520 male
-2.659092 0.4938371 -0.6450287 0.7722453 -0.2388662 -0.5887105 10121073 male
-2.90202 0.6843467 -0.6275409 -0.7063122 0.5727845 -0.4159819 8675666 male
-2.655209 -0.3591617 -0.5770789 0.9314346 -0.1837208 0.3141278 7559514 male
-2.902796 0.4974454 -0.6328641 -0.8300919 -0.1906831 -0.524011 9989994 male
-3.042022 0.2966817 -0.45035 -0.9109089 -0.2884551 0.2950229 4335657 male
-2.791459 0.9856228 -0.5644822 -0.383653 0.9057576 0.1800376 2693400 male
-2.968641 -0.2403816 -0.5563815 -0.8386695 -0.04997133 -0.5423434 5190702 male
-2.835132 0.223452 -0.4610917 -0.3936128 -0.003128749 0.919271 6316384 male
-3.016034 0.5003752 -0.6155908 -0.9617276 0.225304 -0.1559423 5388337 male
-2.96607 0.3154418 -0.4480788 0.6692455 -0.7412893 -0.05099612 6902613 male
-2.970958 -0.2585253 -0.517738 -0.9427177 -0.1707387 0.2865861 6114124 male
-2.634303 0.1872408 -0.5673601 0.9751256 0.03416588 -0.2190038 7698815 male
-2.933669 -0.08606548 -0.5377945 -0.6072041 0.09176132 -0.7892294 8215387 male
-2.865111 -0.1025749 -0.473565 0.7449234 -0.3185651 0.5861787 6571594 male
-2.700328 0.8872724 -0.6311989 0.9094316 -0.1723892 -0.3784391 1050624 male
-2.891506 0.3353559 -0.6207191 -0.6615121 -0.05338527 -0.7480319 8742244 male
-2.710775 0.7315665 -0.6123619 0.7405771 0.6662057 -0.08783822 9726820 male
-3.035576 0.2765982 -0.4190894 -0.3351381 -0.8118392 -0.478121 1576462 male
-2.658733 0.1905955 -0.4925042 0.6113579 0.2198017 0.7602162 6908011 male
-2.556429 0.2582878 -0.4973206 -0.3982158 -0.6415478 -0.6556223 7621712 male
-2.716662 0.3578289 -0.4272987 0.5139919 0.01485525 0.8576664 9400694 male
-2.721693 0.1154305 -0.4609747 -0.17803 -0.003600681 0.9840184 5855580 male
-2.946632 -0.1023047 -0.4771413 -0.9231089 0.06369875 0.379226 6966606 male
-2.647424 -0.3137083 -0.6040127 0.9058465 -0.2127239 -0.3663204 5783102 male
-2.743587 0.9399168 -0.5049356 0.3541829 0.4339786 0.8283821 6572611 male
-2.948196 -0.06166954 -0.5154695 -0.984372 0.07160426 -0.1608871 8281693 male
-2.650171 -0.1429051 -0.525127 0.9134146 -0.09660534 0.3954 8281181 male
-2.915614 0.5606993 -0.6258212 -0.8514576 -0.3559704 -0.3851039 10253675 male
-2.682275 -0.2579101 -0.541021 -0.2164621 -0.2161424 0.9520644 6902608 male
-2.644849 -0.4094017 -0.5886049 0.9887324 0.09453591 0.1160657 9927808 male
-2.976319 0.3134961 -0.4578333 -0.08680462 -0.9956344 -0.03430898 4272689 male
-2.883941 -0.2491179 -0.5104326 0.7671926 -0.2304702 0.5985808 6769742 male
-2.561832 0.4135382 -0.6738061 0.3939143 -0.5489006 -0.7372515 6900296 male
-2.653768 0.3420107 -0.6185925 0.8082296 -0.1814806 -0.560205 8937831 male
-2.766581 0.0749054 -0.493898 -0.7623396 -0.1748932 0.6230977 5198164 male
-2.680498 0.1632916 -0.6409622 0.6269863 -0.009917292 -0.7789671 6711406 male
-2.721341 0.9703684 -0.6298436 0.6100732 0.7325635 -0.3019296 1313800 male
-2.959472 0.5869854 -0.6194001 -0.6555108 -0.03337839 -0.7544478 7360839 male
-2.741051 0.8818079 -0.6770607 0.3768446 -0.199798 -0.9044717 1380621 male
-2.795722 0.8568407 -0.4884986 -0.2898641 0.1368726 0.94723 8739411 male
-2.892023 -0.05787016 -0.5620515 0.09875256 -0.2084232 -0.9730405 9730419 male
-2.965342 -0.1452885 -0.5224167 -0.9427396 0.2777551 -0.1846459 9136741 male
-2.853027 0.2845645 -0.458197 -0.5178142 -0.1132295 0.8479668 6644838 male
-2.849685 0.5047484 -0.6774997 -0.3541296 -0.2321828 -0.9059158 9988451 male
-2.947599 -0.00812298 -0.5124813 -0.9927095 -0.101953 -0.06429133 7361103 male
-2.966636 -0.4589988 -0.5468597 -0.4046892 -0.8767503 -0.2598759 6180167 male
-2.798837 0.8651775 -0.6733578 -0.3985763 -0.2790418 -0.8736547 2431508 male
-2.745493 0.8799927 -0.4962991 0.562815 0.3870266 0.7303764 8081738 male
-2.767377 0.1256398 -0.6364766 -0.4906349 -0.7182884 -0.4932941 8357004 male
-2.768147 0.2306057 -0.4390259 0.2178779 -0.07132738 0.9733661 7041395 male
-2.675107 -0.4716534 -0.6082777 -0.1878846 -0.9807042 0.0540248 4863801 male
-2.596694 0.3566819 -0.5806412 -0.9783317 0.1339013 0.1579164 9730427 male
-2.807702 0.02168753 -0.5292101 0.93701 -0.3402883 -0.07884251 4075569 male
-2.932509 -0.3091238 -0.5035128 0.07404819 -0.196767 0.97765 7361103 male
-2.644117 0.3748202 -0.546905 0.9939279 0.03685369 0.1036779 11372939 male
-2.802485 0.7353706 -0.5328925 -0.5957983 -0.08667936 0.798443 11043190 male
-2.76413 0.04295891 -0.5048212 -0.8062221 -0.2241205 0.547518 4867394 male
-2.955609 0.5425059 -0.6201195 -0.06645391 -0.2823198 -0.9570159 9332061 male
