# .PCD v0.7 - Point Cloud Data file format
VERSION 0.7
FIELDS x y z normal_x normal_y normal_z rgb label
SIZE 4 4 4 4 4 4 4 4
TYPE F F F F F F U U
COUNT 1 1 1 1 1 1 1 1
WIDTH 132
HEIGHT 1
VIEWPOINT 0 0 0 1 0 0 0
POINTS 132
DATA ascii
-2.868085 0.4845224 -0.4710999 -0.3412456 0.1716977 0.9241598 10322554 male
-2.968476 0.04556509 -0.4884809 -0.8375272 0.07496838 0.5412282 5331545 male
-2.729295 0.1037428 -0.4929131 -0.04488854 -0.0008645408 0.9989917 6316901 male
-2.9762 0.03839808 -0.5473111 -0.9686148 -0.04818479 -0.2438516 7632505 male
-2.853427 0.3280119 -0.4538748 -0.4527253 -0.1155399 0.8841325 8479336 male
-2.717535 -0.3634848 -0.6420086 -0.9542152 -0.117416 -0.2751125 6964289 male
-2.914296 0.685874 -0.5806366 -0.0100859 0.7927009 0.6095273 8677731 male
-2.916514 0.6247106 -0.5388256 -0.4153618 -0.01473686 0.909537 10651521 male
-2.826604 0.8663237 -0.5110845 -0.28319 0.2789269 0.9176074 8673106 male
-2.670372 0.1611127 -0.6232287 0.8944265 0.03334093 -0.4459705 7040371 male
-2.944304 -0.3415727 -0.5393966 0.9092039 -0.01963454 0.4158879 8676715 male
-2.747947 0.810685 -0.6005028 0.9487569 -0.3094098 -0.06423424 7160636 male
-2.74351 0.5661842 -0.7256839 0.1722448 -0.2364364 -0.9562581 10975605 male
-2.808284 0.3082357 -0.4487051 0.03960016 -0.1700699 0.984636 9269620 male
-2.955133 0.284703 -0.5782828 -0.9544043 0.2829782 0.09505641 9870754 male
-2.932831 -0.07377997 -0.5587751 0.07286598 -0.1879842 -0.9794654 9203051 male
-2.765966 -0.04996815 -0.6115994 -0.7550297 -0.1310199 -0.6424671 9005159 male
-3.016068 0.5719934 -0.5852832 -0.9331878 0.3469522 0.09372626 7560530 male
-2.791876 0.666377 -0.5376027 0.1514118 0.499915 0.8527365 7689807 male
-2.906769 0.5036837 -0.500851 -0.6779579 0.04408126 0.7337778 9730932 male
-2.852088 0.7748762 -0.5727208 -0.861338 -0.05210922 0.5053529 9002839 male
-2.918878 0.1267102 -0.4682243 -0.3133541 0.2394077 0.9189631 6513252 male
-2.691885 -0.4498499 -0.5170506 0.1096043 0.913489 0.3918222 15320781 male
-2.652102 0.5555838 -0.69264 -0.1555955 -0.304228 -0.939806 10384235 male
-2.775107 -0.03857747 -0.5538578 -0.8900497 -0.1638869 0.4253852 5388344 male
-2.762787 0.2578135 -0.6913221 0.03506558 0.2587499 -0.9653077 8553867 male
-2.874947 0.4356824 -0.6892021 -0.3255434 -0.2329735 -0.9163759 11371132 male
-2.667893 0.2826495 -0.6090254 0.926541 0.3548706 -0.124854 6712175 male
-2.69751 0.1588632 -0.509641 0.4502905 0.2742273 0.8497281 7171957 male
-3.082963 0.2964681 -0.4623442 -0.8981229 0.1461101 0.4147615 5784132 male
-2.900571 0.6243243 -0.7061836 -0.4801006 0.1804635 -0.85845 10252643 male
-2.690233 0.4407371 -0.5284072 0.8669971 0.08236546 0.491459 10980230 male
-2.972884 -0.1798255 -0.5731573 -0.2252906 0.2640814 -0.9378194 7953235 male
-3.039984 0.2966432 -0.5149623 0.8452504 -0.4927619 -0.2067307 4992555 male
-2.87061 0.8538772 -0.5822892 -0.9505948 -0.04595351 0.3070142 7556426 male
-2.686584 0.5960814 -0.6514539 -0.9526385 -0.2791742 0.1205888 6046266 male
-2.961865 0.1474994 -0.5968138 -0.9373306 0.02726271 -0.3473731 7172469 male
-2.966849 0.5584824 -0.6267828 0.3122065 -0.5540788 -0.7717019 8280406 male
-2.663979 -0.2564043 -0.5715814 0.5902451 -0.2214509 0.7762539 6902352 male
-2.813222 0.2845453 -0.6811352 -0.09129413 0.2910041 -0.952356 8356231 male
-2.815259 0.2182761 -0.6968465 -0.1301596 0.1090326 -0.9854798 8949136 male
-2.580992 0.3193148 -0.6266843 0.9403574 -0.2818002 -0.1905692 7163465 male
-2.741961 0.9106737 -0.6687447 0.8382185 -0.001070688 -0.5453335 1050116 male
-2.85849 0.6202313 -0.5066703 -0.1040831 0.5207379 0.847348 9334635 male
-2.876786 0.920938 -0.6025118 -0.9790217 0.1561752 0.130866 3614496 male
-2.655286 -0.2500853 -0.6388311 0.8299049 -0.07030486 -0.5534574 5521212 male
-2.637049 0.6555312 -0.6178571 0.6524245 0.3792792 0.656117 11043961 male
-2.714541 0.05604806 -0.6465625 0.2614645 -0.1582597 -0.9521503 7304576 male
-2.858969 0.6345337 -0.5168717 -0.09135436 0.5757306 0.81252 9401454 male
-2.672805 0.5372428 -0.5844591 0.9788949 -0.01569953 0.2037604 7688782 male
-2.925809 0.6635954 -0.6721251 -0.650485 0.3380224 -0.6801545 9266778 male
-2.694909 0.09437927 -0.4989007 0.4007343 0.0432608 0.9151724 7237746 male
-2.95994 0.1489784 -0.6009671 -0.9282086 0.01575432 -0.3717264 7106676 male
-2.676308 0.2208499 -0.5427681 0.717075 0.1339431 0.6840047 6975346 male
-2.936445 0.6200272 -0.588352 -0.3133074 -0.7276176 0.6102549 7690068 male
-2.870642 0.9312765 -0.6518881 -0.9103975 0.2577704 -0.3236213 1642768 male
-2.933207 -0.06066479 -0.5672809 -0.06812895 -0.2064343 -0.9760857 9598833 male
-2.802338 0.524835 -0.4799078 0.1605589 0.3317222 0.9296135 10257018 male
-2.751899 0.7253286 -0.5962424 0.9455971 0.2250883 0.2349073 8412502 male
-3.008497 -0.4389225 -0.5701162 -0.8715117 -0.2152956 -0.440585 6901584 male
-2.86454 0.002083709 -0.5825459 0.6286446 -0.4004185 -0.6666866 7495008 male
-2.697072 -0.426337 -0.5796978 -0.7946844 0.4631825 0.3923503 8674667 male
-2.682069 -0.3149734 -0.6537027 0.3564215 -0.1245654 -0.9259844 4863025 male
-2.919692 0.6999124 -0.609147 -0.3599701 0.8947473 0.2642894 9730674 male
-2.840702 0.06973953 -0.6091166 0.6487575 -0.3878907 -0.6547172 4015947 male
-2.638271 -0.4724754 -0.6081415 0.4377527 -0.798265 -0.4136975 3743770 male
-2.657322 0.5013841 -0.668844 -0.849069 -0.08211566 0.521861 8872034 male
-2.76728 0.6062899 -0.5084744 -0.01157696 0.3829966 0.9236772 9532264 male
-2.707188 0.02583583 -0.5001005 0.1436451 -0.1377395 0.9799969 6711406 male
-2.651041 -0.4571029 -0.6501815 0.8985717 0.008388923 -0.4387465 7031114 male
-2.947226 0.651517 -0.5599539 0.06576551 -0.03894778 0.9970747 10322812 male
-3.022064 0.3820024 -0.536122 0.8711994 0.2680878 0.4112669 7427666 male
-2.943079 0.508949 -0.5577281 -0.9286149 0.02563246 0.3701585 6308929 male
-2.797036 0.9286467 -0.7004796 0.1045619 0.2592582 -0.9601312 2037520 male
-2.67638 0.4421673 -0.6139213 0.9849511 -0.08719425 -0.1492262 9267560 male
-2.927994 0.6922641 -0.6448017 -0.6556099 0.6416909 -0.3980056 7688775 male
-2.66049 -0.3080388 -0.5974295 0.8789102 -0.1978063 0.4340387 7690585 male
-2.943523 0.4765453 -0.6331297 -0.9245631 -0.1817195 -0.3349048 9726307 male
-3.075292 0.2971098 -0.419692 0.06866305 0.8001322 0.5958807 7887713 male
-2.824221 0.9830832 -0.5808559 -0.3675067 0.9001436 0.2338382 2693400 male
-3.008617 -0.2475047 -0.5459677 -0.9777807 -0.09940793 -0.1845618 5324345 male
-2.856349 0.2226749 -0.4870601 -0.3280588 0.01540756 0.9445317 6316384 male
-3.060484 0.4794661 -0.6064878 -0.9323882 0.3194814 0.1690673 6113084 male
-3.008843 0.3107931 -0.4421523 0.2037756 -0.9773602 0.05694386 6903384 male
-3.007317 -0.2359246 -0.5541682 -0.9174008 -0.04322827 -0.3956098 4863535 male
-2.664814 0.1871608 -0.607531 0.9555849 0.05156682 -0.2901697 7698815 male
-2.98367 -0.06899632 -0.5179055 -0.9792448 0.1306896 -0.1549187 8543323 male
-2.905388 -0.07113167 -0.462353 0.5610222 -0.1721117 0.8097109 5583924 male
-2.744291 0.8720407 -0.6603026 0.8264474 -0.2508659 -0.5040347 1379597 male
-2.925776 0.3239094 -0.6381736 -0.7330974 0.09121002 -0.6739799 6776424 male
-2.747356 0.7303403 -0.6405755 0.7266749 0.6719719 -0.1428197 9726820 male
-3.070375 0.2770593 -0.4121217 0.2135748 -0.7597339 -0.6141582 5849667 male
-2.698808 0.1870142 -0.5190299 0.4813226 0.273697 0.8327175 7304311 male
-2.606657 0.2734106 -0.567403 -0.9041404 -0.3429677 -0.2547614 6898503 male
-2.713426 0.2985372 -0.5017125 0.7582896 -0.1699524 0.6293752 7894140 male
-2.713195 0.0978587 -0.4941616 0.1416813 0.01596744 0.9897836 7632250 male
-2.987217 -0.1081069 -0.4866356 -0.9443638 0.05896805 0.3235735 7361876 male
-2.656631 -0.3065854 -0.6156495 0.9829985 -0.1835959 -0.00252967 8085859 male
-2.739722 0.9108956 -0.5489773 0.9174142 0.162943 0.3630436 8806234 male
-2.967127 -0.07240374 -0.541709 -0.6888878 0.04248808 -0.7236217 7689556 male
-2.670159 -0.130905 -0.5463669 0.8910111 -0.09724557 0.4434439 9463143 male
-2.949652 0.5475478 -0.5914198 -0.9420788 -0.09435761 0.3218448 8082770 male
-2.693407 -0.2779648 -0.5734527 -0.1441223 -0.233724 0.9615622 5520188 male
-2.655178 -0.407769 -0.6163346 0.9909577 0.1200581 0.05990611 9927808 male
-3.012546 0.3111148 -0.454116 0.2138812 -0.9640634 -0.1575966 5784131 male
-2.921279 -0.269066 -0.5500229 0.9354364 -0.2367922 -0.2624657 5190707 male
-2.606099 0.3970831 -0.7087905 0.1514678 -0.5870321 -0.7952678 7032913 male
-2.681742 0.3637892 -0.6424884 0.8914472 0.1368224 -0.431974 8082772 male
-2.768871 0.07484106 -0.5078168 -0.4789045 -0.1811018 0.8589835 4935244 male
-2.745278 0.1462442 -0.6909947 0.2582527 -0.2100264 -0.9429711 7568516 male
-2.775468 0.9861385 -0.6182685 0.3994293 0.9121569 -0.09179293 4731947 male
-2.997329 0.5820006 -0.6231174 -0.7139654 -0.02679345 -0.6996682 7360839 male
-2.78172 0.8958086 -0.7000979 0.3130577 -0.05464468 -0.9481608 1184010 male
-2.83177 0.8511746 -0.5103086 -0.438964 0.04844419 0.8971977 8738387 male
-2.964421 -0.01405129 -0.5626998 -0.8344389 -0.1127605 -0.5394412 8545121 male
-2.999871 -0.1379496 -0.5194975 -0.9470337 0.2908201 -0.1362014 9136741 male
-2.874233 0.2827854 -0.4832197 -0.4547727 -0.1098325 0.8838091 6644838 male
-2.903676 0.5167674 -0.6909406 -0.5325152 -0.2079884 -0.8204684 10844531 male
-2.977202 -0.007263259 -0.5090085 -0.9811698 -0.07179213 0.1793092 8940649 male
-2.985848 -0.4522373 -0.5518638 0.05095318 -0.9973155 -0.05258941 4931382 male
-2.841336 0.8648466 -0.6910378 -0.4771427 -0.2633398 -0.8384433 2431508 male
-2.735411 0.875238 -0.5537111 0.9345384 0.06755425 0.3493916 8673618 male
-2.790793 0.1077905 -0.6576682 -0.5200396 -0.6135978 -0.5941857 6383469 male
-2.783778 0.2049545 -0.471658 0.4336499 0.00839554 0.9010423 7566715 male
-2.684495 -0.4705809 -0.6335722 -0.1605378 -0.985391 0.05685228 4863801 male
-2.62099 0.3577393 -0.6135059 -0.8329796 0.321956 0.4499882 8610402 male
-2.824023 0.07236785 -0.5778026 0.9412187 -0.2019162 -0.2708083 6316904 male
-2.948967 -0.2762042 -0.5095792 0.3780312 -0.2987106 0.8762787 7097670 male
-2.818449 0.467339 -0.6991829 -0.220987 -0.2400172 -0.9452812 10780530 male
-2.838932 0.7282975 -0.5596026 -0.6267929 -0.06793448 0.7762188 10845555 male
-2.784089 0.02475975 -0.5386827 -0.8018124 -0.2500391 0.5427499 4998464 male
-2.998185 0.5228383 -0.6232373 -0.06022863 -0.3178776 -0.9462169 8016969 male
