# .PCD v0.7 - Point Cloud Data file format
VERSION 0.7
FIELDS x y z normal_x normal_y normal_z rgb label
SIZE 4 4 4 4 4 4 4 4
TYPE F F F F F F U U
COUNT 1 1 1 1 1 1 1 1
WIDTH 132
HEIGHT 1
VIEWPOINT 0 0 0 1 0 0 0
POINTS 132
DATA ascii
-2.865231 0.4792915 -0.4657192 -0.3758931 0.1697673 0.9109794 10388349 male
-2.962587 0.04324203 -0.4898325 -0.8507345 0.04938634 0.5232702 5331545 male
-2.724955 0.1051437 -0.4857763 -0.0643474 -0.003389989 0.9979218 6316901 male
-2.968866 0.03737613 -0.5490458 -0.9620799 -0.05675615 -0.2667977 7632505 male
-2.850631 0.3293777 -0.4484422 -0.4680619 -0.1164946 0.8759835 8479336 male
-2.711955 -0.3638767 -0.6230941 -0.9890166 -0.1474826 0.009750271 7952216 male
-2.906126 0.7046406 -0.6482331 -0.6154845 0.6357458 -0.4658392 7492681 male
-2.891858 0.5982084 -0.5049544 -0.4509771 0.2569879 0.8547379 10782074 male
-2.813124 0.8374196 -0.5048532 -0.3193902 -0.3690529 0.8728057 6702141 male
-2.663378 0.162986 -0.6147925 0.9029617 0.03505545 -0.4282888 7040371 male
-2.932387 -0.3537104 -0.5466428 0.976982 0.00994372 0.2130898 7097939 male
-2.745025 0.8128099 -0.5972504 0.9517824 -0.3032822 -0.04615461 7160636 male
-2.737147 0.567037 -0.7199967 0.1874785 -0.2435628 -0.9515929 10975605 male
-2.80554 0.3096624 -0.4424742 0.02163323 -0.1687573 0.9854202 9269620 male
-2.949289 0.2896826 -0.5855806 -0.9564272 0.2904734 -0.02953436 9342869 male
-2.923161 -0.07497668 -0.5648457 0.09436854 -0.1802031 -0.9790921 9203051 male
-2.759723 -0.04827704 -0.6054983 -0.7428539 -0.1297417 -0.6567611 9005159 male
-3.010793 0.5716717 -0.5867805 -0.9404799 0.3295088 0.08319511 7560530 male
-2.800736 0.6847214 -0.5399187 0.1173762 0.4486638 0.8859591 8674650 male
-2.891116 0.5055078 -0.4847371 -0.5732723 0.08812909 0.8146116 9664370 male
-2.841754 0.7721252 -0.5602726 -0.7807081 -0.07290936 0.620628 9529184 male
-2.949747 0.1023178 -0.4852644 -0.7653161 0.1716599 0.620342 4407875 male
-2.679637 -0.4463854 -0.5126492 0.1430688 0.912203 0.3839494 13279402 male
-2.640381 0.4669243 -0.7104668 -0.6807721 -0.3571298 -0.639537 9528936 male
-2.713775 0.01545408 -0.4950291 -0.04140065 -0.1600365 0.9862425 7040363 male
-2.819849 0.28105 -0.6750762 -0.0840416 0.2979661 -0.9508697 8489098 male
-2.861938 0.417996 -0.6823429 -0.2242348 -0.2513462 -0.9415646 11042678 male
-2.673731 0.3091954 -0.5622003 0.9434502 0.05971611 0.3260915 7889763 male
-2.692719 0.1603066 -0.5017158 0.4336869 0.2711089 0.8593112 7171957 male
-3.078714 0.285616 -0.4770077 -0.9364381 0.0249784 0.3499423 6113095 male
-2.894633 0.6141171 -0.7052458 -0.4411096 0.1112254 -0.8905342 10844523 male
-2.686358 0.4432052 -0.5207366 0.8586132 0.08996823 0.5046673 10980230 male
-2.962651 -0.185907 -0.5814286 -0.2161358 0.2333564 -0.9480665 7953235 male
-3.032394 0.2927223 -0.5270053 0.8549068 -0.4712745 -0.2168751 4992555 male
-2.874844 0.861578 -0.6000743 -0.2115505 0.4787814 0.852065 5647661 male
-2.68186 0.5979103 -0.6450853 -0.9511155 -0.2838381 0.1217174 6046266 male
-2.940178 0.1972892 -0.509479 -0.7084136 0.2589293 0.6565865 5856354 male
-2.947328 0.626909 -0.6459633 0.3070796 -0.4033445 -0.8619834 6372152 male
-2.658747 -0.2549477 -0.563368 0.5778348 -0.214312 0.7875133 6902352 male
-2.804104 0.2750107 -0.6781643 -0.07702439 0.2973936 -0.9516429 8685454 male
-2.795995 0.2044834 -0.6934208 -0.1329039 0.03036545 -0.9906636 9147030 male
-2.57479 0.3127872 -0.6161951 0.9642284 -0.2527067 -0.08001874 6769994 male
-2.738778 0.9115607 -0.667221 0.8454702 -0.005106913 -0.5339982 1050116 male
-2.840548 0.609849 -0.4937641 0.04061292 0.4502176 0.8919947 9400430 male
-2.874562 0.9220826 -0.6029965 -0.9817351 0.1516352 0.1149045 3614496 male
-2.648985 -0.2491738 -0.6305068 0.8387747 -0.07400484 -0.5394258 5521212 male
-2.638885 0.6488032 -0.6070026 0.4205134 0.03780002 0.9064986 11701637 male
-2.746326 0.01031367 -0.632296 -0.3545347 -0.1771543 -0.9181075 7887450 male
-2.831255 0.6270788 -0.504118 0.08815715 0.5181277 0.8507479 9137251 male
-2.668379 0.539609 -0.5775161 0.9758679 -0.007378314 0.2182371 7688782 male
-2.9196 0.6491343 -0.6766891 -0.6159539 0.1540399 -0.7725753 9332567 male
-2.731511 0.1136667 -0.4863184 -0.09010673 0.0167174 0.9957918 5724511 male
-2.9532 0.1838778 -0.5890865 -0.9491462 0.1092278 -0.295281 7500922 male
-2.677569 0.2187029 -0.5295743 0.6525645 0.1420647 0.7442964 6514027 male
-2.930918 0.6293848 -0.58761 -0.0691099 -0.8252921 0.5604613 7690326 male
-2.867824 0.9315698 -0.6524747 -0.9077559 0.2455312 -0.3401377 1642768 male
-2.932414 -0.05253591 -0.5741866 -0.2968965 -0.1671159 -0.9401727 8807781 male
-2.799459 0.527407 -0.4747894 0.1446825 0.3408734 0.9289092 10257018 male
-2.746884 0.7234225 -0.5904472 0.9025344 0.3008462 0.3080962 8149587 male
-2.996987 -0.4423944 -0.5729513 -0.8693727 -0.08122835 -0.4874352 7033170 male
-2.852996 -0.0007476452 -0.5755078 0.718389 -0.3827445 -0.580882 7164500 male
-2.691149 -0.4306726 -0.5626448 -0.8209725 0.4566999 0.3426797 11241361 male
-2.661937 -0.3064078 -0.6354855 0.7293758 -0.1592527 -0.6653191 5453876 male
-2.918021 0.7012585 -0.6301433 -0.6456265 0.7492486 -0.1476247 7821646 male
-2.827489 0.03667341 -0.5656366 0.8927274 -0.3331259 -0.3034218 5264469 male
-2.631451 -0.4715104 -0.5971878 0.4403286 -0.8013524 -0.4049013 3743770 male
-2.657309 0.4986258 -0.6731683 -0.9795576 -0.1654344 0.1144484 8805213 male
-2.764403 0.6087859 -0.5035651 -0.02704394 0.3904529 0.9202256 9532264 male
-2.702914 0.02727797 -0.4927036 0.1248102 -0.13937 0.9823433 6711406 male
-2.643778 -0.4563298 -0.6395503 0.9039252 0.003566375 -0.4276756 7031114 male
-2.931287 0.6463417 -0.5561552 0.03882136 -0.1548504 0.9871749 10322812 male
-2.999989 0.3968913 -0.5982265 0.88789 -0.4335412 -0.1539261 6705749 male
-2.928467 0.5179102 -0.5308958 -0.8553042 0.03431135 0.5169888 9664370 male
-2.793549 0.9285678 -0.7000178 0.1158102 0.2424465 -0.9632277 2037520 male
-2.67111 0.4440883 -0.6060376 0.9875852 -0.08376537 -0.1328864 9267560 male
-2.925195 0.6962403 -0.6255289 -0.6502654 0.7491451 -0.1262402 8347218 male
-2.66097 -0.3616616 -0.5991332 0.9706196 -0.1248101 0.2057182 7690839 male
-2.932992 0.4961905 -0.6451709 -0.8613207 -0.1938587 -0.4696226 9989994 male
-3.069935 0.287175 -0.4326682 0.04331791 0.7644269 0.6432534 7887713 male
-2.822698 0.9849653 -0.5817769 -0.376976 0.9015682 0.2122823 2693400 male
-2.981289 -0.2321835 -0.4980088 -0.5389943 -0.2067638 0.8165377 6113092 male
-2.868108 0.2402084 -0.4856656 -0.3717291 -0.06967784 0.9257227 6119263 male
-3.043521 0.5072271 -0.6092076 -0.9455581 0.311197 -0.09527005 6046267 male
-2.999126 0.3045535 -0.4534667 0.6364868 -0.7643498 -0.1032175 6902613 male
-2.997205 -0.2416079 -0.560877 -0.9134705 -0.05845162 -0.4026848 4863535 male
-2.658195 0.189077 -0.5989307 0.9609318 0.05382933 -0.2715005 7698815 male
-2.965412 -0.09119241 -0.5403395 -0.678822 0.1594221 -0.7167882 8083802 male
-2.898134 -0.08364487 -0.4667773 0.5821133 -0.2370791 0.7777773 5519420 male
-2.730802 0.8727826 -0.6325619 0.8266062 -0.2268993 0.5150136 2363921 male
-2.91879 0.3340629 -0.6380725 -0.7017875 -0.05759197 -0.7100545 8742244 male
-2.743278 0.7319104 -0.6363273 0.7240182 0.6753042 -0.1405767 9726820 male
-3.068273 0.2656028 -0.4238533 -0.4153031 -0.7653788 -0.4916489 1379340 male
-2.678953 0.1932564 -0.5232475 0.6443886 0.2469 0.7237428 6908011 male
-2.568474 0.2609484 -0.5449114 -0.513282 -0.6602444 -0.5482873 10120821 male
-2.725288 0.3452601 -0.4615129 0.6606976 -0.05561169 0.7485894 8282214 male
-2.687741 0.1021999 -0.4926517 0.4497649 0.07379594 0.8900931 6711405 male
-2.978298 -0.1107751 -0.4954271 -0.9484726 0.05571134 0.3119231 7361876 male
-2.650634 -0.3054914 -0.6068658 0.983071 -0.1826414 0.01461435 8085859 male
-2.738127 0.9139732 -0.5474502 0.911535 0.1753324 0.371971 8806234 male
-2.972254 -0.07846308 -0.5332426 -0.8664619 0.1162731 -0.4855144 8018776 male
-2.659585 -0.1394312 -0.5478561 0.9337997 -0.06131442 0.3525034 8281181 male
-2.944915 0.5352625 -0.5850022 -0.9605872 -0.05251177 0.272974 8411986 male
-2.688872 -0.2554713 -0.5605056 -0.1645843 -0.2094923 0.9638594 6902608 male
-2.648564 -0.4066828 -0.6062867 0.9901322 0.1196591 0.07293847 9927808 male
-3.009644 0.3035116 -0.4630646 -0.1272917 -0.9885335 -0.08123099 4272689 male
-2.904957 -0.244051 -0.5270096 0.8695408 -0.2394039 0.4319544 7164244 male
-2.595695 0.4164458 -0.7085314 0.3257681 -0.5123352 -0.7945991 6900296 male
-2.675673 0.3656972 -0.633985 0.8983711 0.1391272 -0.4166209 8082772 male
-2.785748 0.06903644 -0.5224183 -0.7800332 -0.1899774 0.5962019 5197907 male
-2.706847 0.178098 -0.6702875 0.6264608 -0.03109138 -0.7788326 6514027 male
-2.773467 0.9876917 -0.6185868 0.3942259 0.9131911 -0.1032861 4731947 male
-2.99154 0.5827132 -0.6241292 -0.700249 -0.02390715 -0.7134983 7360839 male
-2.780424 0.8818548 -0.6982648 0.3055096 -0.1947031 -0.9320701 1380621 male
-2.830093 0.8610283 -0.5095682 -0.4422489 0.1524389 0.8838428 8804690 male
-2.961394 -0.01942644 -0.555865 -0.8891345 -0.08612196 -0.4494697 8150619 male
-2.982782 -0.115884 -0.5082303 -0.9852895 0.116808 0.1247419 8085084 male
-2.876077 0.3070443 -0.4746256 -0.5733459 -0.1112874 0.8117201 6646120 male
-2.883023 0.5046845 -0.6932822 -0.4109083 -0.2250372 -0.8834662 9988451 male
-2.96996 -0.009209782 -0.5121186 -0.9836916 -0.09021332 0.1556034 8940649 male
-2.971454 -0.4568219 -0.557609 0.04590489 -0.9979467 -0.04466577 5457213 male
-2.837535 0.8646558 -0.6899915 -0.4640096 -0.2817786 -0.839819 2431508 male
-2.744037 0.8808209 -0.5370489 0.7590671 0.2543428 0.5992719 7885642 male
-2.783044 0.109905 -0.6518051 -0.5061939 -0.6120743 -0.6075631 6383469 male
-2.78352 0.2534989 -0.4596834 0.2288855 -0.1934772 0.9540325 8092798 male
-2.677406 -0.4696443 -0.6232292 -0.1641888 -0.9846212 0.05969221 4863801 male
-2.618061 0.3556581 -0.6139336 -0.9580613 0.0937193 0.2708051 9730427 male
-2.816844 0.07424632 -0.5742338 0.949609 -0.1836117 -0.2540263 6316904 male
-2.953492 -0.3188328 -0.5194375 0.2717396 -0.1655336 0.9480276 7690331 male
-2.80337 0.4612519 -0.6960558 -0.3109819 -0.2277039 -0.9227358 10582129 male
-2.835964 0.7301804 -0.5565594 -0.6370867 -0.06306845 0.7682076 10845555 male
-2.779034 0.02642752 -0.5327135 -0.8124361 -0.2495642 0.5269396 4998464 male
-3.003572 0.4381497 -0.6418308 0.3825792 -0.5895437 -0.7113869 8346718 male
