# .PCD v0.7 - Point Cloud Data file format
VERSION 0.7
FIELDS x y z normal_x normal_y normal_z rgb label
SIZE 4 4 4 4 4 4 4 4
TYPE F F F F F F U U
COUNT 1 1 1 1 1 1 1 1
WIDTH 132
HEIGHT 1
VIEWPOINT 0 0 0 1 0 0 0
POINTS 132
DATA ascii
-2.794492 0.4615237 0.5863523 -0.5239688 0.1446668 0.8393618 9598321 male
-2.883904 0.04546475 0.5315969 -0.9741339 0.02743354 0.2243 8687244 male
-2.707293 0.09669973 0.5461286 -0.8582751 -0.08582047 0.5059632 5393748 male
-2.874977 -0.0009188773 0.4843295 -0.8907762 -0.101919 -0.4428659 8216672 male
-2.779932 0.3336242 0.6049139 -0.5769269 -0.09711385 0.811002 8151396 male
-2.616116 -0.3852223 0.42405 -0.9015023 0.001948048 -0.43277 7162182 male
-2.83896 0.6939447 0.4135062 -0.5935931 0.7840216 -0.1815418 7756109 male
-2.846055 0.6042117 0.4899834 -0.8125808 -0.3735982 0.4473664 7034960 male
-2.734985 0.8528065 0.5384907 -0.5459206 0.2505168 0.7995074 6505023 male
-2.567234 0.2157647 0.501179 0.9891372 0.04913687 0.1385393 9936295 male
-2.837367 -0.3510242 0.4778647 0.9760239 -0.1068051 0.1896574 6637388 male
-2.653817 0.8277473 0.4346182 0.9357549 -0.3489034 -0.05127495 6897978 male
-2.643477 0.5679626 0.3386934 0.2245224 -0.241813 -0.9439895 10975861 male
-2.743906 0.3301959 0.6185571 -0.1169264 -0.1212344 0.9857132 9663859 male
-2.860316 0.2882506 0.4573867 -0.9496797 0.2775737 -0.1451249 9342869 male
-2.812923 -0.163014 0.4927465 0.9249968 0.1674104 -0.3411079 7032652 male
-2.685593 -0.05874163 0.4843735 -0.9546942 -0.06341217 -0.2907541 7556430 male
-2.924805 0.5757717 0.4445171 -0.9413721 0.3359196 -0.03125008 7560530 male
-2.696613 0.6410966 0.5354674 0.00518096 0.4817382 0.8762999 9400422 male
-2.828219 0.5046927 0.5461157 -0.7715713 0.06067739 0.6332425 9862261 male
-2.758567 0.7739704 0.4791431 -0.8572333 -0.04194989 0.5132167 9529184 male
-2.884368 0.07513179 0.5090514 -0.9993698 0.03458498 -0.007994013 6645352 male
-2.615176 -0.4559982 0.562298 0.1997226 0.8875331 0.4152058 15451336 male
-2.553679 0.556878 0.3934142 -0.1335805 -0.4207096 -0.8973069 10779249 male
-2.695652 -0.004307375 0.5095441 -0.9545925 -0.2236071 0.1968581 3942955 male
-2.689072 0.2690124 0.3817905 0.05109649 0.2853444 -0.957062 8093828 male
-2.763387 0.4153134 0.3696517 -0.1022811 -0.2801646 -0.9544875 11042678 male
-2.593037 0.3110145 0.5208322 0.8653858 0.05077349 0.4985274 10979209 male
-2.572338 0.1477524 0.5384259 0.9019557 0.09300403 0.4216943 9344927 male
-3.001008 0.3055409 0.5741776 -0.937105 0.1423389 0.3187066 5784132 male
-2.794516 0.599969 0.3350014 -0.3011787 -9.779709E-05 -0.9535677 10843499 male
-2.608054 0.4641265 0.5435131 0.8042148 0.1044949 0.5850807 10847876 male
-2.907624 -0.1951434 0.4836499 -0.9680073 0.1278858 -0.2158868 7362903 male
-2.95197 0.304104 0.526109 0.8690578 -0.4849108 -0.09797981 4992555 male
-2.793091 0.8561033 0.4271255 -0.1681777 0.5630253 0.809147 10445917 male
-2.585713 0.5812899 0.4373368 -0.9642815 -0.2563809 0.06655835 5454138 male
-2.856198 0.1735037 0.5478595 -0.7472487 0.2530575 0.6144764 5527382 male
-2.858768 0.6038491 0.3944167 0.3751469 -0.4039267 -0.8343309 4925730 male
-2.571362 -0.1947601 0.4375142 0.7107069 0.1923296 -0.6766868 7163467 male
-2.703834 0.2635338 0.3790289 0.03787018 0.274568 -0.9608216 9080728 male
-2.635679 0.1908444 0.3784932 0.4570133 -0.04772137 -0.8881787 7042170 male
-2.491096 0.3387324 0.4690805 0.7440592 -0.5047456 -0.4377302 7558481 male
-2.635726 0.9334165 0.4065561 0.9418927 0.2998068 -0.1515059 1248008 male
-2.739497 0.5284694 0.5810175 0.03071339 0.3552987 0.9342481 10060664 male
-2.783348 0.9224036 0.4262388 -0.9858471 0.1658152 -0.02471459 3614496 male
-2.592875 -0.2324119 0.4192229 0.2995457 0.01830913 -0.9539062 5190702 male
-2.567686 0.6461537 0.4693771 -0.01892965 0.008625682 0.9997836 11374212 male
-2.644674 0.05347821 0.4261732 3.967301E-05 -0.2151921 -0.9765718 9344671 male
-2.773513 0.6277919 0.5409613 -0.1703025 0.569162 0.8043953 9466218 male
-2.588853 0.6151114 0.4781839 0.6081246 -0.6295151 0.4836272 9269356 male
-2.823111 0.6453909 0.359457 -0.5189825 0.1203223 -0.846274 9332567 male
-2.667775 0.1214099 0.5796218 -0.2860283 -0.00498918 0.9582081 5724509 male
-2.76693 0.007879812 0.4575755 0.6359944 -0.3218344 -0.7013799 7495524 male
-2.64269 0.2429089 0.5708863 0.4529281 -0.1255071 0.8826688 7040371 male
-2.844934 0.6314825 0.4459323 -0.1450269 -0.793773 0.5906705 7690326 male
-2.769907 0.9295922 0.3777374 -0.8505515 0.2383184 -0.4687925 1642768 male
-2.814717 -0.1359371 0.4952289 0.7861425 0.06261808 -0.6148651 6836564 male
-2.696969 0.5195903 0.5847282 -0.004270553 0.3667081 0.9303262 9598833 male
-2.660725 0.7334374 0.449036 0.9526572 0.2513284 0.1711092 8215123 male
-2.878408 -0.4560518 0.4359792 -0.163775 -0.7396304 -0.6527822 4799546 male
-2.852586 0.1117048 0.438435 -0.7391409 -0.1701105 -0.6517155 6908529 male
-2.614338 -0.4158633 0.4829139 -0.87471 0.3508446 0.3343507 9464693 male
-2.568549 -0.3027223 0.4723583 0.9437392 -0.2107024 0.2548739 8085344 male
-2.844586 0.6788912 0.3967441 -0.7085478 0.5317609 -0.4638862 8872533 male
-2.737021 0.03718208 0.4873462 0.9285964 -0.3054956 -0.2106683 5264469 male
-2.542089 -0.4658202 0.4875824 0.9250546 -0.1142821 -0.3622341 3943212 male
-2.551501 0.4900336 0.4103679 -0.9445238 0.001606896 0.3284391 8413789 male
-2.692218 0.6836849 0.5074966 0.1407123 0.5096887 0.8487741 8479577 male
-2.637795 0.03736858 0.5776792 -0.1578544 -0.1411726 0.9773189 7302769 male
-2.558662 -0.4544032 0.4318827 0.9595862 -0.008489769 -0.2812866 7032145 male
-2.843792 0.6457149 0.4659325 0.5436067 -0.2826347 0.7903224 8611174 male
-2.914684 0.4004178 0.4467687 0.8974572 -0.4393541 -0.0392259 6705749 male
-2.832273 0.5122973 0.5400481 -0.7948681 0.06003569 0.6038049 10059640 male
-2.69 0.9237552 0.3407719 0.2472217 0.197695 -0.9485769 2037520 male
-2.590609 0.4736962 0.4176073 0.9030959 -0.2591712 -0.3424151 10055280 male
-2.858956 0.6312975 0.3783351 -0.4898922 0.02376039 -0.8714592 9989479 male
-2.578498 -0.3400342 0.4796836 0.8147404 -0.2352835 0.5299431 6178374 male
-2.838279 0.4974423 0.3913851 -0.7757017 -0.2128949 -0.5941066 10252138 male
-3.001333 0.3074257 0.5944304 -0.9365636 -0.2389328 0.2564365 4335657 male
-2.733822 0.9857012 0.4515026 -0.3880025 0.9137064 0.1208086 2693400 male
-2.90456 -0.2582518 0.471942 -0.9543052 -0.1009445 -0.2812684 5324345 male
-2.790712 0.2390467 0.5667903 -0.4767388 -0.08463966 0.8749608 6119263 male
-2.956827 0.5087726 0.4227763 -0.9333001 0.2968614 -0.2020501 6046267 male
-2.922776 0.3271644 0.5963615 0.9684504 -0.2129004 -0.129527 5783106 male
-2.904287 -0.2603652 0.4972183 -0.9612319 -0.1713112 0.2160688 6114124 male
-2.572456 0.2189779 0.4595192 0.9450492 -0.01414541 -0.3266219 7239551 male
-2.878825 -0.09136369 0.4943885 -0.7248087 0.1529689 -0.6717535 8544865 male
-2.801564 -0.1059512 0.5526434 0.7009211 -0.3323366 0.63108 6571594 male
-2.636006 0.8845715 0.407561 0.9646611 -0.1811968 -0.1913027 919042 male
-2.824093 0.3324372 0.4086624 -0.6089218 -0.07450312 -0.7897236 8742244 male
-2.652111 0.7307156 0.4081718 0.6401437 0.7079563 -0.2983521 7030849 male
-2.993827 0.2889566 0.626072 0.291696 -0.7780603 -0.5563592 5849667 male
-2.563211 0.1499903 0.4984875 0.9983458 0.05398164 0.01979088 9474712 male
-2.499302 0.266817 0.5742394 -0.7721673 -0.3271059 -0.5447564 7293005 male
-2.690924 0.3922867 0.6192918 0.09358881 0.09791037 0.9907849 8940655 male
-2.68307 0.1161865 0.5736679 -0.496047 -0.04951488 0.8668827 4933451 male
-2.882561 -0.1054561 0.5433124 -0.9482061 0.05579419 0.3127173 6966606 male
-2.582503 -0.3491914 0.4334547 0.8150513 -0.1406614 -0.5620549 5917002 male
-2.663172 0.9244868 0.5067744 0.724125 0.3242996 0.6086648 8148563 male
-2.880439 -0.08220796 0.4963984 -0.8115458 0.1197196 -0.571892 8018776 male
-2.595753 -0.122489 0.5501806 0.6889666 -0.1777234 0.7026659 7096907 male
-2.855437 0.5350837 0.4831209 -0.9625074 0.05470533 0.2656819 6507590 male
-2.586594 -0.3862577 0.4205025 0.5837734 -0.07049324 -0.8088506 5061179 male
-2.575049 -0.4044212 0.4807404 0.7798527 0.3969705 0.4839877 8808554 male
-2.92973 0.322679 0.5851578 0.4673463 -0.8706067 -0.1537258 6638156 male
-2.817913 -0.2518337 0.5107542 0.7227331 -0.2524348 0.6433766 6769742 male
-2.50521 0.4288451 0.3755687 0.1233862 -0.5981084 -0.79186 7557458 male
-2.619814 0.3810573 0.3950593 0.6020157 -0.0266917 -0.7980381 8806236 male
-2.666272 0.09021282 0.5766693 -0.3747562 -0.106433 0.9209939 6249823 male
-2.596722 0.3948632 0.537635 0.8621405 0.00855285 0.506597 12755617 male
-2.660336 0.9674689 0.3907407 0.629519 0.7171214 -0.2990699 1313800 male
-2.901962 0.5839177 0.4084911 -0.6302707 -0.07769239 -0.7724784 7360839 male
-2.677923 0.8770542 0.3463002 0.4243382 -0.2390315 -0.8733848 1380621 male
-2.744761 0.8460152 0.5329445 -0.4309735 -0.02438391 0.9020351 7360071 male
-2.822365 -0.05911118 0.4634319 0.1720886 -0.1878977 -0.9669954 9730419 male
-2.897746 -0.1471621 0.4960001 -0.9265901 0.2878851 -0.2419771 9136741 male
-2.795237 0.2832929 0.5737262 -0.5702575 -0.1226935 0.8122516 6644838 male
-2.78392 0.5011383 0.3529366 -0.2951358 -0.2587224 -0.9197596 9988451 male
-2.882128 -0.01062946 0.5093744 -0.9844373 -0.1055517 -0.1405064 7361103 male
-2.876848 -0.4598772 0.4499862 0.01165402 -0.9846777 -0.1739942 5720647 male
-2.735899 0.8608042 0.3475974 -0.3519866 -0.3145989 -0.8815514 2431508 male
-2.672584 0.8806038 0.5189387 0.4882866 0.2622134 0.8323583 8608087 male
-2.696015 0.1024528 0.4292385 -0.645642 -0.4244159 -0.6348366 6514027 male
-2.712531 0.1874444 0.5987254 0.1932343 -0.04147499 0.9802756 7039857 male
-2.602605 -0.46413 0.4183148 -0.5187073 -0.8184855 -0.2470309 2632231 male
-2.525137 0.3788211 0.4201816 -0.5627894 -0.6272632 -0.5383391 10715522 male
-2.732738 0.04347006 0.504063 0.9717755 -0.2316997 0.04435859 3026479 male
-2.849329 -0.2860498 0.5153507 0.2823364 -0.2695605 0.9206646 7097670 male
-2.635223 0.3284043 0.3958654 0.3242306 -0.2012429 -0.9243246 8542296 male
-2.63055 0.65953 0.497058 0.3542489 0.5514219 0.7552759 9334629 male
-2.648574 0.0394632 0.5754351 -0.3198829 -0.141966 0.9367607 7105644 male
-2.899232 0.5395968 0.4116675 -0.04176265 -0.3570031 -0.9331691 9332061 male
