# .PCD v0.7 - Point Cloud Data file format
VERSION 0.7
FIELDS x y z normal_x normal_y normal_z rgb label
SIZE 4 4 4 4 4 4 4 4
TYPE F F F F F F U U
COUNT 1 1 1 1 1 1 1 1
WIDTH 132
HEIGHT 1
VIEWPOINT 0 0 0 1 0 0 0
POINTS 132
DATA ascii
-2.864813 0.4789596 -0.4652615 -0.3779368 0.169132 0.9102517 10388349 male
-2.962053 0.04271333 -0.4903076 -0.8522465 0.04745873 0.5209834 5331545 male
-2.724601 0.10482 -0.4853451 -0.06731021 -0.003981364 0.9977242 6316901 male
-2.96502 -0.004887809 -0.5485548 -0.9430518 -0.09726499 -0.3181084 8281948 male
-2.850348 0.3289791 -0.4481105 -0.4703602 -0.117395 0.8746312 8479336 male
-2.710138 -0.3629813 -0.6330355 -0.9490457 -0.1205213 -0.2911817 6964289 male
-2.905077 0.7046219 -0.6475405 -0.6134636 0.63714 -0.4665993 7492681 male
-2.891272 0.5978917 -0.5044175 -0.4528938 0.2558752 0.854058 10782074 male
-2.808529 0.8359247 -0.5017998 -0.4789661 -0.01376859 0.8777254 5911601 male
-2.662627 0.1627388 -0.6141611 0.9041935 0.03519034 -0.4256708 7040371 male
-2.931515 -0.3545106 -0.5470119 0.976546 0.01040311 0.2150573 7097939 male
-2.744052 0.8125272 -0.5960022 0.9516121 -0.3040173 -0.04480997 7160636 male
-2.736112 0.5669523 -0.7191588 0.1893143 -0.2421844 -0.9515812 10975605 male
-2.805279 0.3092472 -0.4420506 0.01899701 -0.1698661 0.985284 9269620 male
-2.948651 0.289423 -0.585573 -0.9563705 0.2904194 -0.03181207 9342869 male
-2.922249 -0.07543145 -0.5656871 0.09705191 -0.1797788 -0.9789078 9203051 male
-2.759093 -0.04853181 -0.6052743 -0.740916 -0.1293103 -0.6590314 9005159 male
-3.009874 0.5715526 -0.5871687 -0.9412555 0.327886 0.08080229 7560530 male
-2.800002 0.6843925 -0.5390139 0.1157415 0.4470135 0.8870078 8674650 male
-2.890637 0.5052158 -0.484316 -0.5751188 0.08770268 0.8133552 9664370 male
-2.840889 0.7718623 -0.5592935 -0.7819461 -0.07334585 0.6190158 9529184 male
-2.949289 0.1018053 -0.4856074 -0.767202 0.1697062 0.6185475 4407875 male
-2.67917 -0.446578 -0.5120034 0.1420328 0.9126437 0.3832861 13279402 male
-2.639748 0.4669274 -0.7100552 -0.6816162 -0.3549376 -0.6398583 9528936 male
-2.713439 0.01513989 -0.4946093 -0.04437221 -0.1604767 0.9860418 7040363 male
-2.818958 0.2809044 -0.6747297 -0.08145681 0.299079 -0.9507453 8489098 male
-2.861039 0.4178676 -0.6819383 -0.2220691 -0.2503107 -0.9423534 11042678 male
-2.673147 0.3089149 -0.5614256 0.9425864 0.05931485 0.3286526 7889763 male
-2.692293 0.1599764 -0.5011612 0.4312587 0.2703152 0.860782 7171957 male
-3.075835 0.2880976 -0.4777908 -0.9105828 0.1075775 0.3990815 5784132 male
-2.893528 0.6141808 -0.7046854 -0.4386211 0.1132618 -0.8915062 10844523 male
-2.685833 0.4428317 -0.5198928 0.8574696 0.08909082 0.506763 10980230 male
-2.96167 -0.1867889 -0.5824598 -0.2141533 0.2304002 -0.9492387 7953235 male
-3.031457 0.2922153 -0.5291219 0.8562597 -0.4691934 -0.2160482 4992555 male
-2.873811 0.854969 -0.5949143 -0.6797866 0.4507995 0.5785067 8080459 male
-2.68224 0.6107578 -0.6455384 -0.9546945 -0.2827065 0.09292706 6177596 male
-2.939735 0.1968731 -0.5096427 -0.7104217 0.2573932 0.6550189 5856354 male
-2.948195 0.6200644 -0.6451551 0.2675527 -0.3387333 -0.9020395 6241594 male
-2.658288 -0.2552567 -0.5628629 0.5755256 -0.2133396 0.789466 6902352 male
-2.803203 0.2748696 -0.6777824 -0.07442865 0.2984964 -0.9515042 8685454 male
-2.795037 0.2043677 -0.693096 -0.1301399 0.03154529 -0.9909937 9147030 male
-2.574096 0.3124733 -0.6163303 0.9640753 -0.2525678 -0.0822697 6769994 male
-2.737577 0.9113902 -0.6657926 0.8465297 -0.004959193 -0.5323185 1050116 male
-2.830277 0.6073413 -0.4927883 0.1549344 0.4105289 0.8985885 9203051 male
-2.873479 0.9219248 -0.6018193 -0.9818274 0.1523057 0.1132166 3614496 male
-2.648328 -0.2495474 -0.6299776 0.840405 -0.07429146 -0.5368428 5521212 male
-2.637977 0.6485116 -0.605993 0.4210127 0.03476129 0.9063884 11701637 male
-2.745582 0.01007826 -0.6319807 -0.3518678 -0.1766136 -0.919237 7887450 male
-2.830644 0.6267152 -0.5033852 0.08659461 0.5166572 0.8518021 9137251 male
-2.667662 0.5392593 -0.5765665 0.9753882 -0.008234559 0.2203409 7688782 male
-2.918448 0.649214 -0.6762003 -0.6128349 0.1564921 -0.7745603 9332567 male
-2.73115 0.1133433 -0.4859039 -0.09304035 0.01607981 0.9955325 5724511 male
-2.952533 0.1835768 -0.5892746 -0.9483967 0.1091384 -0.2977119 7500922 male
-2.677057 0.2183975 -0.5289299 0.650461 0.1414002 0.7462616 6514027 male
-2.930112 0.6293315 -0.5871429 -0.07082693 -0.8268434 0.5579549 7690326 male
-2.866634 0.9314899 -0.6512684 -0.9068605 0.2469246 -0.3415147 1642768 male
-2.931513 -0.05293165 -0.5749224 -0.2941325 -0.16639 -0.9411697 8807781 male
-2.798985 0.5270379 -0.474135 0.1427833 0.3398128 0.9295914 10257018 male
-2.746005 0.7231365 -0.5893701 0.902209 0.2995327 0.3103208 8149587 male
-2.997927 -0.4459462 -0.5677749 -0.8647102 -0.2311064 -0.4459441 6901584 male
-2.939243 0.09410643 -0.6084776 -0.7055898 -0.228561 -0.6707481 6579052 male
-2.690603 -0.4309602 -0.5621206 -0.8219818 0.4569905 0.3398612 11241361 male
-2.661247 -0.3067908 -0.6349386 0.7313974 -0.1597222 -0.6629831 5453876 male
-2.917027 0.7012023 -0.6295096 -0.644726 0.7499048 -0.1482273 7821646 male
-2.826753 0.03643253 -0.5657195 0.8939248 -0.331614 -0.301547 5264469 male
-2.630806 -0.4718353 -0.5964692 0.4415517 -0.8018441 -0.4025893 3743770 male
-2.656605 0.4985328 -0.6726433 -0.9795291 -0.1652602 0.1149424 8805213 male
-2.7638 0.6083783 -0.5027215 -0.02869714 0.3889865 0.9207964 9532264 male
-2.702581 0.02695758 -0.492244 0.1218514 -0.1398828 0.9826419 6711406 male
-2.643034 -0.4567271 -0.6388873 0.9050283 0.00314405 -0.4253396 7031114 male
-2.930613 0.6461373 -0.5556926 0.03500955 -0.1584604 0.9867445 10322812 male
-2.998818 0.3968304 -0.5995808 0.8888366 -0.4319802 -0.152848 6705749 male
-2.927869 0.5176793 -0.5305573 -0.8564831 0.03427806 0.5150356 9664370 male
-2.792267 0.9285022 -0.6986685 0.1179442 0.243969 -0.9625841 2037520 male
-2.670383 0.44379 -0.6051595 0.9878539 -0.0841018 -0.1306575 9267560 male
-2.903743 0.6886437 -0.6649224 -0.5430377 0.5574428 -0.6279869 8082762 male
-2.66037 -0.3620083 -0.5985402 0.9700469 -0.1242929 0.2087107 7690839 male
-2.932143 0.4960888 -0.6448651 -0.8603371 -0.1927807 -0.4718639 9989994 male
-3.07101 0.2861778 -0.4355641 -0.1986891 0.7060533 0.6797142 7296089 male
-2.8216 0.9847238 -0.5803915 -0.3766347 0.9015335 0.2130342 2693400 male
-2.980489 -0.2328074 -0.4989244 -0.540664 -0.2039938 0.8161304 6113092 male
-2.867751 0.2398207 -0.48551 -0.3742797 -0.07103609 0.9245911 6119263 male
-3.042412 0.507204 -0.6100951 -0.945444 0.3108357 -0.09755353 6046267 male
-2.998508 0.3036503 -0.4553776 0.6376712 -0.7631164 -0.1050186 6902613 male
-2.996279 -0.2424345 -0.5617954 -0.9126776 -0.05961418 -0.404309 4863535 male
-2.657486 0.1888238 -0.5982619 0.9617014 0.05389851 -0.2687477 7698815 male
-2.964533 -0.0917556 -0.5414144 -0.6770615 0.1585724 -0.7186393 8083802 male
-2.897478 -0.08411827 -0.4675147 0.5801823 -0.237061 0.7792243 5519420 male
-2.729352 0.880374 -0.6361979 0.9480972 -0.1830807 -0.2599868 722178 male
-2.918008 0.3338801 -0.6379198 -0.6998678 -0.05672927 -0.712016 8742244 male
-2.742307 0.7317087 -0.6352289 0.7247997 0.6749806 -0.1380817 9726820 male
-3.067398 0.2671193 -0.430281 -0.1523297 -0.7993523 -0.5812327 3548711 male
-2.678454 0.1929411 -0.5226254 0.6423514 0.2461724 0.7257987 6908011 male
-2.565635 0.2574518 -0.5416746 -0.4166049 -0.6841285 -0.5986723 8607066 male
-2.724962 0.3448591 -0.4608438 0.6587566 -0.05654841 0.750228 8282214 male
-2.687369 0.1018663 -0.4921089 0.44714 0.07308222 0.8914734 6711405 male
-2.977512 -0.1113261 -0.4965502 -0.9491335 0.05580863 0.3098886 7361876 male
-2.650029 -0.3058419 -0.6062856 0.9830768 -0.1823318 0.01775093 8085859 male
-2.750537 0.9269142 -0.531945 0.6890646 0.3560511 0.6312034 8674650 male
-2.971416 -0.07898574 -0.5342491 -0.8653022 0.1156962 -0.4877156 8018776 male
-2.659191 -0.1397248 -0.5474314 0.932737 -0.06098608 0.3553624 8281181 male
-2.94418 0.5351107 -0.5846875 -0.96126 -0.05231274 0.2706336 8411986 male
-2.688421 -0.255787 -0.560091 -0.1674113 -0.2085562 0.9635755 6902608 male
-2.647921 -0.4070243 -0.6056536 0.9898927 0.1200289 0.07553462 9927808 male
-3.001297 0.3115321 -0.4716768 0.9451415 0.1581205 -0.2858418 6702923 male
-2.904101 -0.2447831 -0.5277375 0.8686313 -0.2381443 0.4344732 7164244 male
-2.595087 0.41642 -0.7083262 0.3246237 -0.5099859 -0.7965763 6900296 male
-2.674902 0.3654704 -0.633168 0.8994594 0.1393577 -0.4141887 8082772 male
-2.7853 0.06875715 -0.5221884 -0.7818642 -0.1900168 0.593786 5197907 male
-2.705946 0.177944 -0.6697565 0.6286092 -0.03024211 -0.7771331 6514027 male
-2.772293 0.9874701 -0.6170974 0.3952165 0.9130216 -0.1009729 4731947 male
-2.990469 0.5828279 -0.6243653 -0.6970196 -0.02074899 -0.7167519 7360839 male
-2.779187 0.8817738 -0.6969696 0.3071772 -0.1934047 -0.9317923 1380621 male
-2.829249 0.8606722 -0.5084077 -0.4438979 0.151304 0.883211 8804690 male
-2.960594 -0.01984188 -0.5565242 -0.8877858 -0.08631985 -0.4520899 8150619 male
-2.981959 -0.1164695 -0.5093942 -0.9855748 0.1167728 0.1225011 8085084 male
-2.875737 0.3066646 -0.4743901 -0.5755086 -0.1121778 0.8100654 6646120 male
-2.882063 0.5046043 -0.6928465 -0.4090158 -0.2237877 -0.884661 9988451 male
-2.969299 -0.009705048 -0.5127448 -0.9840174 -0.09155158 0.1527357 8940649 male
-2.97555 -0.4586662 -0.5487255 0.0568829 -0.9979888 -0.02797809 4931382 male
-2.83633 0.8646127 -0.6888379 -0.4625844 -0.2799439 -0.8412176 2431508 male
-2.736719 0.8766326 -0.5419741 0.8447441 0.2058464 0.4939986 8475471 male
-2.782188 0.1097273 -0.6515547 -0.5044543 -0.6115032 -0.6095816 6383469 male
-2.783217 0.253102 -0.4592681 0.226235 -0.1945892 0.9544384 8092798 male
-2.676702 -0.4700267 -0.6226425 -0.1640777 -0.9845718 0.06080251 4863801 male
-2.617336 0.3553494 -0.6138781 -0.957655 0.09305365 0.2724665 9730427 male
-2.816136 0.07402965 -0.5741858 0.9504854 -0.1822655 -0.2517077 6316904 male
-2.952668 -0.3195342 -0.5199848 0.2697678 -0.1624703 0.94912 7690331 male
-2.802424 0.4611171 -0.6954727 -0.308933 -0.2265969 -0.923696 10582129 male
-2.835152 0.7299052 -0.5556509 -0.6387202 -0.06391033 0.7667803 10845555 male
-2.778578 0.02615485 -0.5324854 -0.8141057 -0.2495099 0.5243821 4998464 male
-3.002254 0.4383493 -0.6429517 0.3859931 -0.585023 -0.7132723 8346718 male
