# .PCD v0.7 - Point Cloud Data file format
VERSION 0.7
FIELDS x y z normal_x normal_y normal_z rgb label
SIZE 4 4 4 4 4 4 4 4
TYPE F F F F F F U U
COUNT 1 1 1 1 1 1 1 1
WIDTH 132
HEIGHT 1
VIEWPOINT 0 0 0 1 0 0 0
POINTS 132
DATA ascii
-2.796634 0.4420861 0.5838094 -0.5048395 0.1089948 0.8563044 9597809 male
-2.786309 -0.09329952 0.5240966 0.9601639 -0.2104892 0.1837923 6506826 male
-2.684691 0.1073916 0.5651976 -0.3346274 -0.07477017 0.9393796 5526868 male
-2.885581 -0.03244984 0.494506 -0.9426175 -0.07886805 -0.3244256 7690583 male
-2.792306 0.4613661 0.5834392 -0.4411844 0.1539999 0.8841043 9401455 male
-2.652121 -0.3640865 0.3987693 -0.7917236 0.005528579 -0.6108544 6503481 male
-2.836008 0.6985848 0.4137089 -0.5952734 0.787213 -0.1610755 8281682 male
-2.843238 0.6189429 0.494372 -0.6386209 -0.3492166 0.6857194 9927542 male
-2.725413 0.7955788 0.5485159 -0.304859 -0.6070697 0.7338442 6638404 male
-2.582266 0.1855904 0.4561407 0.960472 0.02608691 -0.2771514 7237750 male
-2.863373 -0.3368286 0.5077318 0.4594654 -0.09382601 0.8832261 9136234 male
-2.652809 0.829371 0.4341603 0.9074808 -0.4049834 -0.1116555 7226940 male
-2.633295 0.6678239 0.3545744 0.4295114 0.4005133 -0.809388 7295302 male
-2.74785 0.4770382 0.5916011 -0.03929423 0.2894251 0.9563938 10059640 male
-2.864605 0.2714792 0.5110897 -0.7908041 0.3314106 0.5145832 8224901 male
-2.859075 -0.06098745 0.4679617 -0.4774756 -0.1147671 -0.8711174 8413535 male
-2.697677 -0.05886118 0.454575 -0.8187146 -0.03952012 -0.572839 8609373 male
-2.926285 0.575202 0.4507892 -0.9510875 0.3037738 0.05616112 7560530 male
-2.697594 0.6271803 0.53649 0.01267122 0.422245 0.9063932 9729387 male
-2.838486 0.483047 0.5354272 -0.7886693 0.03967797 0.6135359 9730675 male
-2.765128 0.7798354 0.4770172 -0.9153686 -0.0958387 0.3910437 8805204 male
-2.894228 0.07178244 0.5116021 -0.9973469 0.02530727 0.06825495 6645352 male
-2.640476 -0.4614877 0.5316049 0.228346 0.8826201 0.4109013 15451336 male
-2.544557 0.4662461 0.3670756 -0.5007436 -0.3112148 -0.8077135 8738908 male
-2.68406 0.01734919 0.5459974 -0.5784933 -0.1729932 0.7971317 6052442 male
-2.630907 0.2318206 0.379135 0.5370671 0.06212306 -0.8412489 7566459 male
-2.804159 0.4771306 0.3580364 -0.4179087 -0.2345401 -0.877692 9660514 male
-2.601235 0.3044373 0.5055454 0.8897109 0.03012528 0.4555293 10979209 male
-2.582894 0.1401289 0.5217414 0.9243467 0.06331424 0.3762639 9344927 male
-2.94869 0.3289855 0.5813729 -0.5036112 0.6564766 0.5616175 6309194 male
-2.799461 0.630601 0.3376084 -0.3574518 0.2298709 -0.9052002 10186850 male
-2.603536 0.4726742 0.5115114 0.8978103 0.0574319 0.4366212 10649464 male
-2.908355 -0.1936859 0.471446 -0.8190153 0.1986066 -0.5383024 6112060 male
-2.932132 0.3186215 0.5235149 0.7823438 -0.3543535 -0.5122223 5058348 male
-2.787225 0.8762239 0.4463888 -0.06890521 -0.4110409 0.909009 8410447 male
-2.586434 0.5536273 0.4363968 -0.9562582 -0.1524567 0.2496542 8873574 male
-2.864443 0.1710174 0.5470077 -0.7032386 0.253558 0.6642017 5527382 male
-2.885016 0.504423 0.4222517 0.8009165 -0.3554222 -0.4818795 8941415 male
-2.581995 -0.2457905 0.443844 0.9910209 -0.1109721 -0.07458393 7295569 male
-2.665882 0.2430407 0.3674462 0.165776 0.2240163 -0.9603828 7962758 male
-2.680097 0.1748192 0.3587363 0.09875234 -0.1087698 -0.9891497 8818838 male
-2.511199 0.3227505 0.4696997 0.7548316 -0.5388576 -0.3739811 7097931 male
-2.635735 0.9312096 0.4211673 0.94187 0.2943098 -0.1620577 1248008 male
-2.726041 0.5174252 0.575102 0.04669418 0.3552136 0.9336182 9993591 male
-2.782793 0.9212489 0.4451773 -0.982575 0.184463 0.02279725 3614496 male
-2.616976 -0.2379454 0.3980667 0.3261092 0.02842987 -0.9449045 4860969 male
-2.572302 0.6356861 0.4622177 -0.03959638 0.001824401 0.9992141 12162700 male
-2.672881 0.008094947 0.4203369 -0.2891675 -0.1423856 -0.9466301 7887450 male
-2.676439 0.4691775 0.5891792 0.2633195 0.2531613 0.9308986 9466735 male
-2.590501 0.5337412 0.4827669 0.9509665 -0.02709984 0.3081042 7688782 male
-2.828022 0.6614894 0.3651463 -0.552728 0.3143947 -0.7717821 9529945 male
-2.676698 0.1155114 0.5671131 -0.238365 -0.014798 0.9710629 5724509 male
-2.780405 0.005174956 0.4518779 0.5837641 -0.3226735 -0.7450513 7495524 male
-2.643401 0.2188194 0.552143 0.4264507 -0.008115049 0.9044744 7369338 male
-2.845227 0.6348754 0.4587542 0.8767865 -0.3917561 0.2788774 6705486 male
-2.770883 0.9318784 0.3969118 -0.8612872 0.2876187 -0.4188792 1642768 male
-2.832926 -0.08541977 0.4750206 0.2547147 -0.1773312 -0.9506177 9203566 male
-2.616993 0.4854765 0.5343676 0.8122664 0.03653843 0.582141 10651009 male
-2.658696 0.7134555 0.4603955 0.7976493 0.4410203 0.4114083 8675930 male
-2.86428 -0.4622053 0.4584528 0.2197247 -0.9695103 -0.1084941 5127737 male
-2.868195 0.1085052 0.4378941 -0.7833723 -0.1771758 -0.5957655 6908529 male
-2.644653 -0.4288838 0.4626343 -0.8103823 0.4714286 0.3479017 8674667 male
-2.593969 -0.2996826 0.4519958 0.9331152 -0.2383826 0.2692021 7756637 male
-2.848579 0.6877126 0.4113744 -0.673646 0.6865565 -0.2735713 7952202 male
-2.755935 0.03739214 0.4604611 0.787634 -0.3315342 -0.5193435 5002324 male
-2.572081 -0.4745085 0.4653112 0.6797752 -0.6351626 -0.3667071 5389369 male
-2.566115 0.4905099 0.3953 -0.9938804 -0.09963872 -0.04768556 8805212 male
-2.693681 0.6772385 0.5075263 0.1789225 0.4626738 0.8682855 8479577 male
-2.649433 0.03049079 0.5622966 -0.1129677 -0.1540347 0.9815863 7302769 male
-2.604381 -0.435112 0.389395 0.8625113 0.1340149 -0.4879695 7229782 male
-2.846704 0.6412815 0.4684032 0.6762847 -0.2638665 0.6877598 8874342 male
-2.910743 0.3990732 0.4544834 0.9779983 -0.2042788 0.042302 6706519 male
-2.83165 0.5182319 0.5403779 -0.7300681 0.08729326 0.677776 10060414 male
-2.692407 0.9275036 0.3568144 0.2187665 0.2649897 -0.9391069 2037520 male
-2.609486 0.4733807 0.3846773 0.7626892 -0.2770678 -0.5844131 10252659 male
-2.85675 0.6369099 0.379835 -0.6079192 0.1027541 -0.7873219 9135194 male
-2.610458 -0.3111516 0.4704349 0.5185769 -0.2880826 0.8050382 5981507 male
-2.861261 0.4529344 0.4296407 -0.9496294 -0.1670163 -0.2651596 9529696 male
-2.9696 0.3121049 0.6356308 -0.4994599 0.5830457 0.640779 6178379 male
-2.73118 0.9815962 0.4733612 -0.3654281 0.9084594 0.2028886 2693400 male
-2.911574 -0.2662406 0.4996385 -0.9582083 -0.1829189 0.2199489 6048330 male
-2.781805 0.1847349 0.569059 -0.258974 0.1245849 0.9578158 6578788 male
-2.966862 0.4916564 0.421424 -0.9687458 0.2480547 0.0007550622 5783095 male
-2.905619 0.3314506 0.6026108 -0.2083825 -0.9357964 0.2843621 4798521 male
-2.908836 -0.260268 0.5126848 -0.884896 -0.1982599 0.421488 7035226 male
-2.580755 0.2000919 0.4627166 0.9779246 0.007135971 -0.2088362 6908785 male
-2.890988 -0.06909571 0.5114799 -0.9917 0.06565638 -0.1105455 8478816 male
-2.884922 -0.01938177 0.5430647 -0.8887588 -0.1499992 0.4331373 6245199 male
-2.63563 0.8792965 0.4310225 0.8984411 -0.3905682 0.200649 2102031 male
-2.85983 0.3181547 0.4397576 -0.9384589 0.1887664 -0.2892442 6315872 male
-2.669576 0.7110437 0.3781871 0.208187 0.6308467 -0.7474561 7032644 male
-2.968392 0.3030833 0.6285163 -0.2033832 -0.9192609 -0.3370381 5918030 male
-2.575887 0.1427739 0.4814427 0.9991376 0.02832829 -0.03035472 9474712 male
-2.533769 0.2570126 0.5828179 -0.6083798 -0.4042268 -0.6829897 7491409 male
-2.680489 0.3566287 0.6078474 0.3057943 0.03597372 0.9514177 9268852 male
-2.710855 0.100293 0.5473551 -0.7300277 -0.03361523 0.6825903 5066578 male
-2.894335 -0.1000153 0.533385 -0.9577564 0.03846314 0.284997 6309701 male
-2.620876 -0.3518041 0.3981798 0.4753832 -0.08307886 -0.8758474 5389630 male
-2.670376 0.9215659 0.5287135 0.5840879 0.3308495 0.7412017 8674650 male
-2.869872 -0.07294195 0.4799559 -0.6305429 -0.02726814 -0.7756752 7821910 male
-2.63394 -0.1155481 0.5450261 0.2079147 -0.2310308 0.9504716 5716798 male
-2.853042 0.5408439 0.5004964 -0.915572 0.06111856 0.3974825 7887960 male
-2.629815 -0.3883853 0.3846177 0.2680117 0.05826921 -0.961652 5389113 male
-2.603296 -0.4054827 0.4430998 0.9021555 0.1737435 0.3948781 9269620 male
-2.900777 0.3348809 0.5856671 0.8529924 -0.3964936 -0.3394066 7229008 male
-2.830475 -0.3005596 0.4806854 0.9679585 -0.2310894 -0.09825568 5454130 male
-2.514113 0.3881494 0.3849056 0.1998239 -0.6913462 -0.6943421 7361107 male
-2.632361 0.3758751 0.3818478 0.5662701 -0.03098071 -0.8236372 8806236 male
-2.616258 0.07784119 0.5636244 0.433739 -0.02447209 0.9007061 7565941 male
-2.60635 0.4035468 0.5297488 0.8610122 -0.0004168962 0.5085841 11769234 male
-2.66018 0.9667835 0.408847 0.633222 0.7267631 -0.2661679 1313800 male
-2.908394 0.6159563 0.4148118 -0.8121682 -0.1030001 -0.5742593 7887439 male
-2.671273 0.8678988 0.3681116 0.5523124 -0.3030754 -0.7765928 1379853 male
-2.742634 0.862517 0.5424026 -0.3322518 0.2672937 0.9045236 8738386 male
-2.811587 -0.1310261 0.5067685 0.8247456 -0.1759503 -0.5374348 5455423 male
-2.902537 -0.1373951 0.5049415 -0.9424083 0.2645395 -0.2046589 8545889 male
-2.815763 0.3131458 0.5627252 -0.6849054 -0.06523123 0.7257062 6773851 male
-2.773264 0.492526 0.3445207 -0.1051519 -0.2391533 -0.9652714 10975857 male
-2.891407 -0.008185203 0.5116087 -0.9912887 -0.1081453 -0.07517532 7624531 male
-2.882673 -0.4629325 0.4527741 -0.002281084 -0.9873425 -0.1585862 5786440 male
-2.739304 0.8649678 0.3604173 -0.3877939 -0.240698 -0.8897642 2431508 male
-2.665262 0.8721619 0.5267907 0.6295443 0.1666763 0.7588761 8082770 male
-2.716024 0.1155087 0.4051628 -0.6374907 -0.584829 -0.5015783 5855585 male
-2.721527 0.2248226 0.5897912 0.103698 -0.0377263 0.9938931 7237234 male
-2.623931 -0.4636197 0.3677039 -0.1237377 -0.6316172 -0.7653422 2759192 male
-2.549719 0.366728 0.4404179 -0.9772844 -0.1582352 -0.1409854 7692639 male
-2.751639 0.01830156 0.496003 0.9423661 -0.3238409 -0.08410293 4075569 male
-2.86462 -0.2607563 0.5303369 0.253058 -0.2721211 0.928392 5913666 male
-2.71809 0.4374785 0.3590361 -0.2340315 -0.2450568 -0.9408382 10976629 male
-2.694234 0.700564 0.4985217 0.3803674 0.2912284 0.8777851 8938336 male
-2.611029 0.05348083 0.5609128 0.4991448 -0.08951079 0.861883 6645096 male
-2.91477 0.4829282 0.4003235 0.2195749 -0.4049692 -0.8875735 7095874 male
