# .PCD v0.7 - Point Cloud Data file format
VERSION 0.7
FIELDS x y z normal_x normal_y normal_z rgb label
SIZE 4 4 4 4 4 4 4 4
TYPE F F F F F F U U
COUNT 1 1 1 1 1 1 1 1
WIDTH 132
HEIGHT 1
VIEWPOINT 0 0 0 1 0 0 0
POINTS 132
DATA ascii
-2.866418 0.4538409 -0.4725156 -0.3998331 0.1130389 0.909591 9598321 male
-2.966379 0.04467452 -0.4937056 -0.8337948 0.07454514 0.5470185 5331545 male
-2.728215 0.1032683 -0.4986801 -0.04686458 0.005561387 0.9988858 6316901 male
-2.974525 0.03738729 -0.55245 -0.9702196 -0.05011733 -0.2369858 7632505 male
-2.852777 0.3293858 -0.4602492 -0.4620601 -0.1017536 0.8809919 8151396 male
-2.717718 -0.3637595 -0.6462277 -0.9547711 -0.110168 -0.2761796 6964289 male
-2.911908 0.6852031 -0.5842721 -0.00722573 0.7844957 0.6200922 8677731 male
-2.898603 0.6138585 -0.5263032 -0.379059 0.2589371 0.8884064 10518902 male
-2.811188 0.8281641 -0.5072675 -0.5035337 0.07331092 0.8608596 6766654 male
-2.668952 0.1598394 -0.6291614 0.8949053 0.03033652 -0.4452237 7040371 male
-2.942784 -0.3426186 -0.5441748 0.9147356 -0.02041417 0.4035371 8676715 male
-2.745138 0.8093568 -0.6013874 0.947497 -0.3127364 -0.06667421 7160636 male
-2.74092 0.5667399 -0.7303843 0.1758025 -0.2244913 -0.9584869 10975605 male
-2.811903 0.3147448 -0.4533149 0.03756888 -0.1739286 0.9840414 9532021 male
-2.949346 0.2810055 -0.5623003 -0.8836014 0.3348951 0.3272519 7896192 male
-2.931023 -0.07476664 -0.5641027 0.06437945 -0.1895185 -0.9797643 9203051 male
-2.768113 -0.03838963 -0.6148673 -0.7945894 -0.1745112 -0.5815268 9202027 male
-3.014114 0.5720171 -0.5907718 -0.9323863 0.3474613 0.09963145 7560530 male
-2.788656 0.6584183 -0.5373687 0.1531981 0.4796664 0.8639737 8084818 male
-2.905197 0.5021532 -0.5066931 -0.6798337 0.03941312 0.7323064 9730932 male
-2.849556 0.773509 -0.5748217 -0.8641058 -0.05851146 0.4998977 9002839 male
-2.916834 0.1259178 -0.4739066 -0.3074432 0.2401987 0.9207515 6513252 male
-2.692904 -0.4508804 -0.5219699 0.1135213 0.9111843 0.3960505 15320781 male
-2.647994 0.5401942 -0.6946915 -0.3110778 -0.3100389 -0.8983911 11041906 male
-2.717127 0.0134277 -0.5072159 -0.02511656 -0.1521865 0.9880326 7040363 male
-2.761418 0.2568108 -0.6975354 0.03533262 0.2584511 -0.965378 8553867 male
-2.887176 0.4613627 -0.6940823 -0.4512452 -0.2214394 -0.8644897 9856869 male
-2.666485 0.2815754 -0.6152557 0.9268349 0.3540036 -0.1251341 6712175 male
-2.69628 0.1581575 -0.5156846 0.4494532 0.2779238 0.8489701 7171957 male
-3.03683 0.3204644 -0.475456 -0.4117952 0.5828661 0.700494 6572107 male
-2.894127 0.6318504 -0.710786 -0.4458995 0.2392147 -0.8625253 10186850 male
-2.688764 0.436485 -0.5334669 0.865517 0.07633021 0.4950293 11177097 male
-2.971523 -0.1808659 -0.5780003 -0.2367151 0.2629068 -0.9353319 7953235 male
-3.043869 0.2866156 -0.5107307 0.9156882 -0.395016 0.07401086 5323575 male
-2.875718 0.8580549 -0.6005484 -0.3295068 0.3723208 0.8676419 6305844 male
-2.685 0.6090125 -0.656596 -0.9576604 -0.2777651 0.07571766 6177596 male
-2.960603 0.1465089 -0.6024124 -0.9390526 0.02626394 -0.3427687 7172469 male
-2.964951 0.5589768 -0.6325017 0.3102904 -0.5443865 -0.7793351 8280406 male
-2.67981 -0.2423751 -0.5668407 0.1227001 -0.2086733 0.9702578 6572875 male
-2.811835 0.2836179 -0.6873723 -0.09107683 0.2912986 -0.9522868 8356231 male
-2.81392 0.2173064 -0.7029977 -0.1302174 0.1087375 -0.9855047 8949136 male
-2.581258 0.3359411 -0.6430028 0.8125293 -0.36516 -0.4543723 7164492 male
-2.738373 0.9107049 -0.6675193 0.8404707 0.005863052 -0.5418252 1050116 male
-2.763193 0.4827076 -0.4755543 0.1948713 0.307416 0.9314078 9730935 male
-2.873412 0.9202971 -0.6016164 -0.9787312 0.1584776 0.1302692 3614496 male
-2.654696 -0.2507762 -0.6422259 0.829626 -0.071947 -0.5536644 5521212 male
-2.640863 0.6458611 -0.6158972 0.4121943 0.01913034 0.9108951 11701637 male
-2.713221 0.05456447 -0.6520603 0.2633615 -0.1644771 -0.9505724 7304576 male
-2.863065 0.6411263 -0.5283683 -0.106552 0.5572726 0.8234646 9466219 male
-2.673884 0.560762 -0.5763328 0.9687822 -0.06747205 0.2385552 9136226 male
-2.919397 0.6622571 -0.6808786 -0.6186186 0.3214326 -0.7169324 9529945 male
-2.693866 0.09382524 -0.5045236 0.3988211 0.0486993 0.9157348 7237746 male
-2.958697 0.1479886 -0.6065896 -0.9300026 0.0147835 -0.3672556 7106676 male
-2.681301 0.2160203 -0.5440837 0.6667696 0.1431022 0.731396 6514027 male
-2.932921 0.6280333 -0.5942469 -0.07334436 -0.8311082 0.5512529 7690326 male
-2.867011 0.9316331 -0.6507411 -0.9076558 0.2693536 -0.3218843 1642768 male
-2.931485 -0.06165787 -0.5726131 -0.07598917 -0.2080921 -0.975153 9598833 male
-2.800775 0.5227328 -0.485304 0.1590688 0.3220473 0.9332646 10257018 male
-2.747951 0.7201155 -0.5972963 0.9078656 0.2833188 0.3090478 8149587 male
-3.007584 -0.4399828 -0.5733173 -0.8780212 -0.2146241 -0.4278029 6901584 male
-2.863069 0.001193241 -0.5884561 0.6247078 -0.4004284 -0.670371 7495008 male
-2.698339 -0.4327911 -0.5774062 -0.8156412 0.4553531 0.3569074 11241361 male
-2.681887 -0.3153978 -0.6575089 0.3559836 -0.1211909 -0.9266005 4863025 male
-2.917133 0.6996539 -0.6126003 -0.355388 0.8932503 0.275324 9730674 male
-2.839507 0.0688282 -0.6152312 0.6457887 -0.388204 -0.6574607 4015947 male
-2.639246 -0.4733349 -0.6131686 0.4342485 -0.798479 -0.4169649 3743770 male
-2.649436 0.4984722 -0.6754857 -0.7559875 -0.003636233 0.654576 8282973 male
-2.765425 0.6158499 -0.5181666 0.04651961 0.4043496 0.9134207 9729899 male
-2.706234 0.02528978 -0.5051842 0.1411548 -0.1313864 0.9812303 6711406 male
-2.651891 -0.4577179 -0.6551268 0.8989235 0.006299973 -0.4380604 7031114 male
-2.931585 0.6461964 -0.5577325 -0.06156199 -0.01261224 0.9980236 10454142 male
-3.020043 0.3820853 -0.5442252 0.8745448 0.2720395 0.4014547 7427666 male
-2.941357 0.5080066 -0.5637048 -0.9296016 0.02469734 0.3677377 6308929 male
-2.793215 0.9296305 -0.6990783 0.1099352 0.2786556 -0.9540782 2037520 male
-2.674721 0.4471935 -0.6219556 0.9852424 -0.09207077 -0.1442927 10122097 male
-2.925385 0.6925134 -0.6484024 -0.6505821 0.6508761 -0.391284 7688775 male
-2.660278 -0.3089357 -0.6011786 0.8774799 -0.2057038 0.4332609 7690585 male
-2.942585 0.4729943 -0.6354856 -0.9348208 -0.1707183 -0.3113927 9727075 male
-3.077173 0.2988828 -0.4367244 -0.6846956 0.4608957 0.5645947 5718599 male
-2.820612 0.9816921 -0.5784658 -0.3639417 0.8969463 0.2510653 2693400 male
-3.007013 -0.2484686 -0.5502677 -0.9801721 -0.09852017 -0.17192 5324345 male
-2.849553 0.1646025 -0.4862378 0.0283126 0.08586759 0.9959041 7039339 male
-3.055293 0.4949622 -0.6173592 -0.9502782 0.3111052 0.01359772 5783095 male
-3.007775 0.3111242 -0.4489646 -0.02501683 -0.9866441 0.1609578 5784903 male
-3.0058 -0.2369012 -0.5584976 -0.9224329 -0.04274403 -0.3837845 4863535 male
-2.663387 0.185965 -0.6135722 0.9558566 0.04940152 -0.2896508 7698815 male
-2.981518 -0.06995573 -0.5227897 -0.9806937 0.1295783 -0.1464562 8543323 male
-2.902796 -0.07192107 -0.4678693 0.568003 -0.1700754 0.8052621 5583924 male
-2.730552 0.870509 -0.6345133 0.82299 -0.2572519 0.5064672 2363921 male
-2.935663 0.3183375 -0.6304951 -0.864816 0.1751473 -0.4705493 6840932 male
-2.74463 0.7298913 -0.6429184 0.7294573 0.6719963 -0.1277222 9726820 male
-3.071196 0.2810862 -0.4250996 -0.1790145 -0.8594549 -0.4788436 3287085 male
-2.682833 0.190777 -0.5377539 0.6580738 0.2502114 0.7101641 6908011 male
-2.606469 0.2741379 -0.5718479 -0.9006456 -0.3398334 -0.2708338 6898503 male
-2.71205 0.2974254 -0.5079515 0.7580061 -0.1713143 0.6293475 7894140 male
-2.712144 0.09736175 -0.4998504 0.1396473 0.02221077 0.9899521 7632250 male
-2.98471 -0.1090123 -0.4914017 -0.9408993 0.0596109 0.3333992 7361876 male
-2.6564 -0.307395 -0.6193846 0.9818658 -0.1895508 -0.0031842 8085859 male
-2.736613 0.9084141 -0.5477672 0.9167305 0.1505317 0.3700613 8806234 male
-2.965181 -0.07339359 -0.5467638 -0.6953562 0.04086279 -0.7175027 7689556 male
-2.669068 -0.1320135 -0.5495808 0.8901837 -0.1012139 0.444217 9463143 male
-2.947729 0.5470464 -0.5971494 -0.9436286 -0.09532008 0.3169843 8082770 male
-2.69302 -0.278811 -0.5770336 -0.1458954 -0.2386055 0.9600947 5520188 male
-2.655724 -0.4085346 -0.6209139 0.9915593 0.1143243 0.06115769 9927808 male
-3.004064 0.3182321 -0.4657789 0.9251684 -0.05542674 -0.3754881 6571594 male
-2.912797 -0.2406994 -0.526768 0.8781375 -0.2557006 0.404341 7164244 male
-2.601866 0.3846999 -0.7048211 0.1509594 -0.6407421 -0.7527688 7952472 male
-2.693008 0.3649455 -0.6681154 0.7553578 0.1273627 -0.6428167 8675167 male
-2.767798 0.07433088 -0.5134679 -0.4809552 -0.1744896 0.8592063 4935244 male
-2.765295 0.1410148 -0.6991971 0.02885451 -0.324243 -0.9455336 8358288 male
-2.771688 0.9852757 -0.6155956 0.4044496 0.9117952 -0.07106371 4731947 male
-2.995855 0.6128321 -0.6264712 -0.835684 -0.04552874 -0.5473202 7887439 male
-2.780648 0.8827354 -0.6992792 0.2947299 -0.1615689 -0.9418226 1380621 male
-2.829252 0.8508592 -0.5108303 -0.4505138 0.06810349 0.8901681 8804180 male
-2.962757 -0.01507182 -0.567827 -0.838196 -0.1148892 -0.5331303 8545121 male
-2.997765 -0.1388931 -0.5240714 -0.948383 0.2914008 -0.1251205 9136741 male
-2.875384 0.2871399 -0.4894048 -0.4782523 -0.09195676 0.8733949 6579560 male
-2.866214 0.4951302 -0.709271 -0.1995994 -0.2183389 -0.9552425 10975857 male
-2.975152 -0.008204493 -0.5140684 -0.979715 -0.07308333 0.1865938 8940649 male
-2.984641 -0.4533492 -0.5553927 0.05041648 -0.9971499 -0.05612583 4931382 male
-2.837883 0.8658718 -0.6911656 -0.4748982 -0.2433732 -0.8457193 2431508 male
-2.738822 0.873008 -0.5425353 0.8139659 0.2117054 0.5409626 8278604 male
-2.789471 0.1065103 -0.6636925 -0.5203632 -0.6157545 -0.5916659 6383469 male
-2.785413 0.251344 -0.4723758 0.2470861 -0.1921872 0.9497434 8092798 male
-2.68544 -0.4711131 -0.6386346 -0.165044 -0.9849014 0.05224646 4863801 male
-2.624014 0.3633665 -0.6322634 -0.9520727 0.1320886 0.2758807 9729395 male
-2.822669 0.07153606 -0.5840285 0.9399033 -0.2012306 -0.2758408 6316904 male
-2.94693 -0.2771925 -0.5145541 0.3889998 -0.2979883 0.8717121 7097670 male
-2.816538 0.4671032 -0.7051078 -0.2195843 -0.2328153 -0.9474069 10780530 male
-2.836593 0.7267569 -0.5624678 -0.6307516 -0.07892235 0.771961 10845555 male
-2.783044 0.02406056 -0.5439945 -0.803572 -0.2450922 0.5424038 4998464 male
-2.996498 0.5232246 -0.6294979 -0.06218869 -0.306369 -0.9498792 8016969 male
