# .PCD v0.7 - Point Cloud Data file format
VERSION 0.7
FIELDS x y z normal_x normal_y normal_z rgb label
SIZE 4 4 4 4 4 4 4 4
TYPE F F F F F F U U
COUNT 1 1 1 1 1 1 1 1
WIDTH 132
HEIGHT 1
VIEWPOINT 0 0 0 1 0 0 0
POINTS 132
DATA ascii
-2.795726 0.4620804 0.5865478 -0.5199675 0.1450405 0.841782 9598321 male
-2.885711 0.04670317 0.5343953 -0.9718124 0.03184088 0.2335954 8687244 male
-2.697032 0.1023139 0.5648257 -0.6592336 -0.1220844 0.7419612 4672079 male
-2.877408 -2.047326E-05 0.4874889 -0.8953365 -0.102401 -0.4334589 8216672 male
-2.780799 0.3343628 0.6053442 -0.5721514 -0.09588424 0.8145238 8151396 male
-2.6208 -0.3843367 0.42098 -0.9033386 0.008622872 -0.4288415 7162182 male
-2.84139 0.6942555 0.4136339 -0.5913921 0.7856746 -0.1815782 7756109 male
-2.8477 0.5961203 0.4954093 -0.8773384 -0.2492906 0.4100384 7033930 male
-2.73515 0.8499454 0.5391653 -0.5564337 -0.008920137 0.8308441 7293766 male
-2.568871 0.2159935 0.5005143 0.9901214 0.04665201 0.132224 9936295 male
-2.838604 -0.3420341 0.4835608 0.9458228 -0.1455262 0.2902435 6900560 male
-2.656079 0.8281019 0.4334255 0.935587 -0.3490252 -0.05346376 6897978 male
-2.639563 0.5841725 0.3364563 0.2861626 -0.1101711 -0.9518263 10581351 male
-2.744698 0.330942 0.6187839 -0.111052 -0.1199471 0.9865496 9663859 male
-2.862157 0.2889403 0.4584191 -0.9501855 0.278967 -0.1390137 9342869 male
-2.81569 -0.1611525 0.4974688 0.9230159 0.1714163 -0.3444678 7032652 male
-2.688271 -0.05812668 0.4839671 -0.9567127 -0.05854189 -0.2850855 7556430 male
-2.929234 0.5714206 0.444087 -0.9396458 0.2797329 -0.1970157 5980722 male
-2.698103 0.6357093 0.5382227 -0.02385831 0.4701003 0.8822905 9729387 male
-2.829722 0.5051036 0.5464579 -0.7683288 0.06012338 0.6372252 9862261 male
-2.760679 0.7743363 0.47828 -0.8559291 -0.04199402 0.5153853 9529184 male
-2.870181 0.09900553 0.5572044 -0.8282668 0.1414531 0.5421855 4407875 male
-2.620013 -0.4556798 0.5583631 0.2029557 0.8856596 0.4176314 15451336 male
-2.554689 0.5573717 0.3935201 -0.1172471 -0.426835 -0.8966967 10779249 male
-2.697984 -0.003745675 0.5092919 -0.9541595 -0.2205216 0.2023607 3942955 male
-2.691466 0.2693187 0.3817346 0.04502727 0.2839579 -0.9577789 8093828 male
-2.765596 0.4156073 0.3697848 -0.106906 -0.2818095 -0.953496 11042678 male
-2.594414 0.3114338 0.5201243 0.8685753 0.05041484 0.4929859 10979209 male
-2.573913 0.1478398 0.5378408 0.9048915 0.08929081 0.4161712 9344927 male
-3.005069 0.3099078 0.588868 -0.952758 0.07015317 0.295518 6113095 male
-2.797384 0.5998124 0.3350234 -0.3074895 -0.004105417 -0.9515426 10843499 male
-2.609502 0.4648922 0.5427883 0.8069296 0.1063466 0.5809947 10847876 male
-2.910351 -0.1932054 0.48862 -0.9692736 0.1280103 -0.2100527 7362903 male
-2.95623 0.3189094 0.5281514 0.7341899 -0.4372424 -0.5194076 4532260 male
-2.792086 0.8574957 0.4298949 -0.7381796 0.2329194 0.6331189 9066071 male
-2.58759 0.5820857 0.4366949 -0.965278 -0.2563282 0.05033978 5454138 male
-2.857549 0.1746339 0.5495142 -0.7411291 0.2583624 0.6196584 5527382 male
-2.874871 0.5605261 0.4133104 0.3840737 -0.6144821 -0.6891292 8280406 male
-2.574748 -0.1941444 0.436029 0.7085873 0.1934546 -0.6785862 7163467 male
-2.706263 0.263847 0.37907 0.03177472 0.2731299 -0.9614522 9080728 male
-2.63825 0.1910531 0.3781938 0.4508309 -0.0499494 -0.8912107 7042170 male
-2.494032 0.339987 0.4720839 0.7532651 -0.516336 -0.4074173 7558481 male
-2.638044 0.9337624 0.4053326 0.9415302 0.2998075 -0.1537407 1248008 male
-2.740877 0.5290798 0.5808814 0.03480533 0.3564087 0.9336817 10060664 male
-2.785627 0.9227752 0.4253523 -0.9858537 0.1660925 -0.02248959 3614496 male
-2.596555 -0.2315388 0.4175592 0.2950918 0.02362011 -0.9551769 5190702 male
-2.561825 0.6552113 0.471516 0.2233007 0.173521 0.9591805 11636616 male
-2.64729 0.05405837 0.4258069 -0.006777386 -0.2128244 -0.977067 9344671 male
-2.775164 0.6284941 0.5407408 -0.1663793 0.5716505 0.8034511 9466218 male
-2.590876 0.6157541 0.4771617 0.6089108 -0.6279224 0.4847071 9269356 male
-2.826493 0.6450047 0.3598804 -0.5299507 0.1142539 -0.8402966 9332567 male
-2.707353 0.1116077 0.5519012 -0.8603787 0.06088268 0.5060056 5526870 male
-2.863548 0.1889196 0.4549732 -0.9116814 0.1051153 -0.397225 7895681 male
-2.625596 0.2137721 0.5600984 0.3758348 0.1233541 0.9184399 7566715 male
-2.848799 0.6231623 0.4476333 -0.3935584 -0.6882266 0.6094719 7690068 male
-2.772299 0.9299563 0.3768212 -0.8516093 0.2383776 -0.4668379 1642768 male
-2.819628 -0.1019322 0.49104 0.4622808 -0.1232199 -0.8781306 8939623 male
-2.69831 0.5202629 0.5843951 -0.0003718598 0.3676262 0.9299735 9598833 male
-2.662858 0.7338523 0.4479797 0.9529518 0.2522657 0.1680618 8215123 male
-2.863271 -0.4555613 0.4472285 0.2538154 -0.9133745 -0.3183155 4995125 male
-2.85505 0.1122772 0.4404247 -0.7454242 -0.1716953 -0.644099 6908529 male
-2.619077 -0.4152641 0.4793909 -0.8720517 0.3525436 0.3394686 9464693 male
-2.572353 -0.3023615 0.4700566 0.9438556 -0.217435 0.2487138 8085344 male
-2.84736 0.6790181 0.3971483 -0.7122514 0.530849 -0.4592355 8872533 male
-2.73926 0.03768687 0.4886629 0.9256479 -0.3096625 -0.2174514 5264469 male
-2.547097 -0.4654243 0.4834155 0.9234431 -0.1158422 -0.3658324 3943212 male
-2.551933 0.4905913 0.410186 -0.952697 0.008664615 0.3037983 8413789 male
-2.708593 0.6951258 0.5035832 0.0523146 0.4442636 0.8943674 8411734 male
-2.639549 0.03748171 0.5771479 -0.1525502 -0.1434174 0.9778343 7302769 male
-2.563795 -0.4537412 0.4278598 0.9585373 -0.01063246 -0.2847686 7032145 male
-2.862478 0.6581401 0.4736487 -0.03756933 0.04159731 0.9984279 10322812 male
-2.936929 0.3925645 0.5128216 0.8347945 0.322861 0.4459583 7427666 male
-2.833822 0.5126992 0.5404051 -0.7917438 0.05946591 0.607952 10059640 male
-2.692481 0.924103 0.3396696 0.245032 0.1975933 -0.9491661 2037520 male
-2.592975 0.4689509 0.4187402 0.9048659 -0.24448 -0.3484929 10055280 male
-2.860217 0.6242816 0.3783115 -0.4203771 -0.1654207 -0.892143 9923686 male
-2.591516 -0.3337504 0.4857807 0.4686619 -0.214689 0.8568924 7558490 male
-2.840606 0.4976585 0.3918181 -0.7786239 -0.2146607 -0.5896319 10252138 male
-2.99828 0.3158159 0.6372728 0.02909543 0.8376017 0.5455061 7428696 male
-2.736033 0.986074 0.450499 -0.3873801 0.9138458 0.1217479 2693400 male
-2.907197 -0.2561541 0.4762301 -0.9554163 -0.1000465 -0.2777959 5324345 male
-2.791824 0.2399426 0.5674464 -0.470211 -0.08105721 0.8788238 6119263 male
-2.966791 0.4975484 0.4266347 -0.9504126 0.2953289 -0.09745137 5783095 male
-2.928206 0.3306719 0.6084263 0.4387214 -0.8984247 -0.01888473 6506826 male
-2.906789 -0.2585295 0.5014739 -0.9598301 -0.175597 0.218842 6114124 male
-2.574375 0.2192215 0.4588359 0.9428663 -0.01640393 -0.3327672 7239551 male
-2.886871 -0.07381096 0.5095411 -0.9576918 0.114778 -0.2639172 8543323 male
-2.803895 -0.1048049 0.5567825 0.7056966 -0.3330585 0.6253514 6571594 male
-2.638329 0.8849173 0.4063377 0.9641589 -0.181505 -0.1935291 919042 male
-2.826163 0.3329289 0.4093625 -0.6141499 -0.07505938 -0.7856119 8742244 male
-2.654339 0.7310486 0.4071384 0.6389101 0.7078589 -0.3012137 7030849 male
-2.995628 0.2949006 0.6506125 -0.1574574 -0.9405578 -0.3009287 2103063 male
-2.565037 0.1501413 0.4978544 0.9986144 0.05080095 0.01373287 9474712 male
-2.50991 0.253055 0.5943757 -0.57076 -0.4343462 -0.6968331 9134952 male
-2.691836 0.3930767 0.6191122 0.09849524 0.09994522 0.9901059 8940655 male
-2.684546 0.1165792 0.5737138 -0.4909899 -0.04949 0.8697584 4933451 male
-2.884958 -0.1041991 0.5481128 -0.9461307 0.05586558 0.3189289 6966606 male
-2.5868 -0.348473 0.4307579 0.8117498 -0.1408833 -0.5667575 5917002 male
-2.665278 0.9248427 0.505605 0.7255282 0.3243001 0.6069911 8148563 male
-2.867316 -0.07630783 0.4872379 -0.5984764 0.04835957 -0.7996795 7689556 male
-2.598242 -0.1225359 0.5491152 0.692057 -0.1848379 0.6977764 7096907 male
-2.856283 0.5244609 0.48997 -0.9552234 0.04754995 0.2920398 6572867 male
-2.591286 -0.3854775 0.417305 0.5799165 -0.06852382 -0.811789 5061179 male
-2.579691 -0.4040022 0.4771951 0.783446 0.3913141 0.4827894 8808554 male
-2.929961 0.3335019 0.5903831 0.8553826 -0.4957037 -0.1503278 7031886 male
-2.820372 -0.249952 0.5147159 0.7262461 -0.2575201 0.6373774 6769742 male
-2.504791 0.4288411 0.3769941 0.1421264 -0.6100534 -0.7795095 7557458 male
-2.621918 0.3814325 0.394495 0.5977782 -0.02796602 -0.8011736 8806236 male
-2.667835 0.09048945 0.5765023 -0.3696139 -0.1073649 0.9229617 6249823 male
-2.598074 0.3955868 0.5369611 0.8647469 0.01000273 0.5021083 12755617 male
-2.662692 0.9678165 0.3895703 0.629061 0.7169224 -0.3005071 1313800 male
-2.904572 0.6040871 0.4105486 -0.7294465 -0.09591889 -0.6772794 8675410 male
-2.680399 0.8774039 0.345178 0.4222949 -0.2391332 -0.8743469 1380621 male
-2.746989 0.8584825 0.5313413 -0.346238 0.1340027 0.9285271 8673622 male
-2.82525 -0.05831604 0.4669783 0.1629962 -0.1923705 -0.967691 9730419 male
-2.893327 -0.1483652 0.4831165 -0.7327891 0.3864323 -0.5600805 7163716 male
-2.79627 0.2841 0.574297 -0.5649015 -0.1201202 0.8163685 6644838 male
-2.78638 0.5013672 0.353056 -0.2992284 -0.2604992 -0.9179338 9988451 male
-2.884333 -0.009540825 0.5126582 -0.9860356 -0.1037032 -0.1303052 7361103 male
-2.869975 -0.4570174 0.4536661 0.0765662 -0.9854645 -0.1516491 5523268 male
-2.738378 0.8611569 0.3466022 -0.3541063 -0.3145743 -0.8807109 2431508 male
-2.676739 0.8801696 0.5191773 0.4450247 0.2829766 0.8496336 8673879 male
-2.698459 0.1030936 0.4293503 -0.6512626 -0.4218993 -0.6307599 6514027 male
-2.718045 0.1688141 0.5976682 0.1191398 -0.3060338 0.9445364 7369331 male
-2.607852 -0.4632681 0.4143521 -0.5221179 -0.8159394 -0.2482659 2632231 male
-2.526355 0.379606 0.4216124 -0.5507845 -0.6310616 -0.5462579 10715522 male
-2.734788 0.04407541 0.5052449 0.9715136 -0.2341403 0.03660031 3026479 male
-2.869482 -0.3098694 0.5160198 0.01018201 -0.2338963 0.9722082 7361103 male
-2.637396 0.3286877 0.3953889 0.3181033 -0.2029775 -0.9260726 8542296 male
-2.631691 0.6531262 0.5009493 0.3361117 0.5144252 0.7889205 9005928 male
-2.650344 0.03961723 0.5749838 -0.3148163 -0.1434676 0.9382472 7105644 male
-2.906579 0.5249427 0.4169933 0.02794506 -0.3990311 -0.9165115 8016969 male
