# .PCD v0.7 - Point Cloud Data file format
VERSION 0.7
FIELDS x y z normal_x normal_y normal_z rgb label
SIZE 4 4 4 4 4 4 4 4
TYPE F F F F F F U U
COUNT 1 1 1 1 1 1 1 1
WIDTH 132
HEIGHT 1
VIEWPOINT 0 0 0 1 0 0 0
POINTS 132
DATA ascii
-2.843624 0.3494032 -0.4393722 -0.5311041 -0.01615534 0.8471526 8414567 male
-2.95581 0.05001611 -0.4982348 -0.9472832 0.05023893 0.3164341 8687244 male
-2.713732 0.1035794 -0.4743004 -0.08221196 -0.02565771 0.9962845 6316901 male
-2.952277 -0.003688037 -0.5426829 -0.9385411 -0.09392782 -0.3321418 8281948 male
-2.837083 0.3108758 -0.4395981 -0.4486269 -0.2434142 0.8599322 6379349 male
-2.704787 -0.3640005 -0.6199096 -0.9904655 -0.1373516 -0.01061178 7952216 male
-2.896903 0.6908299 -0.5737029 -0.06277406 0.8227133 0.5649799 8874077 male
-2.892575 0.5901878 -0.5024359 -0.6675895 0.04787758 0.7429886 10848643 male
-2.793458 0.8392571 -0.4922403 -0.4851246 0.07214339 0.871464 5912374 male
-2.649082 0.1636102 -0.6010855 0.9109587 0.03201921 -0.411253 7040371 male
-2.921331 -0.3479723 -0.536589 0.8989792 -0.001312439 0.4379893 8676715 male
-2.727816 0.830205 -0.6051587 0.9284956 -0.3338265 -0.1626524 6897978 male
-2.716916 0.5812317 -0.7089428 0.2525792 -0.1684576 -0.9527989 10515820 male
-2.793721 0.3100203 -0.4295643 0.002626214 -0.1744858 0.9846562 9269620 male
-2.932605 0.2911865 -0.5909988 -0.9292741 0.2883579 -0.2308666 7566199 male
-2.902467 -0.09381793 -0.5497873 0.3339393 -0.129724 -0.9336253 9333869 male
-2.754427 -0.05522942 -0.5892977 -0.8491058 -0.07137387 -0.5233786 8609373 male
-2.995067 0.5739045 -0.5809141 -0.9436917 0.3255248 0.05898719 7560530 male
-2.774678 0.6702828 -0.5219162 0.117538 0.5146953 0.8492782 7689807 male
-2.91831 0.5052017 -0.5251798 -0.8812098 0.03110607 0.4717009 8677475 male
-2.82667 0.7739587 -0.5508455 -0.7951413 -0.06483758 0.6029481 9529184 male
-2.937568 0.1022011 -0.4779018 -0.7757619 0.1606702 0.6102283 4407875 male
-2.67534 -0.4393228 -0.5200166 -0.06434315 0.9049806 0.4205593 14923714 male
-2.624954 0.4799696 -0.692421 -0.6339393 -0.2578522 -0.7291319 8738908 male
-2.703842 0.01395469 -0.4856957 -0.06066943 -0.1822058 0.981387 7040363 male
-2.798442 0.2817712 -0.6635758 -0.06156559 0.3037905 -0.9507476 8817806 male
-2.827694 0.3889406 -0.6639251 0.04628145 -0.2638699 -0.9634473 9332573 male
-2.660149 0.31174 -0.5438536 0.9333013 0.01003847 0.3589541 10122871 male
-2.680386 0.1588677 -0.4884154 0.421768 0.2466458 0.8725123 7171957 male
-3.06351 0.2887202 -0.4706661 -0.9416945 0.02382489 0.3356246 6113095 male
-2.877579 0.605004 -0.6958063 -0.4004135 0.03059422 -0.9158237 10843499 male
-2.672777 0.4446241 -0.5053087 0.8485211 0.09102204 0.5212743 10980230 male
-2.948443 -0.1875318 -0.5794752 -0.2024211 0.2226157 -0.9536602 7953235 male
-3.016391 0.2952776 -0.5200757 0.861437 -0.4688373 -0.1952382 4992555 male
-2.860347 0.8560273 -0.5897484 -0.6951932 0.3981565 0.5984795 8080716 male
-2.665674 0.5993503 -0.6315826 -0.9546938 -0.2780599 0.1060306 6046266 male
-2.927713 0.1978605 -0.5006627 -0.7188769 0.2504544 0.648451 5856354 male
-2.930392 0.6292761 -0.6382945 0.3297327 -0.4042476 -0.8531473 6372152 male
-2.651768 -0.2556923 -0.5588376 0.5596963 -0.2214556 0.7985595 6902352 male
-2.763866 0.263939 -0.6706799 -0.026281 0.2874334 -0.95744 8620434 male
-2.797176 0.2059696 -0.6794755 -0.09735277 0.02146333 -0.9950185 8489873 male
-2.563535 0.3128986 -0.6112948 0.7976363 -0.4172959 -0.4354773 6966085 male
-2.721068 0.9118996 -0.6572122 0.8592677 -0.01212716 -0.5113825 1050116 male
-2.77074 0.5026438 -0.4536984 0.1039559 0.3528306 0.9298945 9205107 male
-2.85855 0.9232069 -0.5968155 -0.9846135 0.1520726 0.08608185 3614496 male
-2.651362 -0.249394 -0.6377837 0.6467729 -0.06706297 -0.7597286 6046267 male
-2.616617 0.6587033 -0.5973314 0.6404794 0.3829035 0.665711 11043961 male
-2.734178 0.01258752 -0.6233873 -0.3416097 -0.1508214 -0.9276614 7887450 male
-2.71164 0.4517878 -0.4548463 0.5409819 0.1497267 0.8275992 9860981 male
-2.656983 0.5661201 -0.550201 0.9611143 -0.0532617 0.2709659 9136226 male
-2.897634 0.647862 -0.6721055 -0.5701954 0.1310416 -0.8109903 9727331 male
-2.720144 0.1122559 -0.4747553 -0.1077022 -0.004910955 0.9941711 5724511 male
-2.939479 0.1855561 -0.5805039 -0.943823 0.1146866 -0.3099117 7500922 male
-2.664253 0.2181433 -0.5151661 0.6409158 0.1248946 0.7573826 6514027 male
-2.913031 0.6403583 -0.5783642 0.6318478 -0.7265749 0.2699211 8940903 male
-2.85051 0.931916 -0.6462443 -0.8988405 0.2384113 -0.3677577 1642768 male
-2.892288 -0.1201523 -0.5364096 0.6113533 -0.06030413 -0.7890567 6968146 male
-2.786638 0.5296493 -0.4622314 0.1259317 0.3480974 0.9289615 10257018 male
-2.731146 0.7247348 -0.5782943 0.8960161 0.303207 0.3243773 8149587 male
-2.972827 -0.454898 -0.5715462 -0.4027704 -0.839509 -0.3646927 5260868 male
-2.925939 0.09617241 -0.6005611 -0.6960329 -0.2200253 -0.6834669 6579052 male
-2.685666 -0.4308917 -0.5594318 -0.8222799 0.4656988 0.3270784 11241361 male
-2.65402 -0.3070268 -0.6311244 0.7412338 -0.1656053 -0.6504978 5453876 male
-2.904727 0.6949909 -0.5829958 -0.2101124 0.8918144 0.4006495 10124919 male
-2.813917 0.0380329 -0.5569267 0.8982934 -0.3268203 -0.2936962 5264469 male
-2.625798 -0.4724362 -0.5929244 0.4390713 -0.8065744 -0.3957956 3743770 male
-2.64107 0.5000141 -0.6591138 -0.9780238 -0.1520819 0.1426208 8805212 male
-2.750714 0.6224194 -0.496752 0.01499314 0.4328794 0.9013271 9729899 male
-2.692841 0.02553183 -0.4828964 0.1057883 -0.1642892 0.9807231 6711406 male
-2.66789 -0.3987234 -0.6468303 0.5465287 -0.003868634 -0.8374315 5783360 male
-2.912983 0.6437055 -0.559528 0.6033101 -0.3240161 0.7287184 8611174 male
-2.983475 0.3988622 -0.5922358 0.8927113 -0.4302747 -0.1339039 6705749 male
-2.918433 0.5153587 -0.5276511 -0.8888701 0.03923969 0.4564757 9005928 male
-2.774995 0.9282799 -0.6917406 0.1410377 0.2273156 -0.9635538 2037520 male
-2.655821 0.444991 -0.590304 0.9898331 -0.08685908 -0.1126316 9267560 male
-2.905913 0.6905493 -0.6393908 -0.6476205 0.5802944 -0.4938078 8148298 male
-2.654297 -0.3623531 -0.5948814 0.9650562 -0.1346836 0.2247816 7690839 male
-2.92883 0.4724434 -0.5929555 -0.9817086 -0.1296108 -0.1394599 9727078 male
-3.055483 0.2911732 -0.4262328 0.02694749 0.7763024 0.6297843 7887713 male
-2.807338 0.9865191 -0.5752146 -0.3833581 0.9043002 0.1878238 2693400 male
-2.984977 -0.2541548 -0.5499558 -0.9734497 -0.1071045 -0.2022977 5324345 male
-2.822901 0.1587951 -0.4642434 -0.06419913 -0.1174691 0.9909993 6513763 male
-3.027371 0.5088001 -0.6046708 -0.9452415 0.305063 -0.1159959 6046267 male
-2.984342 0.3086342 -0.446289 0.6434735 -0.7612734 -0.08002925 6902613 male
-2.983458 -0.2429523 -0.558692 -0.9081202 -0.06082511 -0.414268 4863535 male
-2.643925 0.1894104 -0.5847052 0.9661877 0.04794186 -0.2533433 7698815 male
-2.957445 -0.08742528 -0.5324194 -0.7807836 0.1482803 -0.6069514 8544865 male
-2.87364 -0.09250982 -0.4796482 0.7783598 -0.3138274 0.5437539 5914689 male
-2.716883 0.8817155 -0.6381233 0.9105576 -0.1953554 -0.3643092 1181189 male
-2.915842 0.3376094 -0.612444 -0.8465826 -0.03612349 -0.5310301 9002592 male
-2.726513 0.7327226 -0.6241617 0.7281013 0.6725922 -0.1322432 9726820 male
-3.053771 0.2697805 -0.4170056 -0.4014349 -0.77785 -0.483528 1379340 male
-2.665853 0.1923491 -0.5090713 0.6344171 0.2264303 0.7390835 6908011 male
-2.569363 0.2672821 -0.5462444 -0.8798453 -0.4216198 -0.2193375 6175290 male
-2.713047 0.345883 -0.4468488 0.6463014 -0.06004077 0.7607166 8282214 male
-2.676417 0.1001974 -0.4805813 0.4350647 0.04570895 0.8992383 6711405 male
-2.965178 -0.1109501 -0.4936274 -0.9524524 0.05717694 0.2992746 7361876 male
-2.643285 -0.3062634 -0.6022595 0.9807141 -0.1924637 0.03402341 8085859 male
-2.737382 0.9297398 -0.5240266 0.6726696 0.3687105 0.6415358 8674650 male
-2.958641 -0.07828125 -0.5305541 -0.8588117 0.1185957 -0.4983748 8018776 male
-2.651606 -0.1402105 -0.5425223 0.9260648 -0.07568265 0.3696973 8281181 male
-2.931674 0.53401 -0.5834419 -0.9798579 -0.08233501 0.1819327 7688780 male
-2.68195 -0.2559132 -0.5565866 -0.1862256 -0.2094556 0.959921 6902608 male
-2.642123 -0.4074565 -0.6021236 0.9897369 0.1093072 0.09204787 9927808 male
-2.994705 0.3073482 -0.4560242 -0.1197198 -0.9906335 -0.06566931 4272689 male
-2.895543 -0.2469947 -0.5183058 0.7731375 -0.2424675 0.5860614 6769742 male
-2.588479 0.4220785 -0.6995661 0.1311694 -0.5290363 -0.8384003 6833735 male
-2.660097 0.3665397 -0.6182846 0.9066161 0.1362423 -0.399356 8082772 male
-2.774483 0.06934278 -0.5128383 -0.7927722 -0.191859 0.5785345 5197907 male
-2.713441 0.1495461 -0.6689012 0.3704288 -0.1705876 -0.913062 7239550 male
-2.740644 0.9710368 -0.6440118 0.585207 0.7343245 -0.3439483 1313800 male
-2.97491 0.5849801 -0.6177312 -0.6822619 -0.02826134 -0.7305614 7360839 male
-2.761858 0.8816277 -0.688886 0.3303531 -0.2089401 -0.9204406 1380621 male
-2.820901 0.8768492 -0.5073476 -0.4778423 0.2675478 0.8367108 8672848 male
-2.893157 -0.06064702 -0.566619 0.2399443 -0.2319333 -0.9426737 9334893 male
-2.976655 -0.14281 -0.5279125 -0.943562 0.2846482 -0.1693109 9136741 male
-2.861153 0.3018934 -0.4630114 -0.5619179 -0.1186685 0.8186368 6514791 male
-2.894303 0.5325727 -0.66905 -0.6259146 -0.217068 -0.7490744 11107959 male
-2.957207 -0.006522857 -0.5193181 -0.9949557 -0.09042972 -0.04342396 7361103 male
-2.966127 -0.4578247 -0.5583062 -0.05529027 -0.9917629 -0.1155397 6508112 male
-2.819166 0.864479 -0.6818579 -0.4413893 -0.2955467 -0.8472471 2431508 male
-2.752794 0.8887669 -0.5130517 0.2779883 0.3107905 0.9089179 6898496 male
-2.768708 0.112751 -0.6409981 -0.5015302 -0.5955207 -0.6275529 6383469 male
-2.7716 0.2534115 -0.447014 0.2100729 -0.2035362 0.9562648 8092798 male
-2.671291 -0.4701514 -0.6199063 -0.1763755 -0.9825823 0.05851347 4863801 male
-2.610542 0.3746412 -0.6319003 -0.977883 -0.1864755 0.09471929 9138802 male
-2.807857 0.04447262 -0.5408689 0.9673095 -0.2494384 -0.04574693 3026479 male
-2.926355 -0.2812115 -0.5107507 0.3567021 -0.2574706 0.8980381 7097670 male
-2.653579 0.3764334 -0.5623611 0.9970313 0.04259053 0.0641448 11372939 male
-2.768994 0.730458 -0.5364996 0.4045712 -0.09733371 0.909312 9333349 male
-2.768288 0.02691377 -0.5240673 -0.8247673 -0.2490254 0.5076862 4998464 male
-2.986596 0.4394691 -0.6363206 0.3979695 -0.5971826 -0.6964146 8346718 male
