# .PCD v0.7 - Point Cloud Data file format
VERSION 0.7
FIELDS x y z normal_x normal_y normal_z rgb label
SIZE 4 4 4 4 4 4 4 4
TYPE F F F F F F U U
COUNT 1 1 1 1 1 1 1 1
WIDTH 132
HEIGHT 1
VIEWPOINT 0 0 0 1 0 0 0
POINTS 132
DATA ascii
-2.818047 0.3753061 0.3791127 -0.7053016 -0.03094224 0.7082317 9467247 male
-2.895041 0.0567905 0.3993058 -0.9227963 0.1104266 0.3691245 8687244 male
-2.671172 0.1107877 0.4050764 -0.1651068 0.2201143 0.9613997 6316901 male
-2.893595 -0.0003751293 0.365985 -0.9510772 -0.1904865 -0.243243 8216672 male
-2.825669 0.4085231 0.372621 -0.7186499 0.008185188 0.6953239 9402226 male
-2.681943 -0.366159 0.3416996 -0.9347908 -0.07127918 -0.3479733 6964289 male
-2.797398 0.642065 0.3344418 -0.3101535 0.4642345 0.8296331 9599601 male
-2.839294 0.6574182 0.318633 -0.156395 0.2892168 0.9444016 10782074 male
-2.702826 0.7709453 0.4151697 -0.126368 -0.3407367 0.9316274 7557452 male
-2.588845 0.1765307 0.2852072 0.9808068 -0.04543355 -0.1896146 7830399 male
-2.850487 -0.3239861 0.4299652 0.8956412 0.005802468 0.4447395 8544353 male
-2.63047 0.8069375 0.3016699 0.9065158 -0.3709354 -0.2015838 8082762 male
-2.636456 0.5554311 0.1686013 0.2744715 -0.09694421 -0.956696 10383980 male
-2.768112 0.407143 0.413236 -0.2560643 0.0862351 0.9628056 9926774 male
-2.808149 0.2160561 0.3768497 -0.2864454 0.307922 0.9072668 6316385 male
-2.828531 -0.1435256 0.4118819 0.8474414 0.1392093 -0.5123122 7032652 male
-2.718758 -0.03563697 0.3280311 -0.8839231 -0.2445583 -0.3985866 8805983 male
-2.904233 0.6109282 0.2688823 -0.9821446 0.1617457 0.09607461 9664109 male
-2.700755 0.6419826 0.3598458 0.02867842 0.37327 0.9272794 7689807 male
-2.856718 0.511402 0.2906679 -0.9777962 0.06871223 0.1979726 6704203 male
-2.745255 0.7619742 0.3321791 -0.9468053 -0.1151051 0.300517 8805204 male
-2.843248 0.1383152 0.4153444 -0.2938893 0.3997048 0.8682541 6513252 male
-2.668279 -0.455042 0.4801616 0.2418432 0.9111397 0.333671 15451336 male
-2.529143 0.4913273 0.2513742 -0.06633072 -0.3437051 -0.9367321 8015945 male
-2.666077 0.02127255 0.4192682 -0.153761 0.0721997 0.9854668 7040363 male
-2.628479 0.2369 0.2028096 0.5525901 0.05531098 -0.8316158 6644589 male
-2.746143 0.4342431 0.1713282 0.1943998 -0.1801873 -0.9642309 11372155 male
-2.598646 0.3065903 0.311491 0.9281476 -0.2016232 0.3128739 10912645 male
-2.592032 0.1260106 0.3512181 0.9370322 0.09907082 0.3348963 9476513 male
-2.931329 0.298237 0.4585023 -0.810266 -0.5387807 0.2306173 657416 male
-2.759471 0.6710032 0.1875157 -0.1847779 0.5085558 -0.8409686 8477261 male
-2.62451 0.410202 0.3687631 0.7584799 -0.01747147 0.6514622 11703185 male
-2.916159 -0.1735236 0.402612 -0.8725343 0.1382494 -0.468584 6112060 male
-2.926269 0.3106424 0.4114186 0.874361 -0.4258128 -0.2327582 6044476 male
-2.759194 0.8756948 0.3259711 0.8077712 0.5090992 0.2971931 5584180 male
-2.54132 0.4961258 0.3044806 -0.489058 0.0774473 0.8688062 9004648 male
-2.888792 0.1352772 0.283163 -0.9363841 -0.04389826 -0.3482208 7172469 male
-2.882881 0.5103909 0.2328829 0.5741981 -0.3825612 -0.7238394 7559506 male
-2.642052 -0.1745601 0.3304363 0.1136967 0.3249393 -0.9388757 8610397 male
-2.632331 0.2212152 0.2005754 0.5615943 -0.01021883 -0.8273496 6777199 male
-2.665214 0.168145 0.1856056 0.3638495 -0.1322214 -0.9220255 7304831 male
-2.518421 0.317879 0.3831866 0.6796409 0.334215 0.6529842 7560797 male
-2.61301 0.9320136 0.309711 0.8799492 0.4712465 -0.06013479 1313804 male
-2.661434 0.4315852 0.4018421 0.4215205 0.08734436 0.9026026 9926262 male
-2.754869 0.9076967 0.3250554 -0.9733316 0.2290832 -0.01209969 3614496 male
-2.609294 -0.2600277 0.3499546 0.9053115 -0.1611466 -0.3929922 5520955 male
-2.535405 0.6413593 0.2922263 0.6547282 0.7240024 0.2171439 6309175 male
-2.632367 0.03037871 0.2723625 0.48771 -0.3412908 -0.8035294 6646386 male
-2.6316 0.391379 0.3776041 0.7099832 -0.05914779 0.7017303 10847876 male
-2.584713 0.5836105 0.3266376 0.5296327 -0.581331 0.6176921 11638157 male
-2.790036 0.5915346 0.1646211 -0.3302033 -0.01506991 -0.9437895 11369843 male
-2.676825 0.1188454 0.4019262 -0.1858165 0.2329462 0.9545723 5724511 male
-2.886878 0.1362728 0.2785168 -0.9262058 -0.05697075 -0.3726891 7106676 male
-2.657152 0.2351726 0.3728913 0.4870025 -0.05138735 0.8718876 7040371 male
-2.84528 0.594943 0.2967304 0.7135651 -0.2180244 0.6658005 8612453 male
-2.738807 0.9261606 0.2805504 -0.8113029 0.4054197 -0.4212153 1642768 male
-2.830528 -0.1187917 0.4103071 0.6692718 -0.01587248 -0.7428481 6836564 male
-2.719746 0.5055011 0.3932375 0.0177337 0.2201493 0.975305 10059382 male
-2.635854 0.7038742 0.2945778 0.8136051 0.4578363 0.3583751 9202785 male
-2.883874 -0.4439046 0.4197159 0.01462282 -0.999316 0.03396635 5852233 male
-2.783142 -0.005929947 0.3329205 0.6993 -0.4885931 -0.5217819 7164500 male
-2.67268 -0.4196293 0.3978581 -0.8365217 0.3931597 0.3816503 9464693 male
-2.640924 -0.3209827 0.331459 0.4206766 -0.1898524 -0.887123 4863025 male
-2.805109 0.6556832 0.3213529 -0.1555875 0.5415772 0.8261275 9532784 male
-2.767632 0.03077789 0.3130437 0.7441833 -0.4618767 -0.4825569 5002324 male
-2.639618 -0.4768026 0.3631222 -0.02476892 -0.9996898 0.002592846 4271656 male
-2.555625 0.4782268 0.2653196 -0.9774919 -0.126587 -0.1687758 9134178 male
-2.68619 0.5769596 0.3837397 -0.1510222 0.2706857 0.9507479 9532264 male
-2.654706 0.03282938 0.4200327 0.01497785 0.08465349 0.9962979 6711406 male
-2.623362 -0.4627572 0.3450963 0.9310258 -0.04233827 -0.3624893 7032145 male
-2.834456 0.6295832 0.2947966 -0.29248 -0.851058 0.4360685 9335408 male
-2.905742 0.4079423 0.2862526 0.8694487 0.4622995 0.1741782 6837073 male
-2.831318 0.5609939 0.1985358 -0.6780314 -0.1480813 -0.719962 9332316 male
-2.670858 0.931635 0.2456503 0.1330804 0.4960755 -0.8580202 2694168 male
-2.607651 0.4888651 0.1943046 0.6706552 -0.1546699 -0.7254645 9726315 male
-2.811274 0.6986762 0.2660047 -0.4344272 0.8856807 0.1638379 8348505 male
-2.633419 -0.3671993 0.3794482 0.9444833 -0.1799733 0.2748834 7690839 male
-2.837809 0.4244746 0.2135065 -0.7617645 -0.2104818 -0.612709 9134169 male
-2.939253 0.2946025 0.4152189 0.5733083 -0.6274102 -0.5269479 8348510 male
-2.703192 0.9589939 0.3672355 -0.3443536 0.8756855 0.3385196 2693400 male
-2.915104 -0.2427349 0.4371313 -0.9285781 -0.1726523 0.3285328 6048330 male
-2.886088 0.2319653 0.3010212 -0.9924219 0.1228129 0.003971254 8818581 male
-2.96875 0.4630755 0.2223488 -0.9951896 -0.07521409 -0.06277347 6242101 male
-2.88104 0.6295705 0.2288559 -0.6107569 -0.08728185 -0.7869929 10186344 male
-2.911175 -0.2355706 0.4494289 -0.8358405 -0.1690745 0.5222877 7035226 male
-2.586738 0.1983572 0.2840182 0.9873272 -0.0530026 -0.149585 7040371 male
-2.894027 -0.04945346 0.399053 -0.9769602 -0.03417343 -0.2106679 7557713 male
-2.806674 -0.07491708 0.4523677 0.8375148 -0.1891049 0.5126483 5914689 male
-2.60744 0.8825043 0.2983324 0.9639714 -0.09903479 -0.2468831 1050631 male
-2.838628 0.2743164 0.3561468 -0.5756306 0.1860187 0.7962704 6185062 male
-2.643499 0.708231 0.2393066 0.3373179 0.7060167 -0.6227014 6638401 male
-2.9196 0.3359475 0.439203 0.7745527 0.5835283 -0.2440549 4795950 male
-2.586209 0.130777 0.3125745 0.9997648 -0.00760434 -0.02031036 9474712 male
-2.542247 0.2673702 0.4763438 -0.583288 -0.4951904 -0.6438645 7491409 male
-2.644876 0.301437 0.3806968 0.6960596 -0.2120756 0.6859481 10451582 male
-2.634034 0.1043875 0.4035089 0.3608753 0.2464064 0.8994737 6711405 male
-2.889284 -0.07520416 0.4526362 -0.8905795 0.1133308 0.440482 5783615 male
-2.617794 -0.3125216 0.3712122 0.9647879 -0.2467667 0.09105207 8085859 male
-2.627364 0.8653001 0.3900727 0.8778959 -0.08397587 0.4714306 9200474 male
-2.893669 -0.0396567 0.399602 -0.9959047 -0.05343022 -0.07293086 8084826 male
-2.641287 -0.09528081 0.4340845 0.5091074 0.04752898 0.8593897 6964809 male
-2.84657 0.5594479 0.3085602 -0.9524372 0.01097039 0.3045375 4929842 male
-2.655388 -0.2583725 0.4133194 -0.2432929 -0.1618153 0.95636 6902608 male
-2.632841 -0.4093932 0.3916773 0.8258646 0.4026335 0.394758 8808554 male
-2.866062 0.628962 0.2207219 -0.2164979 -0.1625588 -0.9626543 12424332 male
-2.827015 -0.2280964 0.4384088 0.8352216 -0.1780442 0.5202933 6769742 male
-2.5007 0.3385353 0.2891537 0.3558286 -0.8663169 -0.350544 8018009 male
-2.612946 0.3199575 0.2116823 0.6841699 -0.2676885 -0.6784205 9726315 male
-2.7305 0.070834 0.3708428 -0.8451656 -0.01312813 0.5343434 5197907 male
-2.656899 0.1550082 0.192603 0.4681212 -0.186793 -0.8636961 6844024 male
-2.628041 0.9522114 0.3061909 0.6821747 0.726531 -0.08240362 1313800 male
-2.914079 0.5688925 0.2661398 -0.9583267 0.2278191 -0.1723612 5782319 male
-2.639949 0.8629581 0.247413 0.599255 -0.1898764 -0.7777148 1379853 male
-2.718775 0.807917 0.4144629 -0.5683946 -0.01738787 0.8225724 6832959 male
-2.834358 -0.06334636 0.3593064 0.1720256 -0.4268971 -0.8877871 9334893 male
-2.888 -0.1280445 0.3951415 -0.4142157 0.371923 -0.8307217 9333349 male
-2.847037 0.4384519 0.3361385 -0.8616543 0.02636733 0.5068101 9204335 male
-2.790016 0.5506061 0.1678503 -0.3507941 -0.07287953 -0.9336124 10448749 male
-2.899001 0.03584334 0.3910507 -0.9813606 0.0008423859 0.1921738 8552835 male
-2.887265 -0.4439854 0.430259 0.03344969 -0.9979762 0.05408001 5391678 male
-2.707207 0.8650832 0.234525 -0.3241026 -0.06000587 -0.944117 2431508 male
-2.650865 0.8274592 0.4077243 0.5157506 -0.001746664 0.856737 8738900 male
-2.720709 0.1052125 0.208772 -0.3860606 -0.7915211 -0.4737631 9607331 male
-2.746036 0.1421454 0.3910275 -0.5029448 -0.5385214 0.6760484 5855833 male
-2.668956 -0.4723428 0.3361464 -0.5467125 -0.8240498 -0.1484839 2632231 male
-2.541564 0.3545031 0.3494433 -0.8428487 0.5311718 0.08638608 8150627 male
-2.750244 0.1078979 0.2480971 0.9954635 -0.06004844 -0.0738017 6052708 male
-2.854838 -0.2248265 0.4596911 0.4440369 -0.153608 0.8827434 6505794 male
-2.601397 0.3802266 0.3292782 0.9042351 -0.09145472 0.417127 11901589 male
-2.75269 0.7051183 0.3193222 -0.7762668 0.2556024 0.5762616 8610905 male
-2.726207 0.02663906 0.3716805 -0.8776135 -0.08537895 0.4717044 4998464 male
-2.925754 0.4101895 0.2065761 0.195671 -0.7756581 -0.6000561 8478560 male
