# .PCD v0.7 - Point Cloud Data file format
VERSION 0.7
FIELDS x y z normal_x normal_y normal_z rgb label
SIZE 4 4 4 4 4 4 4 4
TYPE F F F F F F U U
COUNT 1 1 1 1 1 1 1 1
WIDTH 132
HEIGHT 1
VIEWPOINT 0 0 0 1 0 0 0
POINTS 132
DATA ascii
-2.798522 0.4663701 0.5837553 -0.5109795 0.1603213 0.8445099 9796212 male
-2.888942 0.0431038 0.5399913 -0.9660348 0.03474015 0.256066 8687244 male
-2.700506 0.09805831 0.5658172 -0.6497757 -0.1185184 0.7508296 4672079 male
-2.88181 -0.004072824 0.493512 -0.9054438 -0.1057624 -0.4110787 8216672 male
-2.793954 0.4849548 0.5822333 -0.42403 0.2282431 0.8764153 10059639 male
-2.628111 -0.3873052 0.4176035 -0.9109894 0.0133646 -0.4122132 7162182 male
-2.827398 0.6871918 0.3820615 -0.5401874 0.598852 -0.5912477 7688772 male
-2.849048 0.6114184 0.4848712 -0.7276167 -0.4370819 0.5287092 7821654 male
-2.732383 0.8411968 0.542631 -0.4882078 -0.208215 0.8475256 7556426 male
-2.572908 0.2112371 0.4993804 0.9918756 0.04453219 0.1191621 9936295 male
-2.865287 -0.3355286 0.5143906 0.4096688 -0.1185327 0.9045007 9136234 male
-2.658124 0.8204758 0.4452485 0.9253305 -0.3629926 -0.1095438 7358273 male
-2.644782 0.5917233 0.3327299 0.2535885 -0.01567917 -0.9671851 10384488 male
-2.765157 0.486463 0.5922571 -0.1817317 0.3123771 0.932413 10059640 male
-2.866741 0.2835903 0.4830284 -0.9402466 0.3199503 0.1164819 9541532 male
-2.854868 -0.06084225 0.4766921 -0.4390458 -0.1101923 -0.8916818 8413535 male
-2.695403 -0.04938741 0.4876796 -0.9717058 -0.1015609 -0.2132445 7031626 male
-2.929655 0.5744671 0.4501494 -0.9408522 0.3383255 -0.01825092 7560530 male
-2.740252 0.6734446 0.5100323 -0.0662977 0.4948553 0.8664426 7953237 male
-2.834002 0.4863462 0.5445195 -0.7726145 0.05542189 0.6324517 9796470 male
-2.762447 0.7689835 0.4774218 -0.858353 -0.05071696 0.5105467 9529184 male
-2.89012 0.07237027 0.5170605 -0.9989721 0.03840866 0.02407206 6645352 male
-2.639946 -0.4588851 0.5573142 0.1667255 0.8974302 0.4084381 16768996 male
-2.549877 0.5149745 0.4012469 -0.3204724 -0.3641995 -0.8744462 8870485 male
-2.702559 -0.008150541 0.5105157 -0.9518498 -0.2177765 0.2157668 3942955 male
-2.696744 0.2638573 0.3813625 0.03413781 0.275641 -0.9606543 8093828 male
-2.790699 0.4543984 0.3629285 -0.3340958 -0.2741768 -0.9017799 9856869 male
-2.61475 0.3404271 0.5547357 0.7772183 -0.06140708 0.6262276 11899540 male
-2.577677 0.1431797 0.5373 0.9106719 0.08764942 0.4037254 9344927 male
-2.971448 0.3399557 0.6004702 -0.5143257 0.7196746 0.4664092 6309194 male
-2.799797 0.615927 0.3350462 -0.360871 0.1356457 -0.9226984 10252643 male
-2.603254 0.4787586 0.5204445 0.8829606 0.08149605 0.4623191 10452344 male
-2.917092 -0.1989545 0.5100132 -0.9965702 0.06757101 0.04777003 7428697 male
-2.959123 0.3061941 0.5694111 0.9183816 -0.3441609 0.1952651 5323575 male
-2.791495 0.8617388 0.4298021 -0.1986731 0.2296386 0.9527829 7291972 male
-2.590351 0.5781378 0.4361098 -0.9695833 -0.2433396 0.02634512 5454138 male
-2.860507 0.1711372 0.5531995 -0.7276702 0.2650955 0.6326298 5527382 male
-2.888749 0.5003767 0.4309726 0.8108205 -0.423567 -0.4039322 8941415 male
-2.581268 -0.1973765 0.4362766 0.6968441 0.2063498 -0.6868974 7163467 male
-2.711599 0.2584208 0.3789593 0.02074237 0.2646692 -0.9641162 9080728 male
-2.643888 0.185406 0.3779399 0.4390327 -0.05950109 -0.8964987 7042170 male
-2.511955 0.3140981 0.4877655 0.3531285 -0.6581857 -0.6648998 7230029 male
-2.63922 0.9298345 0.4087666 0.942215 0.3030221 -0.1428585 1248008 male
-2.774613 0.5966731 0.556675 -0.07741807 0.4255391 0.9016224 10255731 male
-2.78689 0.9184752 0.4279552 -0.9856211 0.1675134 -0.0221431 3614496 male
-2.603422 -0.2343809 0.4174729 0.2783054 0.04190737 -0.9595779 5190702 male
-2.56434 0.6509503 0.4708235 0.2017647 0.1799461 0.9627618 11636616 male
-2.651816 0.00753145 0.433223 -0.1189948 -0.1360382 -0.9835313 8412508 male
-2.763329 0.6112571 0.5495249 0.0189225 0.4630228 0.8861444 9334637 male
-2.593256 0.610845 0.4754854 0.6033806 -0.6320844 0.486211 9269356 male
-2.829124 0.6665916 0.3686232 -0.5526106 0.4153048 -0.722595 8805970 male
-2.710941 0.1074528 0.5529734 -0.8532811 0.06518792 0.5173604 5526870 male
-2.774713 0.003852181 0.4628251 0.611635 -0.3362623 -0.7161218 7495524 male
-2.646799 0.2392857 0.57025 0.4693965 -0.1215155 0.8745861 7040371 male
-2.849779 0.6288748 0.4445612 -0.1410389 -0.7807018 0.6087797 7690326 male
-2.773375 0.9268336 0.3796662 -0.8497282 0.2503436 -0.4639937 1642768 male
-2.829273 -0.08544715 0.485561 0.2976596 -0.180891 -0.9373778 9203566 male
-2.616585 0.4865794 0.5421293 0.7995049 0.07577752 0.5958605 10848900 male
-2.664656 0.7289473 0.4468716 0.9533062 0.2458638 0.1753803 8215123 male
-2.879776 -0.46269 0.4782607 0.0567713 -0.9981108 -0.0234924 5061938 male
-2.860311 0.1077979 0.4446019 -0.7591866 -0.1763448 -0.6265286 6908529 male
-2.625679 -0.4190845 0.4749043 -0.8671107 0.343549 0.3606842 9464693 male
-2.578311 -0.3061663 0.4681449 0.9482086 -0.2214113 0.227766 8085344 male
-2.836017 0.6675748 0.3748933 -0.607709 0.4267392 -0.6697637 8609876 male
-2.751024 0.0108066 0.5028278 0.9274092 -0.3508784 -0.1296016 4997442 male
-2.553642 -0.4687782 0.4765312 0.9170172 -0.1055828 -0.384619 3943212 male
-2.535982 0.4862437 0.4169055 -0.676962 0.3720414 0.635065 7360076 male
-2.729367 0.6886921 0.5034746 -0.002498836 0.4299642 0.9028425 7623247 male
-2.64305 0.03295957 0.5774401 -0.1401798 -0.1420164 0.9798883 7302769 male
-2.571359 -0.456515 0.4215672 0.9530391 -0.001413109 -0.302844 7032145 male
-2.85297 0.6490153 0.4756113 -0.04911085 -0.05920618 0.997037 10322812 male
-2.920213 0.3990031 0.472707 0.9611844 -0.2362195 0.1425655 6706519 male
-2.823109 0.518499 0.5526655 -0.6577898 0.1502091 0.7380716 9006957 male
-2.693422 0.9218277 0.3426828 0.2487673 0.2206009 -0.9431066 2037520 male
-2.606134 0.4671087 0.3959545 0.7875925 -0.2863881 -0.5456005 9989487 male
-2.852869 0.6625293 0.3899153 -0.7441902 0.3869913 -0.5444435 8872021 male
-2.597252 -0.3378446 0.4834579 0.4840267 -0.2303495 0.8441903 7558490 male
-2.853315 0.4682906 0.4129525 -0.8852467 -0.2008598 -0.419516 9727075 male
-3.000626 0.3287247 0.6346548 -0.9490789 0.04265131 0.3121378 5192510 male
-2.737349 0.9811087 0.454831 -0.3869697 0.9109661 0.142812 2693400 male
-2.906951 -0.2414019 0.4719872 -0.8155863 -0.01659443 -0.5783974 5190702 male
-2.779657 0.2195059 0.5741182 -0.4346437 -0.0003254608 0.9006025 6316384 male
-2.973912 0.4755329 0.4319821 -0.9469237 0.3138917 0.06933703 6113084 male
-2.924985 0.3425357 0.6261294 0.2286853 -0.9420949 0.245276 6903384 male
-2.909429 -0.258223 0.5183067 -0.9091627 -0.1893232 0.3709176 7035226 male
-2.578906 0.2141741 0.4576344 0.9384647 -0.02158484 -0.3447 7239551 male
-2.888877 -0.06830911 0.5187511 -0.9843487 0.08053336 -0.1567545 8478816 male
-2.806673 -0.1084606 0.5630665 0.7199787 -0.3333997 0.6086669 6571594 male
-2.643234 0.881058 0.3950246 0.9280457 -0.1839251 -0.3238867 1050624 male
-2.844868 0.3146086 0.4266312 -0.8030604 0.1546282 -0.575486 6840932 male
-2.655997 0.7266365 0.406076 0.6428109 0.7087954 -0.2905223 7030849 male
-2.994232 0.3153294 0.6563779 -0.3666307 -0.8917136 -0.265384 396300 male
-2.594492 0.1997205 0.5442657 0.6504887 0.188511 0.73575 6776939 male
-2.529958 0.2606293 0.6135302 -0.9600301 0.2189303 -0.1743897 13147564 male
-2.680777 0.3600677 0.6173855 0.2766016 0.05958562 0.9591356 9268852 male
-2.687848 0.1123398 0.5744931 -0.4797264 -0.04604999 0.8762088 4933451 male
-2.893569 -0.09904145 0.5411388 -0.9699019 0.05286151 0.2376889 6309701 male
-2.593616 -0.3515109 0.4279448 0.801693 -0.1294074 -0.5835599 5917002 male
-2.693163 0.9362106 0.5177348 0.3102617 0.4470083 0.8390002 6572611 male
-2.86628 -0.07247978 0.4885416 -0.5944189 -0.01812523 -0.8039512 7821910 male
-2.60263 -0.1276157 0.5500019 0.7030387 -0.1926885 0.6845493 7096907 male
-2.860228 0.5316848 0.4819396 -0.9602014 0.05959507 0.2728765 6507590 male
-2.598665 -0.3882979 0.4133782 0.565235 -0.05387933 -0.8231685 5061179 male
-2.586234 -0.4076647 0.4723147 0.7907999 0.3873161 0.4739428 8808554 male
-2.928138 0.3405246 0.6141663 0.2467164 -0.9685603 0.03196681 5784131 male
-2.830231 -0.2993707 0.4897498 0.9676645 -0.2468865 -0.05169538 5454130 male
-2.505082 0.4003312 0.3929854 0.2386169 -0.6755142 -0.6976693 7491407 male
-2.623273 0.3554154 0.3952869 0.5274725 -0.1091996 -0.8425249 9726315 male
-2.671198 0.08612911 0.5770779 -0.3579486 -0.1047456 0.9278476 6249823 male
-2.601259 0.3908755 0.5348728 0.8686712 0.00919012 0.4953039 12755617 male
-2.663795 0.9642829 0.3937509 0.630847 0.7234441 -0.2804652 1313800 male
-2.907931 0.5807011 0.4131736 -0.6565094 -0.1164171 -0.7452801 7360839 male
-2.681397 0.8749971 0.3470914 0.425467 -0.2179546 -0.8783357 1380621 male
-2.746766 0.8557563 0.5325297 -0.3097242 0.1511039 0.9387431 9001815 male
-2.806657 -0.1230948 0.5152816 0.7798713 -0.2371981 -0.5792563 5719623 male
-2.900724 -0.1356868 0.5128855 -0.9261399 0.283661 -0.2485986 8545889 male
-2.811496 0.2939961 0.5672328 -0.6394027 -0.02220267 0.7685513 5724765 male
-2.804899 0.5096582 0.3549317 -0.4176895 -0.2498105 -0.8735732 10844531 male
-2.888614 -0.0075222 0.5176752 -0.9883673 -0.09468798 -0.1190138 7624531 male
-2.876831 -0.458551 0.4503884 0.06309508 -0.9678664 -0.2434207 5259839 male
-2.739397 0.8587557 0.3478749 -0.3510434 -0.2926185 -0.8894622 2431508 male
-2.695937 0.8764717 0.5273015 0.524148 0.3968692 0.753501 8081738 male
-2.703825 0.09854997 0.4303293 -0.6612549 -0.4226841 -0.6197419 6514027 male
-2.719705 0.2033163 0.6001323 0.1208508 0.04019776 0.9918565 7170925 male
-2.609821 -0.4656412 0.3998606 -0.3236838 -0.8432671 -0.4291031 2303008 male
-2.539241 0.3677412 0.4472836 -0.8635571 -0.4059588 -0.2991096 8085090 male
-2.738869 0.04007578 0.5072461 0.9719462 -0.2346007 0.01682556 3026479 male
-2.866227 -0.2598466 0.5382363 0.1988165 -0.2933174 0.9351133 5913666 male
-2.642236 0.3230881 0.3940036 0.3066263 -0.2122132 -0.9278717 8542296 male
-2.641613 0.6718483 0.4853634 0.4265259 0.629187 0.6497687 10255731 male
-2.653886 0.03510673 0.57542 -0.3029519 -0.1416121 0.9424257 7105644 male
-2.919793 0.4640682 0.4045557 0.3451474 -0.5776986 -0.7396876 8543064 male
