# .PCD v0.7 - Point Cloud Data file format
VERSION 0.7
FIELDS x y z normal_x normal_y normal_z rgb label
SIZE 4 4 4 4 4 4 4 4
TYPE F F F F F F U U
COUNT 1 1 1 1 1 1 1 1
WIDTH 132
HEIGHT 1
VIEWPOINT 0 0 0 1 0 0 0
POINTS 132
DATA ascii
-2.798419 0.4673668 0.5837417 -0.4964093 0.1524449 0.8545983 9796212 male
-2.891323 0.0448709 0.537584 -0.962565 0.0304031 0.2693404 8687244 male
-2.682673 0.1102097 0.5730461 -0.3501669 -0.07125209 0.9339734 5526868 male
-2.884713 -0.00208938 0.4907308 -0.9105763 -0.1069555 -0.3992635 8216672 male
-2.793701 0.4858963 0.5824223 -0.4082057 0.2189487 0.8862447 10059639 male
-2.635868 -0.3869165 0.4104989 -0.9158308 0.01333894 -0.4013427 7162182 male
-2.845004 0.6940027 0.4171098 -0.5924816 0.7918178 -0.1482905 7756109 male
-2.850435 0.5946327 0.496638 -0.8715448 -0.248353 0.4227652 7033930 male
-2.729845 0.8214967 0.5447224 -0.3978998 0.05455096 0.9158056 7557450 male
-2.579221 0.1887399 0.465198 0.9648733 0.03540973 -0.2603184 7237750 male
-2.859631 -0.3469485 0.5053501 0.6379968 0.01970541 0.7697868 8544353 male
-2.657628 0.8223515 0.4469979 0.9180271 -0.373092 -0.1342707 7358273 male
-2.652059 0.5672001 0.3349144 0.201732 -0.2291466 -0.9522584 10975861 male
-2.764741 0.487079 0.5919943 -0.1644351 0.3006458 0.9394537 10059640 male
-2.869551 0.2863602 0.4819052 -0.9369134 0.3238518 0.1315799 9541532 male
-2.819211 -0.1800079 0.4976363 0.9601384 0.1657471 -0.2250823 7032396 male
-2.700259 -0.04746896 0.4812682 -0.9750114 -0.09372817 -0.2014144 7031626 male
-2.930973 0.5704864 0.4469245 -0.9503323 0.2686554 -0.1571393 5980722 male
-2.699745 0.6316205 0.5373838 -0.002164359 0.4527666 0.8916265 9729387 male
-2.839468 0.4852072 0.5384818 -0.7975397 0.04332549 0.6017087 9730675 male
-2.761666 0.7718246 0.4814835 -0.846074 -0.04466554 0.5311909 9529184 male
-2.875238 0.09728219 0.5595587 -0.8082694 0.142081 0.5714136 4407875 male
-2.631563 -0.4587507 0.5462466 0.2135852 0.8857166 0.4121741 15451336 male
-2.556878 0.533188 0.395828 -0.2758221 -0.3994641 -0.8742715 11041649 male
-2.680256 0.02006773 0.5544429 -0.5904205 -0.1755303 0.7877771 6052442 male
-2.645411 0.232476 0.3773623 0.3687482 0.1362743 -0.9194858 6844017 male
-2.779875 0.4324144 0.3642687 -0.2179298 -0.2655613 -0.93914 11371132 male
-2.600005 0.3077708 0.5137179 0.881427 0.04174899 0.4704715 10979209 male
-2.580486 0.1439593 0.531037 0.9163669 0.07854361 0.3925589 9344927 male
-2.979996 0.3223391 0.5886848 -0.769384 0.4622785 0.4408479 6243658 male
-2.802505 0.610413 0.3356773 -0.3484059 0.09193186 -0.9328247 10844523 male
-2.613042 0.4603059 0.5373157 0.8203307 0.09062774 0.5646628 10847876 male
-2.919265 -0.197662 0.506797 -0.9964442 0.05656859 0.06244215 7428697 male
-2.951735 0.3185284 0.5266888 0.617932 -0.4700976 -0.6302129 5190446 male
-2.794002 0.862909 0.4346873 -0.6292093 0.1084649 0.7696304 8409422 male
-2.59224 0.5794631 0.4331609 -0.9709563 -0.2355338 0.04204425 5454138 male
-2.863198 0.1730019 0.5509447 -0.7195536 0.2603792 0.6437743 5527382 male
-2.886624 0.5225171 0.4290288 0.6785406 -0.4983472 -0.5396599 12100759 male
-2.587737 -0.1970818 0.4270729 0.6900479 0.1973096 -0.6963496 7163467 male
-2.705608 0.2598697 0.3751703 0.01483347 0.2716236 -0.9622893 9080978 male
-2.699032 0.1690817 0.3674522 -0.05875531 -0.1761095 -0.9826155 9345695 male
-2.515097 0.3130768 0.4754466 0.3346393 -0.6317236 -0.6992437 7230029 male
-2.63829 0.931676 0.4106536 0.9420897 0.2923521 -0.1643085 1248008 male
-2.742814 0.5252692 0.5788881 0.05832139 0.3424241 0.9377337 10060664 male
-2.785566 0.921972 0.4333903 -0.9837605 0.1794619 0.002935557 3614496 male
-2.610274 -0.234174 0.408825 0.2678052 0.03227383 -0.9629324 5190702 male
-2.564848 0.6513434 0.4690543 0.224842 0.1577736 0.9615371 11636616 male
-2.65772 0.05153058 0.4203503 -0.03440416 -0.2066746 -0.9778047 9344671 male
-2.699515 0.5008119 0.5877809 0.05219037 0.3670341 0.9287422 10059641 male
-2.59398 0.611869 0.4738655 0.6076983 -0.6444436 0.4641069 9269356 male
-2.832609 0.661225 0.3677431 -0.5759993 0.315588 -0.754075 9266778 male
-2.674829 0.1184592 0.5750355 -0.2554207 -0.009487715 0.9667835 5724509 male
-2.778068 0.006331597 0.4586158 0.6027301 -0.3310346 -0.7260389 7495524 male
-2.648602 0.240257 0.5657659 0.4803542 -0.1304663 0.8673168 7040371 male
-2.852197 0.6231889 0.4492258 -0.3804121 -0.6994082 0.6050742 7690068 male
-2.773139 0.9304475 0.3848314 -0.8577318 0.2631519 -0.4416414 1642768 male
-2.827285 -0.1138817 0.4969292 0.5197219 -0.03057658 -0.8537881 8347742 male
-2.618016 0.4899362 0.5404741 0.8036165 0.05651622 0.592458 10651009 male
-2.665053 0.7309483 0.448323 0.9591999 0.2358124 0.1559747 8215123 male
-2.885998 -0.4543934 0.4382817 -0.1910283 -0.734 -0.6517302 4799546 male
-2.864391 0.1102731 0.4420129 -0.7674491 -0.174118 -0.6170128 6908529 male
-2.632951 -0.4182039 0.467987 -0.8611998 0.3504106 0.3681676 9464693 male
-2.583945 -0.2966149 0.4649879 0.927019 -0.2283464 0.297479 7756637 male
-2.849391 0.6868382 0.4083263 -0.6717209 0.6739227 -0.3076024 7952202 male
-2.753853 0.01315985 0.4983396 0.9265448 -0.3476239 -0.143779 4997442 male
-2.561104 -0.468165 0.4691212 0.9114066 -0.1126586 -0.3957854 3943212 male
-2.539501 0.4882177 0.4117031 -0.6598983 0.3522912 0.6636454 7360076 male
-2.710222 0.6918078 0.5041329 0.07387157 0.4252994 0.9020329 8411734 male
-2.646133 0.03384225 0.5712822 -0.1285235 -0.1485544 0.9805169 7302769 male
-2.57955 -0.4563985 0.4142841 0.948938 -0.008063501 -0.3153597 7032145 male
-2.864805 0.6573714 0.4764223 -0.006404098 0.02046984 0.9997699 10322812 male
-2.918046 0.4002666 0.4647297 0.9663456 -0.2389234 0.09535123 6706519 male
-2.83676 0.5106547 0.5401594 -0.7780682 0.06114101 0.6251972 10059640 male
-2.694179 0.9247004 0.3458759 0.2283108 0.2230695 -0.9476888 2037520 male
-2.599081 0.4654302 0.4129744 0.8941939 -0.2520113 -0.3700102 10055280 male
-2.858711 0.6285233 0.3782732 -0.5161144 -0.02155095 -0.8562485 9463647 male
-2.595121 -0.3429497 0.4666794 0.8298514 -0.251729 0.497975 6178374 male
-2.855881 0.4719937 0.4139011 -0.8932777 -0.1889822 -0.4078488 9727075 male
-2.988922 0.3189365 0.6302473 -0.2789066 0.7967319 0.5361245 6704466 male
-2.734625 0.9838477 0.4593851 -0.3724609 0.9146628 0.1570507 2693400 male
-2.909222 -0.2400883 0.4687133 -0.8239001 -0.02713428 -0.5660852 5190702 male
-2.781739 0.2212269 0.571262 -0.4227534 -0.005376099 0.9062288 6316384 male
-2.973386 0.4795209 0.4317248 -0.9469576 0.2983349 0.1194469 6113084 male
-2.925581 0.3300539 0.6056828 -0.2693108 -0.9517432 0.147162 3615015 male
-2.910821 -0.2568276 0.515112 -0.9013565 -0.1987016 0.3848041 7035226 male
-2.578031 0.2032056 0.4717518 0.981358 0.01624767 -0.1915005 6908785 male
-2.890243 -0.08055182 0.5056146 -0.8515314 0.1141295 -0.5117311 7821139 male
-2.808639 -0.1061689 0.558421 0.7308647 -0.3292984 0.5978289 6571594 male
-2.643236 0.8830342 0.3967524 0.9175522 -0.1931613 -0.3475439 1050624 male
-2.848228 0.3177741 0.4254667 -0.8098757 0.1642073 -0.5631496 6840932 male
-2.657253 0.7290184 0.4073739 0.64255 0.7065287 -0.2965582 7030849 male
-2.99071 0.2926361 0.5945858 0.3914099 -0.9116961 -0.1249337 3941923 male
-2.572713 0.1463885 0.4908285 0.9990707 0.04131048 -0.01229162 9474712 male
-2.531028 0.2525561 0.6004826 -0.9828929 0.1176587 -0.141697 12226463 male
-2.694487 0.3897861 0.6152369 0.1220193 0.09623155 0.9878516 8940655 male
-2.690373 0.11352 0.5695848 -0.468583 -0.0508801 0.881953 4933451 male
-2.890017 -0.1060586 0.5528125 -0.9340619 0.04943001 0.3536736 6966606 male
-2.598375 -0.3349786 0.4213756 0.7821836 -0.1574996 -0.6028122 5651261 male
-2.68946 0.938066 0.520946 0.3360475 0.438374 0.8336068 6572611 male
-2.88448 -0.07451022 0.4996783 -0.786295 0.08412868 -0.6120968 7952210 male
-2.607351 -0.1264583 0.5413262 0.7097539 -0.1966118 0.6764563 7096907 male
-2.860065 0.5232992 0.490232 -0.9484932 0.05417401 0.312131 6572867 male
-2.612531 -0.3810359 0.4032013 0.4406587 -0.02809834 -0.8972349 5257783 male
-2.593478 -0.4069462 0.4648218 0.7981879 0.3886715 0.4602505 8808554 male
-2.923887 0.3301002 0.5911508 0.440897 -0.8971886 -0.02573607 6376269 male
-2.825686 -0.250703 0.5164214 0.752265 -0.2559233 0.6071249 6769742 male
-2.50959 0.409689 0.3791954 0.2050767 -0.6412296 -0.7394378 7489866 male
-2.629849 0.3780456 0.3889826 0.5788103 -0.03260651 -0.81481 8806236 male
-2.613734 0.0817027 0.5728402 0.4181401 -0.01097862 0.9083162 7565941 male
-2.608617 0.1798114 0.409173 0.7625054 -0.002193966 -0.6469782 6843248 male
-2.662795 0.9665021 0.3964343 0.6324589 0.7175132 -0.29184 1313800 male
-2.907897 0.6044091 0.4134105 -0.7512528 -0.09262753 -0.6534825 8675410 male
-2.682617 0.8777038 0.3497289 0.4012129 -0.2179621 -0.8896745 1380621 male
-2.747492 0.861966 0.5349143 -0.3766884 0.1942131 0.9057522 9067093 male
-2.833391 -0.06016077 0.4689443 0.1273008 -0.1943796 -0.972631 9730419 male
-2.900733 -0.1496799 0.4884754 -0.7568384 0.3838591 -0.5290064 7163716 male
-2.813112 0.295765 0.5654006 -0.6292846 -0.02536466 0.7767609 5724765 male
-2.808171 0.5138831 0.3557368 -0.4339592 -0.2346054 -0.8698503 10844531 male
-2.890629 -0.01148835 0.516177 -0.9898964 -0.1071075 -0.09291447 7361103 male
-2.890017 -0.4572019 0.4464118 -0.2174698 -0.8983749 -0.3816141 5523267 male
-2.740777 0.8621462 0.3518385 -0.3761208 -0.2833061 -0.8821965 2431508 male
-2.684163 0.8762434 0.5272005 0.3616318 0.3241504 0.8741562 8344399 male
-2.711188 0.1165498 0.4125291 -0.6227089 -0.5928109 -0.5106945 5855585 male
-2.716895 0.2065348 0.5955051 0.2156553 0.02932155 0.9760292 7171957 male
-2.618374 -0.4655991 0.3931646 -0.3322323 -0.8464629 -0.4160796 2303008 male
-2.534648 0.3819041 0.4083475 -0.5457053 -0.6073158 -0.5773848 10254715 male
-2.741707 0.04238685 0.5027626 0.9725957 -0.2324892 0.002522456 3026479 male
-2.86731 -0.2579156 0.5343979 0.2161108 -0.2888002 0.9326792 5913666 male
-2.586585 0.3553068 0.4551859 0.9890386 0.06738706 -0.1313836 5914946 male
-2.635155 0.6561726 0.4946002 0.3684164 0.5365719 0.7591837 9334629 male
-2.656977 0.03609787 0.5694218 -0.2917602 -0.1467899 0.9451607 7105644 male
-2.91755 0.483576 0.4068057 0.2345848 -0.4299634 -0.8718379 7095874 male
