# .PCD v0.7 - Point Cloud Data file format
VERSION 0.7
FIELDS x y z normal_x normal_y normal_z rgb label
SIZE 4 4 4 4 4 4 4 4
TYPE F F F F F F U U
COUNT 1 1 1 1 1 1 1 1
WIDTH 132
HEIGHT 1
VIEWPOINT 0 0 0 1 0 0 0
POINTS 132
DATA ascii
-2.855145 0.4897406 -0.453554 -0.4071777 0.1924057 0.892853 10322554 male
-2.953896 0.04807793 -0.4971814 -0.9550939 0.03627149 0.294075 8687244 male
-2.717747 0.08412483 -0.4676895 -0.1930403 -0.08298489 0.9776753 6645354 male
-2.948603 -0.005428187 -0.5418221 -0.9292105 -0.105073 -0.3542987 8281948 male
-2.84124 0.3307844 -0.4323148 -0.5118215 -0.1137193 0.8515319 8479336 male
-2.702482 -0.3694619 -0.6080481 -0.9974489 -0.06888271 0.01873034 9267820 male
-2.900005 0.7022875 -0.6167827 -0.6113323 0.7825239 -0.1180217 8084818 male
-2.907345 0.6315429 -0.5417106 -0.4190029 -0.3407303 0.841629 10586239 male
-2.7965 0.8474938 -0.4877791 -0.5016853 -0.0418502 0.8640372 7293766 male
-2.64593 0.1633659 -0.5902467 0.9235174 0.02950871 -0.3824197 7040371 male
-2.914627 -0.3506908 -0.5336575 0.8926054 0.01230262 0.4506708 8676715 male
-2.724224 0.8298718 -0.599029 0.9340582 -0.3346099 -0.1247856 6897978 male
-2.70668 0.6226149 -0.6995701 0.4338526 0.1032699 -0.895046 9398622 male
-2.801585 0.3184921 -0.4227911 -0.03011661 -0.1693944 0.9850881 9532021 male
-2.933084 0.2908782 -0.5743983 -0.9533253 0.2925222 -0.0748445 9342869 male
-2.887051 -0.1609642 -0.5375751 0.8983081 0.1654822 -0.4070113 7032652 male
-2.752909 -0.05510778 -0.5821117 -0.8332533 -0.06520091 -0.5490334 8609373 male
-2.998951 0.5562569 -0.5878655 -0.9326479 0.3602467 -0.01975237 7427661 male
-2.670032 0.5077782 -0.5126037 0.8603809 -0.04241331 0.5078837 11374220 male
-2.915359 0.5083157 -0.5208354 -0.8791111 0.03721708 0.4751615 9072233 male
-2.831741 0.7838635 -0.5583399 -0.8979263 -0.106787 0.4269953 8805204 male
-2.936915 0.1004708 -0.4761815 -0.7921768 0.1483454 0.5919877 4407875 male
-2.677152 -0.4471063 -0.5012285 0.1402757 0.9069821 0.3971223 13279402 male
-2.622902 0.5076764 -0.6663212 -0.5302491 -0.1942086 -0.8252993 7883591 male
-2.701143 0.01818972 -0.4755084 -0.03082822 -0.1792334 0.9833235 7566715 male
-2.73404 0.2560631 -0.66514 0.102258 0.257706 -0.960797 8488074 male
-2.840221 0.4181595 -0.6673176 -0.1742867 -0.2618913 -0.9492298 11042678 male
-2.656646 0.3236171 -0.5312159 0.9332457 -0.14894 0.3269087 10978182 male
-2.656507 0.1630357 -0.4961694 0.7330427 0.2006153 0.6499246 6317161 male
-3.031424 0.3098862 -0.4822111 -0.5285167 0.5891213 0.6112333 6309194 male
-2.870802 0.6049711 -0.6957216 -0.3634718 0.03115947 -0.931084 10843499 male
-2.684555 0.4246855 -0.4753568 0.7649757 0.04065384 0.6427748 10847876 male
-2.981777 -0.1941611 -0.5394789 -0.9814569 0.1128545 -0.1549393 7362903 male
-3.009775 0.3036943 -0.5359689 0.8502735 -0.3532464 -0.3901947 6702917 male
-2.863958 0.8565858 -0.5962941 -0.1150961 0.5378088 0.8351734 10445917 male
-2.655063 0.5738611 -0.6084308 -0.9375453 -0.2345811 0.2568668 7557970 male
-2.92774 0.1967421 -0.4986249 -0.7376773 0.2429326 0.6299333 5856354 male
-2.945901 0.5101467 -0.6118994 0.8677899 -0.3282878 -0.3730519 9204587 male
-2.632894 -0.2491503 -0.587455 0.9905943 -0.129539 0.04407521 8479073 male
-2.708786 0.2497222 -0.6614844 0.3239188 0.1767687 -0.9294243 7172728 male
-2.800948 0.2028969 -0.6724277 -0.04505432 -0.003988702 -0.9989766 9081240 male
-2.561522 0.3259147 -0.6062434 0.7006689 -0.4093854 -0.5843515 7097931 male
-2.709269 0.9366513 -0.6249197 0.9260023 0.3170934 -0.2048694 1248008 male
-2.775408 0.508581 -0.4515135 0.0683245 0.3654716 0.9283116 9468022 male
-2.855077 0.9229836 -0.595823 -0.9871559 0.1530339 0.04586897 3614496 male
-2.649571 -0.2494167 -0.6281385 0.6679476 -0.06528388 -0.7413392 6046267 male
-2.621227 0.6542106 -0.5803004 0.4290589 0.16005 0.8889839 11504774 male
-2.721631 0.01241284 -0.618064 -0.1785544 -0.1197178 -0.9766196 8412508 male
-2.846297 0.634685 -0.4998641 -0.1742231 0.5734164 0.8005248 9532272 male
-2.656219 0.565728 -0.5416458 0.9499135 -0.05429086 0.3077611 9136226 male
-2.891443 0.6481956 -0.673019 -0.5345019 0.1348341 -0.8343426 9727331 male
-2.709063 0.1162428 -0.4656137 -0.0012472 0.05384821 0.9985483 6316130 male
-2.936357 0.1902676 -0.5790042 -0.9342288 0.1115872 -0.3387694 7895681 male
-2.700047 0.2295357 -0.4840661 0.4760831 -0.03409693 0.878739 8620435 male
-2.91175 0.6256264 -0.5698409 0.8372321 -0.3517941 0.4186685 5916481 male
-2.845007 0.9318063 -0.6448609 -0.8828595 0.2401786 -0.4035758 1642768 male
-2.888842 -0.1338654 -0.5356446 0.7413893 0.05184036 -0.6690698 6836564 male
-2.780279 0.5373663 -0.4626553 0.07279561 0.3534592 0.9326133 10059382 male
-2.730232 0.7283193 -0.574296 0.9249574 0.2336132 0.2997977 8412502 male
-2.961308 -0.4595495 -0.5652963 -0.2206103 -0.9439597 -0.2455018 5459275 male
-2.922374 0.09504928 -0.5984777 -0.6760877 -0.2262384 -0.7012287 6579052 male
-2.685868 -0.4255399 -0.5593002 -0.8079395 0.4769191 0.3460953 8674667 male
-2.655649 -0.316076 -0.6237571 0.7252582 -0.1716529 -0.6667352 5455162 male
-2.903161 0.6957316 -0.6283199 -0.6351368 0.6937093 -0.3396597 8214603 male
-2.81065 0.03817861 -0.5522273 0.9092937 -0.3144 -0.2726492 5264469 male
-2.612284 -0.4708522 -0.5555409 0.6782841 -0.6411421 -0.3589811 5389369 male
-2.634175 0.4976633 -0.6496313 -0.9579142 -0.1024683 0.2681428 9398630 male
-2.751882 0.6354687 -0.4997278 0.07365923 0.4861049 0.8707907 9466215 male
-2.764607 -0.02760207 -0.5470858 -0.9748325 -0.159561 0.155698 6703941 male
-2.636511 -0.4573092 -0.6271743 0.921924 -0.009231829 -0.3872608 7031114 male
-2.912229 0.6382756 -0.5625479 0.644712 -0.2985245 0.7037254 8874342 male
-2.982187 0.4081018 -0.6247044 0.6179749 -0.6009613 -0.5069049 7296086 male
-2.851954 0.5252553 -0.4609783 -0.2817681 0.1873637 0.941011 9598061 male
-2.76769 0.9281993 -0.6872219 0.1807395 0.2294987 -0.9563804 2037520 male
-2.66916 0.4951911 -0.6504952 0.7680845 -0.2336069 -0.5962164 10121073 male
-2.910884 0.6765 -0.6414787 -0.7134933 0.4525402 -0.5349154 8674899 male
-2.6538 -0.3573666 -0.5831556 0.9332452 -0.1703376 0.3162886 7559514 male
-2.911491 0.5006265 -0.639102 -0.8168802 -0.19268 -0.5436738 10252138 male
-3.057496 0.2908083 -0.4434867 -0.6351116 0.5069764 0.5827591 5915719 male
-2.804728 0.9861926 -0.5719773 -0.3898451 0.9042663 0.174136 2693400 male
-2.978759 -0.2575721 -0.5496462 -0.969532 -0.1179325 -0.2147082 5324345 male
-2.856999 0.240353 -0.4709122 -0.414241 -0.08008999 0.9066367 6119263 male
-3.031224 0.4788361 -0.6265246 -0.9508933 0.04939749 -0.3055517 6242101 male
-2.979611 0.3121118 -0.4553711 0.9570805 -0.2774038 -0.08392954 6245202 male
-2.976808 -0.2589621 -0.5243676 -0.942929 -0.1743966 0.2836735 6114124 male
-2.641253 0.1892091 -0.5737628 0.973722 0.04605826 -0.2230341 7698815 male
-2.946815 -0.09345654 -0.5386768 -0.6544256 0.1491653 -0.7412671 8083802 male
-2.870025 -0.09347391 -0.4782301 0.770212 -0.3036045 0.5608901 5914689 male
-2.708895 0.8877941 -0.6254084 0.9516786 -0.1622044 -0.2607633 919042 male
-2.899769 0.3352539 -0.6251889 -0.6649312 -0.05554213 -0.7448366 8742244 male
-2.722394 0.7323688 -0.6182762 0.7342474 0.6710308 -0.1029482 9726820 male
-3.054244 0.2773001 -0.4417874 -0.2117621 -0.8441526 -0.4925071 5918030 male
-2.665451 0.1921463 -0.4987892 0.6117624 0.22532 0.7582729 6908011 male
-2.557424 0.2587243 -0.5231633 -0.4942985 -0.6415632 -0.586571 10120821 male
-2.723935 0.3583199 -0.4326512 0.5194176 0.01537461 0.8543822 9400694 male
-2.7273 0.1162641 -0.4671449 -0.1734048 -0.007323879 0.9848234 5855580 male
-2.953081 -0.1026477 -0.4836249 -0.9242597 0.06084985 0.3768837 6966606 male
-2.646753 -0.3119029 -0.610511 0.9090843 -0.2020429 -0.3643412 5783102 male
-2.72982 0.9243375 -0.5234221 0.7590919 0.316207 0.5690278 8148563 male
-2.954144 -0.08039106 -0.5309997 -0.8497509 0.1072974 -0.51615 8018776 male
-2.652556 -0.1380585 -0.5317749 0.9177681 -0.07192481 0.3905489 8478303 male
-2.925997 0.5599559 -0.6286254 -0.8530569 -0.3633192 -0.3745573 10253675 male
-2.691863 -0.2483846 -0.5496947 -0.3137112 -0.1945267 0.9293786 6506826 male
-2.64204 -0.407681 -0.593468 0.9873414 0.1045946 0.1192345 9927808 male
-2.996319 0.3083754 -0.4756831 0.005083793 -0.9940132 0.1091419 6113355 male
-2.889848 -0.2492163 -0.5168045 0.7662199 -0.2273753 0.6010054 6769742 male
-2.583283 0.402448 -0.6778584 0.1052311 -0.5616047 -0.8206866 7361107 male
-2.67286 0.3694 -0.633182 0.7554401 0.1142053 -0.6451879 8674912 male
-2.652088 0.06842525 -0.4903855 0.7761254 -0.02490506 0.6300866 6580334 male
-2.686003 0.1708571 -0.6462755 0.6470595 -0.005437879 -0.7624201 6711406 male
-2.735272 0.9708083 -0.638011 0.599514 0.7345299 -0.3178819 1313800 male
-2.976326 0.6043416 -0.6142288 -0.8289421 0.02078315 -0.5589482 7689543 male
-2.754725 0.8815261 -0.6839464 0.3676557 -0.2070121 -0.9066285 1380621 male
-2.808914 0.8561027 -0.4945688 -0.287368 0.1013579 0.9524422 8673622 male
-2.88814 -0.06174536 -0.5651118 0.2635791 -0.2281233 -0.9372758 9334893 male
-2.971593 -0.1456916 -0.5290539 -0.9431787 0.2743464 -0.1874781 9136741 male
-2.865339 0.3079637 -0.4598036 -0.6127988 -0.1111145 0.7823882 6646120 male
-2.860083 0.5047191 -0.6810994 -0.3610283 -0.2350621 -0.9024436 9988451 male
-2.954021 -0.008405819 -0.5185983 -0.9923985 -0.1032942 -0.06689968 7361103 male
-2.983803 -0.4531015 -0.543951 -0.8312976 -0.3352472 -0.4433438 6704199 male
-2.812302 0.8644233 -0.6793298 -0.4065769 -0.2929051 -0.8653911 2431508 male
-2.739855 0.8791178 -0.5105128 0.4954915 0.2636629 0.8276292 8673879 male
-2.77387 0.1261822 -0.6423622 -0.4851584 -0.721379 -0.4942 8357004 male
-2.774802 0.2306753 -0.4446105 0.2230693 -0.07377975 0.9720065 7041395 male
-2.654287 -0.4639464 -0.6497465 0.3779702 -0.598858 -0.7060508 2496533 male
-2.606787 0.3701364 -0.6210716 -0.9761873 -0.2167493 0.008833458 7692639 male
-2.805089 0.04463969 -0.5359489 0.9711921 -0.2372085 -0.02276065 3026479 male
-2.920512 -0.2835745 -0.5091326 0.3454109 -0.2408936 0.9070069 7097670 male
-2.651733 0.3771103 -0.5672939 0.9972224 0.07061912 -0.02367398 10582907 male
-2.77987 0.7285252 -0.5311853 0.07898436 -0.1875147 0.979081 10057584 male
-2.768781 0.04321798 -0.5109388 -0.8004925 -0.2368879 0.5505415 4867394 male
-2.98209 0.4505241 -0.6496084 0.3628118 -0.5994592 -0.7134537 8608600 male
