# .PCD v0.7 - Point Cloud Data file format
VERSION 0.7
FIELDS x y z normal_x normal_y normal_z rgb label
SIZE 4 4 4 4 4 4 4 4
TYPE F F F F F F U U
COUNT 1 1 1 1 1 1 1 1
WIDTH 132
HEIGHT 1
VIEWPOINT 0 0 0 1 0 0 0
POINTS 132
DATA ascii
-2.86771 0.4834544 -0.4725998 -0.3415568 0.168991 0.9245437 10322554 male
-2.968275 0.0452583 -0.4897788 -0.8366414 0.07773547 0.5422069 5331545 male
-2.729073 0.1031756 -0.4946856 -0.04509563 0.0009799972 0.9989822 6316901 male
-2.976089 0.03792726 -0.5485802 -0.9689987 -0.0476061 -0.2424361 7632505 male
-2.853132 0.3271568 -0.455719 -0.4530306 -0.1163707 0.8838672 8479336 male
-2.723765 -0.3493131 -0.6280356 -0.9762858 -0.1843385 0.1135141 7624019 male
-2.913626 0.6852613 -0.5813937 -0.008891528 0.7906786 0.6121669 8677731 male
-2.899932 0.6145912 -0.5227081 -0.3766822 0.2668926 0.887062 10518902 male
-2.825841 0.8651274 -0.5108946 -0.2838685 0.2742209 0.9188154 8673106 male
-2.670121 0.1603222 -0.6250618 0.8944604 0.03283413 -0.44594 7040371 male
-2.94458 -0.3417459 -0.5400921 0.9097725 -0.02071573 0.4145901 8676715 male
-2.747145 0.8098864 -0.6005309 0.9484711 -0.3101462 -0.06490023 7160636 male
-2.742877 0.5659159 -0.7268159 0.1728221 -0.2327118 -0.9570673 10975605 male
-2.807994 0.307386 -0.4505554 0.03942496 -0.1712959 0.9844306 9269620 male
-2.951913 0.2869661 -0.5680831 -0.9142172 0.3337745 0.2297854 9541532 male
-2.932907 -0.0742621 -0.5595881 0.07119627 -0.1898528 -0.9792278 9203051 male
-2.768989 -0.03803683 -0.6117058 -0.7953264 -0.1736391 -0.58078 9202027 male
-3.015618 0.5715784 -0.5862995 -0.9325831 0.3483325 0.09462114 7560530 male
-2.791273 0.6653902 -0.5383399 0.1513485 0.4960809 0.8549839 7689807 male
-2.906368 0.502732 -0.5023107 -0.678387 0.04223255 0.73349 9730932 male
-2.851358 0.774053 -0.5730492 -0.8620148 -0.05385714 0.5040138 9002839 male
-2.918546 0.126369 -0.469856 -0.3118002 0.2423592 0.9187179 6513252 male
-2.691948 -0.450588 -0.5182068 0.1101774 0.9130872 0.3925973 15320781 male
-2.650448 0.5394884 -0.6914692 -0.3214869 -0.3170415 -0.8922617 11041906 male
-2.774818 -0.03927174 -0.5553305 -0.8902215 -0.163223 0.425281 5388344 male
-2.762492 0.2571357 -0.6931669 0.03524399 0.2590608 -0.9652177 8553867 male
-2.874511 0.4352511 -0.6908585 -0.3254359 -0.230242 -0.9171042 11371132 male
-2.667592 0.2818903 -0.610863 0.9267807 0.3543022 -0.1246893 6712175 male
-2.697291 0.1582345 -0.5115036 0.4501709 0.2755571 0.8493612 7171957 male
-3.082438 0.2967289 -0.4627409 -0.896708 0.1493593 0.4166613 5784132 male
-2.899913 0.6241487 -0.7071785 -0.4792871 0.1845677 -0.8580318 10252643 male
-2.689857 0.4397147 -0.529958 0.8668581 0.08010383 0.4920776 10980230 male
-2.973084 -0.1799609 -0.5736703 -0.226223 0.2650943 -0.937309 7953235 male
-3.043108 0.2904724 -0.5072019 0.8946123 -0.4438683 0.05147554 4863025 male
-2.869784 0.8531214 -0.5822104 -0.9509959 -0.04654079 0.3056809 7556426 male
-2.685863 0.5954117 -0.6523095 -0.9525476 -0.2801077 0.1191334 6046266 male
-2.961649 0.146878 -0.5984493 -0.9375949 0.0276244 -0.3466306 7172469 male
-2.96644 0.5580342 -0.6278346 0.3108877 -0.553864 -0.7723882 8280406 male
-2.680133 -0.2420718 -0.5646056 0.1241294 -0.2028203 0.9713165 6572875 male
-2.812913 0.2838995 -0.6829776 -0.09117029 0.2915977 -0.9521863 8356231 male
-2.814986 0.2176119 -0.6986935 -0.1301838 0.1093662 -0.9854396 8949136 male
-2.580034 0.3243671 -0.6321812 0.8693181 -0.3146471 -0.3811603 6967369 male
-2.74098 0.9102417 -0.6682192 0.8388116 0.0009282482 -0.544421 1050116 male
-2.857973 0.6192014 -0.5076573 -0.1041069 0.5173381 0.8494251 9334635 male
-2.875861 0.9203002 -0.6020706 -0.9789792 0.1565672 0.1307151 3614496 male
-2.655004 -0.2507631 -0.6399495 0.8298055 -0.07091849 -0.5535281 5521212 male
-2.636391 0.6547965 -0.6185023 0.651769 0.3771657 0.6579842 11043961 male
-2.714268 0.05519669 -0.6482744 0.2618039 -0.159801 -0.9517995 7304576 male
-2.86447 0.6419249 -0.5251777 -0.1049451 0.5651191 0.8183074 9466219 male
-2.672316 0.5363367 -0.5856562 0.9787253 -0.01760881 0.2044182 7688782 male
-2.923741 0.6728756 -0.668059 -0.6401827 0.4513896 -0.6216217 8805970 male
-2.694694 0.0938053 -0.5006471 0.4004876 0.0450683 0.9151931 7237746 male
-2.959725 0.1483477 -0.6026112 -0.9284979 0.01607137 -0.3709897 7106676 male
-2.676054 0.2201198 -0.5446627 0.7170093 0.1340644 0.68405 6975346 male
-2.935891 0.6194511 -0.5894125 -0.314617 -0.7291892 0.6077001 7690068 male
-2.869652 0.9309019 -0.6513821 -0.909727 0.2606241 -0.3232212 1642768 male
-2.933275 -0.06119844 -0.568183 -0.06986596 -0.2085114 -0.9755213 9598833 male
-2.801926 0.5237032 -0.4812382 0.1603595 0.3282833 0.9308679 10257018 male
-2.751191 0.7245323 -0.596692 0.9455689 0.2229979 0.2370047 8412502 male
-3.008884 -0.4390408 -0.5707394 -0.8723149 -0.2144182 -0.4394218 6901584 male
-2.864529 0.001365013 -0.5838948 0.6272227 -0.4031606 -0.6663731 7495008 male
-2.697019 -0.4270072 -0.5808585 -0.794383 0.4637606 0.3922776 8674667 male
-2.681857 -0.3156102 -0.6548444 0.3562977 -0.1244773 -0.9260439 4863025 male
-2.918978 0.6994066 -0.6098562 -0.3582898 0.894574 0.2671434 9730674 male
-2.840605 0.06892943 -0.610761 0.6476283 -0.3903399 -0.6543794 4015947 male
-2.638255 -0.4731852 -0.6092978 0.4371403 -0.7984345 -0.4140177 3743770 male
-2.656502 0.5006468 -0.6701866 -0.8496777 -0.08315656 0.5207042 8872034 male
-2.766773 0.6051627 -0.509454 -0.01189343 0.3791839 0.9252449 9532264 male
-2.70695 0.0252572 -0.5016905 0.1433282 -0.1358771 0.9803033 6711406 male
-2.65098 -0.4577681 -0.6513398 0.8988146 0.00785766 -0.4382587 7031114 male
-2.946637 0.6509369 -0.5609069 0.06580934 -0.04099961 0.9969895 10322812 male
-3.02178 0.3818294 -0.5372341 0.8724847 0.2707439 0.4067777 7427666 male
-2.942641 0.5082209 -0.5592026 -0.9288248 0.02526523 0.3696567 6308929 male
-2.795997 0.9284534 -0.6999096 0.1058916 0.2643895 -0.958585 2037520 male
-2.675969 0.4413781 -0.6154605 0.9849367 -0.08769438 -0.1490285 9267560 male
-2.92728 0.6918896 -0.6455507 -0.6541146 0.6443472 -0.3961702 7688775 male
-2.660273 -0.3087292 -0.5985724 0.8786578 -0.1989701 0.4340177 7690585 male
-2.94307 0.4760582 -0.6347061 -0.9245616 -0.1797736 -0.3359573 9726307 male
-3.080487 0.2995744 -0.4392374 -0.9262532 0.02251088 0.376229 4993588 male
-2.823247 0.9822637 -0.5800217 -0.3667364 0.8992684 0.2383709 2693400 male
-3.00883 -0.2476314 -0.5465125 -0.9780627 -0.09856732 -0.1835147 5324345 male
-2.856019 0.2220581 -0.4889539 -0.3275656 0.01658832 0.9446828 6316384 male
-3.060399 0.4788358 -0.6079955 -0.9318451 0.320683 0.1697855 6113084 male
-3.013658 0.3112704 -0.4436454 -0.2941968 -0.9382108 0.1822324 4798521 male
-3.007531 -0.236044 -0.5547001 -0.9178936 -0.04220789 -0.3945754 4863535 male
-2.664562 0.1863851 -0.6093884 0.9556091 0.05118593 -0.2901572 7698815 male
-2.983683 -0.06934437 -0.5186688 -0.9792902 0.131536 -0.1539121 8543323 male
-2.905321 -0.07147033 -0.4632763 0.562106 -0.1709741 0.8092 5583924 male
-2.743363 0.8715645 -0.659992 0.8266726 -0.2490684 -0.5045567 1379597 male
-2.929285 0.3175105 -0.63713 -0.7587801 0.1788507 -0.6263108 6776167 male
-2.746602 0.7297515 -0.6409998 0.7275118 0.6718761 -0.1389572 9726820 male
-3.070624 0.2802495 -0.4162369 0.2207394 -0.7843728 -0.5796839 6967377 male
-2.698582 0.1863454 -0.5209256 0.481266 0.2746122 0.832449 7304311 male
-2.605781 0.2730606 -0.5684919 -0.9037279 -0.3438758 -0.2550007 6898503 male
-2.713137 0.2977069 -0.5035576 0.7581776 -0.171026 0.6292193 7894140 male
-2.712978 0.09729126 -0.4959191 0.1414439 0.01785727 0.9897852 7632250 male
-2.987245 -0.1083685 -0.4872045 -0.9439808 0.06003739 0.3244931 7361876 male
-2.656411 -0.3072703 -0.616791 0.982795 -0.1846817 -0.00256953 8085859 male
-2.738865 0.9098045 -0.5484512 0.9171907 0.159957 0.3649315 8806234 male
-2.967181 -0.07280423 -0.5424624 -0.6899055 0.0421427 -0.7226717 7689556 male
-2.669799 -0.1316063 -0.5475208 0.8908864 -0.09748206 0.4436425 9463143 male
-2.949159 0.5469767 -0.5927706 -0.9424213 -0.09443169 0.3208188 8082770 male
-2.693158 -0.2786317 -0.5745826 -0.1443831 -0.234036 0.9614472 5520188 male
-2.685434 -0.4030503 -0.5846689 -0.1934146 0.5484579 0.8135015 11701137 male
-3.007563 0.3195578 -0.4604517 0.9379798 0.125629 -0.3231273 6702923 male
-2.921511 -0.2692437 -0.550689 0.9349698 -0.2371374 -0.263813 5190707 male
-2.605187 0.3963515 -0.7101833 0.1524769 -0.5891038 -0.7935412 7032913 male
-2.681392 0.3630685 -0.6442518 0.8916418 0.1369945 -0.4315176 8082772 male
-2.768637 0.07423875 -0.5095348 -0.4791462 -0.1795055 0.8591838 4935244 male
-2.76638 0.1414123 -0.6949367 0.02879712 -0.322913 -0.9459904 8358288 male
-2.77445 0.9854679 -0.6173613 0.4005791 0.9121845 -0.08634653 4731947 male
-2.996877 0.5816075 -0.6241167 -0.71443 -0.02494917 -0.699262 7360839 male
-2.780721 0.8955957 -0.699692 0.314019 -0.04984306 -0.9481074 1184010 male
-2.831026 0.8499804 -0.5102075 -0.4398957 0.04410411 0.8969653 8738387 male
-2.964407 -0.01457518 -0.5637899 -0.8353649 -0.1131444 -0.5379254 8545121 male
-2.999974 -0.1381431 -0.5199623 -0.9469746 0.2915949 -0.1349497 9136741 male
-2.87392 0.2820817 -0.4851003 -0.4548522 -0.1096719 0.8837883 6644838 male
-2.903153 0.5164723 -0.6923732 -0.5322244 -0.2045034 -0.8215325 10844531 male
-2.977104 -0.007617733 -0.5101113 -0.9810095 -0.07000359 0.1808863 8940649 male
-3.021243 -0.446267 -0.5405954 -0.8168958 -0.1689951 -0.5514724 6375495 male
-2.840381 0.8646508 -0.6908681 -0.4765196 -0.258223 -0.8403868 2431508 male
-2.734589 0.8741677 -0.5533696 0.9342427 0.06453703 0.3507499 8673618 male
-2.790557 0.1069287 -0.6594812 -0.5202252 -0.6142899 -0.5933074 6383469 male
-2.783515 0.2042335 -0.4735273 0.433845 0.008190352 0.9009503 7566715 male
-2.684457 -0.4712225 -0.6347538 -0.1615541 -0.9852753 0.05597268 4863801 male
-2.625949 0.3575025 -0.6321276 -0.9850038 -0.01006162 0.1722388 10058110 male
-2.823894 0.07161208 -0.5794714 0.9406785 -0.2037418 -0.2713174 6316904 male
-2.949151 -0.2764069 -0.5102184 0.3789325 -0.2999306 0.8754723 7097670 male
-2.817974 0.4669265 -0.7007378 -0.2207268 -0.2368661 -0.9461364 10780530 male
-2.838254 0.7274207 -0.5601329 -0.6277006 -0.07087528 0.7752217 10845555 male
-2.783834 0.02408773 -0.5403168 -0.8020123 -0.2491211 0.5428765 4998464 male
-2.997869 0.5223637 -0.6243498 -0.06136032 -0.3175276 -0.9462616 8016969 male
