# .PCD v0.7 - Point Cloud Data file format
VERSION 0.7
FIELDS x y z normal_x normal_y normal_z rgb label
SIZE 4 4 4 4 4 4 4 4
TYPE F F F F F F U U
COUNT 1 1 1 1 1 1 1 1
WIDTH 132
HEIGHT 1
VIEWPOINT 0 0 0 1 0 0 0
POINTS 132
DATA ascii
-2.793963 0.4610659 0.6017846 -0.5491847 0.1406765 0.8237756 9598321 male
-2.877388 0.04257623 0.5381472 -0.982222 0.01052664 0.187428 8687244 male
-2.691036 0.1006491 0.5790682 -0.6857875 -0.1426568 0.7136838 4672079 male
-2.865936 -0.002990388 0.4903338 -0.8717107 -0.1076254 -0.4780558 8216672 male
-2.779635 0.3532771 0.6199345 -0.6084273 -0.001919446 0.7936072 8940137 male
-2.598019 -0.3790462 0.4308773 -0.7352977 0.0009433426 -0.6777436 6569274 male
-2.819665 0.6900367 0.3991978 -0.5400755 0.5898501 -0.6003293 8082762 male
-2.845948 0.6022084 0.47133 -0.7304699 -0.4958113 0.4696647 7363927 male
-2.727736 0.8385434 0.5593023 -0.5599624 0.103307 0.8220522 7095875 male
-2.561955 0.2169292 0.521755 0.9834467 0.05718623 0.1719368 9936295 male
-2.830183 -0.3567438 0.496676 0.8411043 0.004812049 0.5408515 8676715 male
-2.650966 0.8255157 0.4649559 0.9299989 -0.3607118 -0.07063374 7358273 male
-2.627154 0.5996226 0.3572584 0.410296 0.01434441 -0.9118396 10121829 male
-2.761263 0.4897136 0.610422 -0.2210953 0.3071031 0.9256374 10059640 male
-2.854308 0.2870304 0.4691841 -0.9472797 0.2695999 -0.1731391 9342869 male
-2.801648 -0.1665614 0.4971137 0.9356058 0.1677038 -0.3106723 7032652 male
-2.672036 -0.05609411 0.4850265 -0.8317931 -0.0650098 -0.5512657 8478045 male
-2.927464 0.5578985 0.4514861 -0.9214117 0.3728429 -0.109493 7427661 male
-2.69492 0.6350968 0.5570145 -0.05037447 0.4668818 0.8828838 9729387 male
-2.807694 0.5034921 0.5826197 -0.5868648 0.138527 0.7977468 9993847 male
-2.761212 0.7842712 0.4854617 -0.9357848 -0.08702777 0.341662 8805204 male
-2.877379 0.07258624 0.5158963 -0.9987531 0.02100725 -0.04528921 6645352 male
-2.61481 -0.4480868 0.5711467 -0.2770712 0.8681619 0.411736 16772087 male
-2.547349 0.5086479 0.4142811 -0.5083393 -0.252305 -0.8233671 8673618 male
-2.688428 -0.004502147 0.5219655 -0.958117 -0.2364017 0.1616356 3942955 male
-2.644475 0.2363067 0.3943967 0.2344305 0.2064987 -0.9499477 8028291 male
-2.756069 0.4154889 0.3859623 -0.07144488 -0.2772694 -0.9581322 11042678 male
-2.606626 0.3409487 0.5753286 0.7568345 -0.07430944 0.6493687 11899540 male
-2.567612 0.1482258 0.5575973 0.8865584 0.09467827 0.4528247 9344927 male
-2.961829 0.3196165 0.5691481 -0.4193501 0.5760467 0.7016521 7033170 male
-2.787247 0.6002278 0.3505762 -0.2729835 0.001522049 -0.9620175 10843499 male
-2.606384 0.4648598 0.5643996 0.7861649 0.1092116 0.6082907 10847876 male
-2.85236 -0.1965217 0.4492172 -0.08981728 0.214337 -0.9726214 7953235 male
-2.948461 0.3012301 0.5241504 0.8443137 -0.5356438 -0.01483364 5518899 male
-2.789502 0.8633941 0.4396024 -0.8797209 0.05554601 0.4722349 9328210 male
-2.578351 0.565852 0.4585258 -0.9648336 -0.2222798 0.1403135 8741211 male
-2.852002 0.1708854 0.557179 -0.7724186 0.2347638 0.5901318 5527382 male
-2.866434 0.5462223 0.4298866 0.6805538 -0.567427 -0.4635441 8612450 male
-2.564432 -0.1878902 0.4468538 0.6343613 0.2515714 -0.7309567 7557966 male
-2.662149 0.2486161 0.3945203 0.1165663 0.2557259 -0.9596961 8358027 male
-2.709671 0.1822311 0.3867232 0.058081 -0.160987 -0.9852461 8949912 male
-2.48598 0.3490072 0.4642254 0.7401806 -0.4984927 -0.4512624 7492689 male
-2.6315 0.933584 0.4251264 0.9447002 0.3024887 -0.1266568 1248008 male
-2.769699 0.5744779 0.5842997 -0.1017101 0.1920632 0.9760978 10848379 male
-2.779612 0.9221069 0.4404898 -0.9853418 0.1610079 -0.05637349 3614496 male
-2.594297 -0.1911354 0.4346216 0.01158275 0.2726259 -0.9620504 8412759 male
-2.564888 0.6495119 0.4928359 0.07965741 -0.005883243 0.996805 11242625 male
-2.629196 0.06214048 0.4423003 0.1220892 -0.2114172 -0.9697407 9410976 male
-2.703535 0.5097974 0.6067356 -0.01829261 0.3870073 0.9218952 9665658 male
-2.585554 0.6151462 0.4991701 0.6005457 -0.6318436 0.4900189 9269356 male
-2.81093 0.6437497 0.3702143 -0.4575313 0.1069478 -0.8827385 9727331 male
-2.701026 0.1099683 0.5660124 -0.8806127 0.04166505 0.4720014 5526870 male
-2.757169 0.007724611 0.4681531 0.6666043 -0.3021318 -0.6814361 7495524 male
-2.632967 0.2241057 0.5835578 0.3496108 -0.00467708 0.9368834 7369338 male
-2.840502 0.6265322 0.4718721 0.7969816 -0.3414268 0.498245 5916481 male
-2.764749 0.9288 0.3923316 -0.8371775 0.2289143 -0.4967213 1642768 male
-2.803752 -0.1390067 0.499443 0.8071411 0.06154557 -0.5871417 6836564 male
-2.611974 0.4945948 0.5669466 0.7689557 0.07606982 0.6347602 10651009 male
-2.656995 0.733817 0.4683633 0.9474793 0.2543867 0.1938307 8215123 male
-2.843451 -0.4636234 0.4666286 0.3852124 -0.9192981 -0.08063783 5127737 male
-2.843637 0.1105879 0.4471312 -0.7122541 -0.1705834 -0.6808783 6908529 male
-2.60012 -0.415697 0.4961347 -0.889741 0.3455428 0.2982636 9464693 male
-2.556551 -0.3019994 0.4857137 0.935414 -0.1976536 0.2931446 8085344 male
-2.839891 0.6624538 0.3994708 -0.7002469 0.364312 -0.6139471 8806228 male
-2.736499 0.01376317 0.5099649 0.9406659 -0.3311052 -0.07427657 4997442 male
-2.559375 -0.4696428 0.4626193 0.001102309 -0.9981126 -0.06140131 4271656 male
-2.536586 0.4848596 0.4298882 -0.7043411 0.2186896 0.6753359 7492433 male
-2.704209 0.6936976 0.5230327 0.02594141 0.4471424 0.8940865 8609113 male
-2.633224 0.03646813 0.5928002 -0.188066 -0.1604717 0.9689583 7302769 male
-2.554095 -0.4237238 0.4397113 0.894812 0.05843248 -0.4426027 5914946 male
-2.839647 0.636468 0.4973257 -0.4266028 -0.2756922 0.8613965 10257537 male
-2.910199 0.405372 0.4305946 0.7218497 -0.6041645 -0.3375178 6639443 male
-2.80843 0.5129491 0.5802953 -0.5846419 0.1610803 0.7951396 9730419 male
-2.683743 0.9229106 0.3578514 0.274702 0.1879992 -0.9429714 2037520 male
-2.585682 0.4691928 0.4409049 0.9171534 -0.2399189 -0.3182271 10055280 male
-2.854888 0.6455917 0.3968675 -0.5596651 0.2270336 -0.7970136 9200986 male
-2.575698 -0.3335289 0.5011974 0.4334623 -0.1961438 0.8795669 7558490 male
-2.832366 0.4970601 0.4056705 -0.757583 -0.2160387 -0.6159508 10252138 male
-3.001891 0.2979882 0.6100722 -0.5650454 0.5695397 0.596949 6573136 male
-2.731142 0.9859226 0.4664996 -0.3953394 0.9132417 0.0984701 2693400 male
-2.892033 -0.2631233 0.4749206 -0.943023 -0.1117262 -0.3134085 5324345 male
-2.787948 0.2370175 0.5799137 -0.5056326 -0.1019355 0.8567058 6119263 male
-2.95432 0.4829273 0.4118862 -0.8855714 0.01488679 -0.4642647 6176313 male
-2.936852 0.3161662 0.5937732 -0.6639972 -0.7281117 0.1701796 4337970 male
-2.889506 -0.2519922 0.4662952 -0.8534833 -0.06727144 -0.5167599 4863535 male
-2.565858 0.220681 0.4799798 0.9554188 -9.204116E-05 -0.2952541 7239551 male
-2.861674 -0.09810062 0.4916556 -0.5724435 0.1601211 -0.8041577 8083802 male
-2.793223 -0.108016 0.5581156 0.679316 -0.3252077 0.6578523 6571594 male
-2.631609 0.8847507 0.4267008 0.9708145 -0.1787416 -0.1599079 919042 male
-2.831897 0.3243092 0.4392076 -0.7906002 0.06171448 -0.6092148 6643551 male
-2.657117 0.7176886 0.403757 0.2811909 0.5832751 -0.762051 6638401 male
-3.001109 0.2908084 0.5986905 -0.431303 -0.824724 -0.3657979 5982283 male
-2.585714 0.2042167 0.5650904 0.6075757 0.1837462 0.7727154 6776939 male
-2.491896 0.2650934 0.5626137 -0.8407019 -0.3055632 -0.4470474 7489096 male
-2.677298 0.362257 0.6373559 0.2318901 0.04686835 0.9716122 9268852 male
-2.679136 0.1149149 0.588762 -0.5237653 -0.07002536 0.8489797 4933451 male
-2.873803 -0.108375 0.5456639 -0.9592274 0.0475334 0.2786099 6966606 male
-2.560226 -0.3319423 0.4687027 0.9658599 -0.2426459 -0.09076051 6507338 male
-2.661926 0.9256771 0.5245804 0.7041562 0.3345581 0.6262867 8148563 male
-2.875519 -0.07943787 0.5097602 -0.9571668 0.1048037 -0.2699036 8675165 male
-2.611279 -0.08560788 0.5758165 0.2195847 -0.1025346 0.9701903 6307903 male
-2.855356 0.5158635 0.458721 -0.9953159 -0.09569947 -0.01370422 7162691 male
-2.567914 -0.3803462 0.4384586 0.6461917 -0.09204524 -0.7576042 4667447 male
-2.561046 -0.4039576 0.4953855 0.7567866 0.4037771 0.5140409 8808554 male
-2.923915 0.3211251 0.5847975 0.9709495 -0.07912643 -0.2258233 6308935 male
-2.806889 -0.25543 0.5166734 0.6997435 -0.2348209 0.6746986 6769742 male
-2.520949 0.5289656 0.4157384 0.438484 -0.1496883 -0.8861857 6701629 male
-2.616932 0.3841144 0.4118534 0.5905972 -0.04806886 -0.8055336 8674395 male
-2.662178 0.0890111 0.5918746 -0.4036368 -0.1269445 0.9060698 6249823 male
-2.585636 0.2051693 0.4384334 0.8275352 -0.01542586 -0.5612018 7041395 male
-2.655779 0.9673334 0.4081888 0.635007 0.7166616 -0.2883786 1313800 male
-2.901981 0.6039513 0.4241818 -0.7845178 0.002007903 -0.6201031 7689543 male
-2.671638 0.8763359 0.3642817 0.4513109 -0.2470155 -0.8574975 1380621 male
-2.742465 0.8509476 0.5500612 -0.4702938 0.08092802 0.8787915 7096387 male
-2.811507 -0.0605447 0.4696789 0.211153 -0.176864 -0.9613186 9730419 male
-2.882532 -0.124108 0.5195929 -0.9942636 0.1066703 -0.007827712 8085084 male
-2.793076 0.2812895 0.5876032 -0.5954549 -0.1387654 0.7913139 6644838 male
-2.776952 0.5010231 0.3688194 -0.2677291 -0.2595545 -0.9278753 9988451 male
-2.87391 -0.01315651 0.514959 -0.9768065 -0.1168316 -0.1794421 7361103 male
-2.86054 -0.465972 0.4682046 0.05416333 -0.9940182 -0.09483735 5786698 male
-2.729573 0.8598489 0.364038 -0.3241619 -0.3260074 -0.888053 2431508 male
-2.690598 0.8867247 0.5418063 0.4179183 0.4527449 0.7876334 7556425 male
-2.687161 0.1036082 0.443942 -0.6193924 -0.4201862 -0.6631716 6514027 male
-2.713923 0.2043788 0.6148555 0.06686129 0.01812801 0.9975976 7170925 male
-2.5871 -0.4650077 0.4476749 -0.4873399 -0.8721257 -0.04354972 5783879 male
-2.513464 0.389352 0.4167936 -0.2378122 -0.6270652 -0.741778 10122612 male
-2.725363 0.04307127 0.5167028 0.9725994 -0.2191132 0.07771555 3026479 male
-2.838357 -0.2897012 0.5209366 0.249511 -0.2477293 0.9361488 7097670 male
-2.706846 0.4188677 0.3949019 -0.04768088 -0.2854159 -0.957217 10713969 male
-2.633814 0.6762616 0.5074166 0.4223156 0.6271576 0.6544637 10255731 male
-2.643933 0.03849233 0.5902269 -0.3486774 -0.1621542 0.9231089 7105644 male
-2.900584 0.4663452 0.4003443 0.5322052 -0.519897 -0.6681802 8083028 male
