# .PCD v0.7 - Point Cloud Data file format
VERSION 0.7
FIELDS x y z normal_x normal_y normal_z rgb label
SIZE 4 4 4 4 4 4 4 4
TYPE F F F F F F U U
COUNT 1 1 1 1 1 1 1 1
WIDTH 132
HEIGHT 1
VIEWPOINT 0 0 0 1 0 0 0
POINTS 132
DATA ascii
-2.855912 0.48003 -0.4611426 -0.3866798 0.1729241 0.9058564 10388349 male
-2.954919 0.04291572 -0.4902948 -0.8582358 0.04530582 0.5112521 5331545 male
-2.717404 0.1037751 -0.481916 -0.07689889 -0.01443962 0.9969343 6316901 male
-2.957323 -0.004127398 -0.5491607 -0.9395164 -0.09114393 -0.3301542 8281948 male
-2.840883 0.3098731 -0.4474972 -0.4443354 -0.2433113 0.8621866 6379349 male
-2.712005 -0.3487648 -0.6180145 -0.9799352 -0.1787552 0.0881675 7624019 male
-2.893434 0.7052468 -0.6447728 -0.6050766 0.6369359 -0.4776975 7492681 male
-2.884994 0.6074679 -0.5076075 -0.4332966 0.2544568 0.8645841 10518647 male
-2.795535 0.8303216 -0.4961832 -0.4400128 -0.009450095 0.8979418 7556426 male
-2.653716 0.1626345 -0.609617 0.9086472 0.03261641 -0.416289 7040371 male
-2.927911 -0.3482723 -0.5418798 0.8997841 -0.004468029 0.4363125 8676715 male
-2.732918 0.8130711 -0.5919986 0.9517307 -0.3053794 -0.03085478 7160636 male
-2.724327 0.5668204 -0.714021 0.1981764 -0.2458333 -0.9488373 10975605 male
-2.797459 0.3089948 -0.4376959 0.007929965 -0.1748083 0.9845706 9269620 male
-2.937107 0.2901811 -0.5983649 -0.9303463 0.288022 -0.2269346 7566199 male
-2.907914 -0.09440322 -0.5558056 0.3315958 -0.1341159 -0.93384 9333869 male
-2.752167 -0.04799607 -0.6042099 -0.7356545 -0.1169245 -0.6671889 9005159 male
-2.999157 0.5725397 -0.5865431 -0.9426359 0.3272324 0.06600443 7560530 male
-2.801898 0.6962166 -0.5384443 0.01769286 0.3958062 0.9181636 7952727 male
-2.881434 0.5063986 -0.4805476 -0.5831472 0.09252019 0.8070808 9664370 male
-2.830213 0.7728202 -0.5560501 -0.7886106 -0.06704896 0.6112264 9529184 male
-2.941999 0.1019625 -0.4849074 -0.7738342 0.166652 0.6110711 4407875 male
-2.676068 -0.4395669 -0.522092 -0.06504855 0.907635 0.4146895 14923714 male
-2.635388 0.5581463 -0.6808205 -0.1515352 -0.2976807 -0.9425621 10384235 male
-2.70694 0.01412336 -0.4921779 -0.05485937 -0.1707418 0.9837875 7040363 male
-2.808857 0.2819917 -0.6707598 -0.07006082 0.3055114 -0.9496074 8489098 male
-2.832703 0.3882438 -0.6717508 0.03982407 -0.2607105 -0.9645953 9332573 male
-2.664086 0.3085875 -0.5557581 0.9394652 0.05278939 0.3385535 7889763 male
-2.68449 0.158913 -0.496844 0.4249048 0.2579205 0.8677171 7171957 male
-3.069091 0.2852127 -0.4811957 -0.9435745 0.02177271 0.3304437 6113095 male
-2.882608 0.6048761 -0.7017865 -0.4083135 0.03709598 -0.9120877 10843499 male
-2.687283 0.4409225 -0.4939001 0.8014531 0.08713563 0.5916759 10847876 male
-2.954343 -0.1877959 -0.585076 -0.2029609 0.2218647 -0.9537205 7953235 male
-3.020955 0.2965753 -0.5345386 0.832606 -0.4148409 -0.3669799 6110268 male
-2.858139 0.8502751 -0.5825915 -0.817188 0.174337 0.5493728 7621702 male
-2.671188 0.6111528 -0.6407384 -0.955452 -0.2816291 0.08829829 6177596 male
-2.93179 0.1973155 -0.5079895 -0.716601 0.2548115 0.649272 5856354 male
-2.954484 0.5080803 -0.6119598 0.8477041 -0.3399589 -0.4072171 9204587 male
-2.670006 -0.240828 -0.5550286 0.09462401 -0.1893354 0.9773425 6572875 male
-2.793099 0.2759067 -0.6736958 -0.06304158 0.3049924 -0.950266 8685454 male
-2.785105 0.2055255 -0.6894583 -0.11956 0.03901292 -0.9920602 9147030 male
-2.56289 0.3207028 -0.6182632 0.9412774 -0.2639517 -0.210538 7163465 male
-2.725486 0.9112713 -0.6626124 0.8527796 -0.01078454 -0.5221596 1050116 male
-2.820712 0.6082998 -0.4887891 0.1466124 0.4135232 0.8986119 9203051 male
-2.86214 0.9225374 -0.600376 -0.982942 0.1543852 0.09995119 3614496 male
-2.642719 -0.25069 -0.6294481 0.8454987 -0.0819585 -0.5276503 5521212 male
-2.617769 0.6523257 -0.6071471 0.6519392 0.1882772 0.734525 11306876 male
-2.737856 0.01084231 -0.6298259 -0.3447916 -0.1639061 -0.9242584 7887450 male
-2.820929 0.6276291 -0.4994603 0.07896633 0.5196458 0.8507248 9137251 male
-2.660805 0.5647662 -0.5584047 0.9634471 -0.05580479 0.2620221 9136226 male
-2.902334 0.6475921 -0.6776555 -0.5771385 0.1365365 -0.8051515 9727331 male
-2.682942 0.09415864 -0.4869145 0.3717238 0.02620217 0.9279735 7237746 male
-2.943784 0.1847059 -0.5877162 -0.9445552 0.1155539 -0.3073479 7500922 male
-2.668647 0.2176663 -0.5239929 0.6439281 0.1309864 0.7537899 6514027 male
-2.919485 0.6303213 -0.584428 -0.07984776 -0.8256103 0.5585625 7690326 male
-2.854695 0.9316273 -0.6498295 -0.9025121 0.244503 -0.3545281 1642768 male
-2.923598 -0.05224292 -0.5760529 -0.2833765 -0.159445 -0.9456612 8807781 male
-2.661963 0.4941154 -0.557968 0.9539105 -0.03521159 0.2980184 11176070 male
-2.735117 0.723602 -0.5848327 0.8997735 0.2994178 0.3174217 8149587 male
-2.992869 -0.4465869 -0.5672553 -0.8614979 -0.2291446 -0.4531161 6901584 male
-2.930593 0.09532879 -0.6075569 -0.6984502 -0.2200232 -0.6809972 6579052 male
-2.686645 -0.4314172 -0.5614331 -0.8219151 0.4645821 0.3295738 11241361 male
-2.669342 -0.3156765 -0.6441842 0.3824984 -0.139259 -0.9134012 4863025 male
-2.905618 0.7019025 -0.62693 -0.6409445 0.7506533 -0.1603424 7821646 male
-2.818777 0.03690978 -0.5639756 0.8963157 -0.3318065 -0.2941472 5264469 male
-2.626826 -0.4729258 -0.5950509 0.4395991 -0.8073403 -0.3936423 3743770 male
-2.64116 0.504096 -0.6559704 -0.8463289 -0.09500368 0.52412 8872034 male
-2.753879 0.6074765 -0.4972147 -0.0406196 0.3861437 0.9215438 9729387 male
-2.696003 0.02581218 -0.4895734 0.1115143 -0.1516501 0.9821237 6711406 male
-2.669577 -0.3997261 -0.649194 0.5407035 -0.007087782 -0.8411834 5783360 male
-2.916754 0.6419966 -0.564711 0.6063886 -0.3325467 0.7222919 8611174 male
-2.991861 0.4068533 -0.6221854 0.5957733 -0.6025347 -0.5310426 7296086 male
-2.910314 0.5295773 -0.5170491 -0.8153842 0.04313133 0.5773112 10257537 male
-2.779772 0.9281197 -0.6963086 0.1296377 0.2347553 -0.9633712 2037520 male
-2.66345 0.4648528 -0.6240611 0.9488345 -0.1754741 -0.2625299 9266531 male
-2.891843 0.6892374 -0.6620787 -0.5322331 0.5569009 -0.6376435 8082762 male
-2.649403 -0.3080579 -0.5874196 0.864925 -0.1961574 0.4619818 7690585 male
-2.933154 0.4717192 -0.5994673 -0.9829836 -0.1270424 -0.1326777 9727078 male
-3.06196 0.2837037 -0.4334814 -0.1888422 0.6828089 0.7057695 7230807 male
-2.810449 0.9854904 -0.5789185 -0.3781268 0.9038928 0.1999945 2693400 male
-2.974335 -0.2328206 -0.5012364 -0.5501701 -0.1911788 0.8128735 6113092 male
-2.859872 0.2398141 -0.4824744 -0.384624 -0.07658075 0.9198912 6119263 male
-3.031231 0.5082507 -0.6103404 -0.9436031 0.3115493 -0.1120281 6046267 male
-2.993926 0.3022583 -0.4552656 0.2138208 -0.9768724 -0.001010078 6903384 male
-2.989554 -0.2430357 -0.5641472 -0.9089981 -0.05773979 -0.4127814 4863535 male
-2.648564 0.1885594 -0.5934216 0.9646885 0.04968136 -0.2586654 7698815 male
-2.957059 -0.09155696 -0.5440141 -0.6678753 0.1612837 -0.726588 8083802 male
-2.89091 -0.08419877 -0.4687116 0.5695896 -0.2428734 0.7852262 5519420 male
-2.716997 0.8763651 -0.6254783 0.76916 -0.3730375 0.5188795 2559767 male
-2.920499 0.3366807 -0.6199163 -0.8493457 -0.03581713 -0.5266204 9002592 male
-2.73095 0.7319181 -0.630695 0.727631 0.6725869 -0.1348331 9726820 male
-3.056292 0.2659401 -0.4302492 0.2532037 -0.7137983 -0.6529776 5849667 male
-2.67021 0.1920718 -0.5178368 0.636933 0.2347777 0.7342995 6908011 male
-2.566724 0.2662351 -0.5530401 -0.8435978 -0.4756735 -0.2491536 6635844 male
-2.716781 0.3445478 -0.4554679 0.6507108 -0.06222996 0.7567714 8282214 male
-2.680123 0.1005752 -0.4883495 0.4392348 0.05931844 0.8964118 6711405 male
-2.97062 -0.1110751 -0.4994284 -0.9517791 0.0620226 0.3004492 7361876 male
-2.645019 -0.3068768 -0.6055399 0.9816789 -0.1883689 0.02870041 8085859 male
-2.74003 0.9280732 -0.5290811 0.6819216 0.3612832 0.6359697 8674650 male
-2.964002 -0.0785854 -0.5365599 -0.8591611 0.1206242 -0.4972846 8018776 male
-2.659512 -0.1303031 -0.5380859 0.876326 -0.1023113 0.4707282 9463143 male
-2.935685 0.5464141 -0.5932912 -0.9670526 -0.1297457 0.2190327 7622475 male
-2.68286 -0.2775009 -0.5648517 -0.1733877 -0.2195778 0.9600636 5520188 male
-2.643471 -0.4080592 -0.604603 0.9898872 0.1139267 0.08452187 9927808 male
-2.997133 0.3033622 -0.467328 0.2323019 -0.9489049 -0.2135774 5784131 male
-2.897747 -0.2456442 -0.5291517 0.8625085 -0.2393246 0.4458731 7164244 male
-2.58953 0.4009363 -0.6974602 0.1501779 -0.5576949 -0.8163474 7032913 male
-2.667871 0.3676235 -0.6325794 0.8717648 0.1439909 -0.4682871 8280149 male
-2.756803 0.0755314 -0.4985894 -0.5074623 -0.1874801 0.841031 4935244 male
-2.696385 0.178545 -0.6654109 0.6362894 -0.02804744 -0.7709404 6514027 male
-2.744691 0.9703653 -0.6486858 0.5832386 0.7352477 -0.3453166 1313800 male
-2.979124 0.5839876 -0.623336 -0.6846877 -0.01779748 -0.7286192 7360839 male
-2.766761 0.881399 -0.6940092 0.3179955 -0.2024988 -0.9262144 1380621 male
-2.818887 0.8652151 -0.5065009 -0.4348954 0.1967581 0.878722 8673618 male
-2.952835 -0.01904632 -0.5573272 -0.8826128 -0.07937071 -0.4633519 8150619 male
-2.974937 -0.116305 -0.512449 -0.9860438 0.1230008 0.1121983 8085084 male
-2.86507 0.3009797 -0.4707693 -0.5579805 -0.1179017 0.8214359 6514791 male
-2.899133 0.5322288 -0.6754119 -0.6323137 -0.2118329 -0.7451888 11107959 male
-2.962052 -0.009260418 -0.5134356 -0.9860611 -0.08947165 0.1402792 8940649 male
-3.006078 -0.4526973 -0.5370212 -0.8031201 -0.1876895 -0.5654828 6375495 male
-2.824021 0.8643768 -0.6863908 -0.4529237 -0.2873077 -0.8439872 2431508 male
-2.743484 0.8872895 -0.5226137 0.5267999 0.09262107 0.844928 7425870 male
-2.773275 0.1108768 -0.6485497 -0.5023678 -0.6020867 -0.6205789 6383469 male
-2.772257 0.205236 -0.4610558 0.401457 -0.002125387 0.9158754 7566715 male
-2.674348 -0.4708199 -0.6264699 -0.1824864 -0.9829282 0.023472 4798008 male
-2.603067 0.3581783 -0.6033791 -0.831818 0.2967287 0.4690744 8610402 male
-2.807968 0.07455672 -0.5718693 0.9526917 -0.1833752 -0.2423883 6316904 male
-2.932546 -0.2814565 -0.5162152 0.3572795 -0.2577272 0.8977349 7097670 male
-2.799751 0.4684192 -0.688389 -0.1936915 -0.2478359 -0.9492423 10780530 male
-2.830153 0.7360886 -0.556611 -0.7165574 -0.02325977 0.6971402 9530209 male
-2.771624 0.02613378 -0.5304634 -0.8209736 -0.248216 0.5141897 4998464 male
-2.990545 0.4394621 -0.6428387 0.3970765 -0.5827184 -0.7090625 8346718 male
