# .PCD v0.7 - Point Cloud Data file format
VERSION 0.7
FIELDS x y z normal_x normal_y normal_z rgb label
SIZE 4 4 4 4 4 4 4 4
TYPE F F F F F F U U
COUNT 1 1 1 1 1 1 1 1
WIDTH 132
HEIGHT 1
VIEWPOINT 0 0 0 1 0 0 0
POINTS 132
DATA ascii
-2.865262 0.4800482 -0.4663349 -0.3701364 0.170947 0.9131134 10388349 male
-2.963012 0.04451406 -0.4883332 -0.8467442 0.05381948 0.5292709 5331545 male
-2.725218 0.1057291 -0.4866616 -0.05821081 -0.003257421 0.998299 6316901 male
-2.969741 0.03835525 -0.5474443 -0.9641265 -0.05614515 -0.2594374 7632505 male
-2.850465 0.3302452 -0.4488673 -0.4624268 -0.1148588 0.8791866 8479336 male
-2.713246 -0.3631653 -0.6245073 -0.9891315 -0.1463996 0.013641 7952216 male
-2.907483 0.704991 -0.6490232 -0.6190314 0.6344879 -0.4628447 7492681 male
-2.89217 0.5989553 -0.5055583 -0.4449754 0.258854 0.8573165 10782074 male
-2.812439 0.8346378 -0.5060844 -0.5119963 0.1039658 0.8526728 6832446 male
-2.664435 0.1635033 -0.6160839 0.9002768 0.03433733 -0.4339617 7040371 male
-2.933341 -0.3518097 -0.5453063 0.9777802 0.008533598 0.2094591 7097939 male
-2.746018 0.8133349 -0.5993112 0.9513386 -0.3037633 -0.05179476 7160636 male
-2.738863 0.5673726 -0.7215835 0.1814552 -0.2454048 -0.952287 10975605 male
-2.805341 0.3105313 -0.4431532 0.02803523 -0.1670878 0.9855434 9269620 male
-2.95004 0.2903737 -0.5852892 -0.9563748 0.291178 -0.02371725 9342869 male
-2.924415 -0.07391383 -0.5624003 0.08784708 -0.1816782 -0.9794263 9203051 male
-2.768969 -0.04349225 -0.5949041 -0.8907514 -0.1347747 -0.434048 8544092 male
-3.01191 0.5723504 -0.5854598 -0.938725 0.3328386 0.08951966 7560530 male
-2.789502 0.6692054 -0.5349827 0.1407555 0.5095826 0.8488306 7689807 male
-2.891282 0.5062035 -0.4852189 -0.5680529 0.08903909 0.8181613 9664370 male
-2.842517 0.7727316 -0.5616446 -0.7767615 -0.0718728 0.6256804 9529184 male
-2.950025 0.1035472 -0.4841534 -0.7604881 0.1762625 0.6249714 4407875 male
-2.680794 -0.4458926 -0.5145072 0.1445853 0.9118076 0.3843202 13279402 male
-2.641616 0.4675456 -0.7128965 -0.681637 -0.3561749 -0.6391482 9528936 male
-2.71411 0.01601606 -0.496005 -0.03546033 -0.1602383 0.9864412 7040363 male
-2.821213 0.2814757 -0.6756037 -0.09015866 0.2962357 -0.95085 8489098 male
-2.863277 0.4183893 -0.6828795 -0.2300378 -0.2531312 -0.9396846 11042678 male
-2.674326 0.3097646 -0.5637355 0.9455663 0.05983546 0.3198814 7889763 male
-2.693066 0.1609038 -0.5028104 0.4391122 0.2714068 0.8564571 7171957 male
-3.078983 0.2882169 -0.4710858 -0.9319729 0.03182786 0.3611283 6113095 male
-2.896376 0.6143271 -0.7058681 -0.4477108 0.1087256 -0.8875437 10844523 male
-2.686717 0.4439849 -0.5224186 0.8617119 0.09124004 0.4991272 10980230 male
-2.963908 -0.1838214 -0.578442 -0.2200797 0.2402785 -0.9454264 7953235 male
-3.032586 0.2980511 -0.5263156 0.8199219 -0.4252162 -0.3833006 6110268 male
-2.877575 0.8654662 -0.6030393 0.2476017 0.3557217 0.9011967 6502714 male
-2.683096 0.5985614 -0.6472867 -0.9511821 -0.2827118 0.1238011 6046266 male
-2.940471 0.1982864 -0.5088727 -0.7034038 0.2625473 0.6605241 5856354 male
-2.954626 0.5904988 -0.6373644 0.2509895 -0.38544 -0.8879416 5913649 male
-2.659614 -0.2543836 -0.5647985 0.581179 -0.2163173 0.7844984 6902352 male
-2.805497 0.2754195 -0.6787843 -0.08317062 0.2956868 -0.9516575 8685454 male
-2.797556 0.2048419 -0.6939595 -0.1395673 0.02847397 -0.9898031 9147030 male
-2.576387 0.31811 -0.6217633 0.9354495 -0.2977985 -0.1903948 7164236 male
-2.740174 0.9120053 -0.6694189 0.8420887 -0.006015541 -0.5393056 1050116 male
-2.84079 0.6106268 -0.4947588 0.04661112 0.4520794 0.890759 9400430 male
-2.875549 0.9226519 -0.6043572 -0.9809312 0.1522049 0.1208622 3614496 male
-2.650148 -0.2485092 -0.6319743 0.8362551 -0.07408373 -0.543313 5521212 male
-2.633814 0.6584439 -0.6142396 0.6505824 0.3875484 0.653107 11043961 male
-2.747517 0.0109118 -0.6330584 -0.3602573 -0.1768124 -0.9159432 7887450 male
-2.831566 0.6278444 -0.5052168 0.0938603 0.51998 0.8490059 9137251 male
-2.669164 0.5402766 -0.5794826 0.9772438 -0.006800246 0.21201 7688782 male
-2.921271 0.6493424 -0.6771129 -0.6227069 0.1511791 -0.7677115 9332567 male
-2.731776 0.1142623 -0.4871576 -0.08397481 0.01698383 0.9963231 5724511 male
-2.954064 0.1846069 -0.588402 -0.9510026 0.1094523 -0.2891613 7500922 male
-2.678046 0.2192906 -0.5308368 0.65738 0.1424221 0.739978 6514027 male
-2.933232 0.621488 -0.586699 -0.3121874 -0.7283002 0.6100146 7690068 male
-2.869117 0.9320818 -0.6538854 -0.9097713 0.2455061 -0.3347283 1642768 male
-2.933686 -0.05162201 -0.5720167 -0.3038094 -0.1694891 -0.9375358 8807781 male
-2.799574 0.5281859 -0.4758963 0.1504035 0.3424277 0.9274276 10257018 male
-2.74783 0.7239928 -0.5923314 0.9044152 0.3016084 0.3017704 8149587 male
-2.997848 -0.4403052 -0.5724696 -0.8711951 -0.07789686 -0.4847176 7033170 male
-2.854143 -0.000131494 -0.5745633 0.7133573 -0.3871673 -0.5841428 7164500 male
-2.692369 -0.430078 -0.5643184 -0.8194319 0.4568148 0.3461959 11241361 male
-2.663192 -0.3057191 -0.6369942 0.7262547 -0.1589324 -0.6688008 5453876 male
-2.919238 0.701686 -0.6308085 -0.6462165 0.7492586 -0.1449683 7821646 male
-2.833999 0.07243431 -0.6057118 0.6628678 -0.3695102 -0.6512055 4015947 male
-2.632828 -0.4709014 -0.5991165 0.4384532 -0.8011156 -0.4073973 3743770 male
-2.658529 0.4992807 -0.6755313 -0.9797557 -0.1637661 0.1151495 8805213 male
-2.764742 0.6212618 -0.5108172 0.0392446 0.4269736 0.903412 9729899 male
-2.703233 0.02783863 -0.4937452 0.1307504 -0.1396102 0.9815362 6711406 male
-2.645267 -0.4556451 -0.6414023 0.9024925 0.003499197 -0.4306915 7031114 male
-2.930934 0.6484352 -0.5519133 -0.06835629 0.00130168 0.9976601 10454142 male
-3.001379 0.3996681 -0.6016563 0.8260232 -0.4983296 -0.26335 9204340 male
-2.928942 0.5185281 -0.5311262 -0.851931 0.03473208 0.5225008 9664370 male
-2.795144 0.9289986 -0.7018908 0.1098457 0.2413825 -0.9641931 2037520 male
-2.67201 0.4447265 -0.6078129 0.9867744 -0.08353844 -0.1389159 9267560 male
-2.926381 0.6966912 -0.6261054 -0.6506519 0.7492437 -0.1236366 8347218 male
-2.662134 -0.3610333 -0.60074 0.9713618 -0.1262197 0.2013077 7690839 male
-2.934198 0.496608 -0.64535 -0.8642761 -0.1951239 -0.4636309 9989994 male
-3.068293 0.2873063 -0.4228135 0.07273875 0.7577603 0.6484662 7428696 male
-2.82353 0.9855405 -0.5835288 -0.3751635 0.9019831 0.2137257 2693400 male
-2.982186 -0.2306949 -0.4953135 -0.5357085 -0.2131615 0.8170548 6113092 male
-2.868204 0.2411119 -0.4858041 -0.3654746 -0.0667115 0.9284276 6119263 male
-3.054256 0.4842191 -0.6099066 -0.9687709 0.2452682 0.03642135 5126189 male
-2.997597 0.3113099 -0.4528249 0.9507423 -0.2013919 -0.235649 5783106 male
-2.998353 -0.2396438 -0.5581849 -0.9150321 -0.05562047 -0.3995278 4863535 male
-2.659138 0.1895908 -0.6002849 0.9592408 0.05307475 -0.277561 7698815 male
-2.972202 -0.08617783 -0.531776 -0.7937154 0.1479346 -0.5900266 8544865 male
-2.898751 -0.08247957 -0.4645965 0.5869806 -0.2365387 0.7742758 5519420 male
-2.731995 0.8732618 -0.6347709 0.8287231 -0.2267704 0.5116573 2363921 male
-2.919858 0.3345976 -0.6380692 -0.706544 -0.05863725 -0.7052355 8742244 male
-2.744508 0.7323961 -0.6382359 0.7230324 0.675109 -0.1464649 9726820 male
-3.066729 0.2671264 -0.415539 -0.3392766 -0.8071068 -0.4831874 1444876 male
-2.67942 0.1938476 -0.5244682 0.6490549 0.2472205 0.719451 6908011 male
-2.566488 0.2548783 -0.5391624 -0.3383426 -0.6499245 -0.680531 7030346 male
-2.725214 0.3460894 -0.4627656 0.6655314 -0.05431233 0.7443911 8282214 male
-2.688045 0.1027684 -0.4937696 0.455281 0.07370199 0.8872921 6711405 male
-2.979186 -0.1094647 -0.4922705 -0.9469857 0.05547009 0.316451 7361876 male
-2.651757 -0.3048635 -0.6084217 0.9829197 -0.1837698 0.009874526 8085859 male
-2.738783 0.9145466 -0.5496584 0.9138817 0.1754505 0.3661113 8806234 male
-2.97331 -0.077239 -0.5303865 -0.8693019 0.117183 -0.4801899 8018776 male
-2.660265 -0.1388896 -0.5491191 0.9355054 -0.06271805 0.3477011 8281181 male
-2.94576 0.5358016 -0.5851186 -0.9587051 -0.05216295 0.2795775 8411986 male
-2.689727 -0.2548754 -0.5617998 -0.1604861 -0.2109659 0.964229 6902608 male
-2.649866 -0.4060666 -0.6080522 0.990521 0.1185952 0.06930602 9927808 male
-3.005587 0.307807 -0.4636829 0.4442023 -0.8544111 -0.2695662 6638156 male
-2.905963 -0.2423171 -0.5246949 0.8712984 -0.2424307 0.4266923 7164244 male
-2.597009 0.4169804 -0.7109577 0.3252959 -0.5143131 -0.793514 6900296 male
-2.676705 0.3662012 -0.6355954 0.8957014 0.1384355 -0.4225572 8082772 male
-2.78625 0.06964229 -0.5229217 -0.7763957 -0.1897419 0.6010055 5197907 male
-2.70827 0.1784814 -0.6713516 0.6213436 -0.03288576 -0.7828478 6514027 male
-2.774531 0.9882028 -0.6206526 0.3940112 0.9128922 -0.106691 4731947 male
-2.993017 0.5829424 -0.6231148 -0.7077879 -0.0298533 -0.705794 7360839 male
-2.782027 0.8822839 -0.7001678 0.2996022 -0.1957994 -0.9337565 1380621 male
-2.830875 0.8574334 -0.5107099 -0.4541917 0.09807001 0.8854898 8804180 male
-2.962447 -0.0184697 -0.5538977 -0.8925409 -0.08636348 -0.4426196 8150619 male
-2.983745 -0.1144946 -0.5049714 -0.9846495 0.1168732 0.1296379 8085084 male
-2.876076 0.3078957 -0.4748531 -0.5681394 -0.1096227 0.8155982 6646120 male
-2.884524 0.5050462 -0.6938129 -0.416395 -0.2267873 -0.8804446 9988451 male
-2.970666 -0.008034546 -0.5102232 -0.9827217 -0.08744193 0.1631315 8940649 male
-2.97225 -0.4548376 -0.557336 0.04447094 -0.9978024 -0.04911849 5457213 male
-2.839093 0.8651141 -0.6915216 -0.4694022 -0.2824638 -0.8365858 2431508 male
-2.74464 0.8814088 -0.5391837 0.7628772 0.254652 0.5942817 7885642 male
-2.784375 0.1104113 -0.6522783 -0.5105389 -0.6124712 -0.6035138 6383469 male
-2.780179 0.2069471 -0.4659097 0.420195 0.009061655 0.9073886 7566715 male
-2.678857 -0.4689557 -0.6249919 -0.1647527 -0.9845788 0.05883061 4863801 male
-2.61967 0.3563872 -0.61632 -0.9581923 0.09683661 0.2692402 9730427 male
-2.81779 0.07479134 -0.5741348 0.9474213 -0.1865521 -0.259983 6316904 male
-2.954398 -0.3171572 -0.5176426 0.2754798 -0.1725332 0.9456972 7690331 male
-2.804841 0.4616476 -0.6970351 -0.3166115 -0.2294322 -0.9203901 10582129 male
-2.836676 0.7308089 -0.5578831 -0.6320027 -0.06172151 0.7725044 10845555 male
-2.779607 0.0270204 -0.5332814 -0.8092096 -0.2494173 0.53195 4998464 male
-2.989975 0.5386049 -0.6230938 -0.1402739 -0.2941913 -0.9453966 9332061 male
