# .PCD v0.7 - Point Cloud Data file format
VERSION 0.7
FIELDS x y z normal_x normal_y normal_z rgb label
SIZE 4 4 4 4 4 4 4 4
TYPE F F F F F F U U
COUNT 1 1 1 1 1 1 1 1
WIDTH 194
HEIGHT 1
VIEWPOINT 0 0 0 1 0 0 0
POINTS 194
DATA ascii
0.7560096 -0.6423408 1.064882 0.8382495 0.3913507 0.3797139 10182241 male
0.570375 0.5105093 1.072132 0.4843578 -0.3336328 0.8087565 12877417 male
0.9249249 -0.2144585 1.246029 0.6987779 -0.03193881 0.7146254 10514542 male
0.7341427 -0.3829168 1.099898 -0.1786775 0.04357505 0.9829424 9923431 male
0.8032212 0.7730953 1.211552 0.6969134 0.2940192 0.6541137 11039078 male
0.8617035 -0.104215 1.01072 0.9942647 0.06348056 -0.08607137 11826540 male
0.7498168 -0.4946189 1.076505 0.8796734 -0.2382161 0.4116164 10448485 male
0.8225054 -0.7176105 0.9834183 -0.08798166 -0.9882336 -0.1251145 7232088 male
0.797582 -0.1305602 0.9529545 -0.0401104 -0.0907404 -0.9950666 11173737 male
0.6961057 0.1968178 1.304482 -0.5548832 0.03854077 0.8310351 10854300 male
0.6122188 0.09996362 1.122116 -0.8699999 -0.4741861 0.1350845 11316388 male
0.6789578 -0.5399319 1.05482 -0.8599745 -0.1018904 -0.5000624 10383980 male
0.9415376 -0.0951125 1.232956 0.8477557 -0.1001934 0.5208377 9789531 male
0.7718101 0.7752473 1.241371 0.187474 0.8595147 0.4754872 10251619 male
0.5480541 0.110016 0.933782 0.1211956 -0.6090285 0.7838342 13730687 male
0.7066115 1.004496 1.141103 -0.7719991 0.5540866 -0.3114569 8418419 male
0.9235035 0.4032372 1.399049 0.1749724 -0.06371871 0.9825094 10646118 male
0.8210337 0.357586 1.305672 0.4550952 0.135048 0.8801424 12422008 male
0.7004485 0.5452742 0.9997854 -0.2237577 -0.09083947 -0.9704024 11891813 male
0.7264533 -0.1358531 1.039477 -0.9184747 -0.320264 0.2320247 13538956 male
0.6750293 0.3709803 1.242106 -0.9075794 -0.06028772 0.4155301 14195838 male
0.8108626 -0.002831645 1.110372 0.6115216 -0.1605613 0.7747656 11112613 male
0.8229401 -0.1766917 1.183074 -0.9715486 -0.1653822 -0.1695356 11038828 male
0.811793 1.018204 1.099403 0.1198273 0.769042 -0.6278663 7561562 male
0.5082328 0.2882607 0.9479007 -0.1427262 0.1664132 -0.9756721 9928554 male
0.6144035 0.5092931 1.04406 -0.7364095 -0.2341169 -0.6347365 10973789 male
0.9022009 0.4638136 1.394339 0.08062664 0.09091795 0.9925893 11562595 male
0.7942952 -0.54903 1.24268 -0.9973121 0.06954601 0.0230698 11369075 male
0.7917545 0.01429563 1.139461 -0.5309755 -0.1597296 -0.8321969 10786452 male
0.8043597 -0.3739403 1.261868 -0.8705207 0.06245392 0.4881533 12554632 male
0.541587 0.2586393 0.9914018 0.906729 -0.2220164 0.3585407 11961970 male
0.829684 0.7347897 1.222352 0.8151086 0.5792336 -0.009303212 11367012 male
0.8255743 -0.2374142 0.9549269 0.1345677 -0.1821672 -0.974016 9330524 male
0.7941712 -0.6563928 1.27053 -0.07026062 0.358223 0.9309888 10707820 male
0.8114437 0.4217014 1.301078 0.3339485 -0.09122388 0.9381669 11368036 male
0.6695839 0.1218283 1.251029 -0.8198085 -0.4516854 0.3519867 12895428 male
0.6756358 0.7777191 1.138584 -0.5721718 0.809006 0.1346434 12158590 male
0.7273235 1.017424 1.128702 -0.5292673 0.7233075 -0.4435114 8811629 male
0.7715697 0.4374221 1.309369 -0.02952406 -0.1876301 0.9817961 12222832 male
0.6085771 0.4235305 1.108785 -0.9848889 -0.146414 -0.09250402 14260096 male
0.6351004 0.5131855 1.02687 -0.5348493 -0.1822059 -0.8250682 13012592 male
0.6052772 0.722549 1.102443 -0.7963677 0.5908465 0.1292247 13012343 male
0.6022578 0.1670401 1.15978 -0.9340197 -0.1162779 0.3377675 13618375 male
0.5379775 0.01163387 0.8941839 -0.9520129 -0.2511665 -0.1748916 10263188 male
0.7724133 -0.1660955 1.07494 -0.5015607 -0.1829156 0.8455643 12025464 male
0.6703487 0.4756594 1.256679 -0.8697316 -0.1376212 0.473949 14589566 male
0.8421769 0.07001733 1.022859 0.9631525 0.1445145 -0.2268327 13157824 male
0.8969324 -0.2331376 1.26204 0.2585306 0.1074706 0.9600064 10383728 male
0.8599053 0.6057788 1.119036 0.6916606 0.3073946 -0.6535399 13143152 male
0.7464169 -0.245388 1.047257 -0.6591715 0.354394 0.663248 11893870 male
0.7505196 -0.3556549 1.097188 0.1055958 0.1117751 0.9881074 10120299 male
0.8368257 0.7321371 1.295916 0.3247731 0.9006347 0.2887551 9926010 male
0.6348481 0.375354 1.178798 -0.7899984 -0.1171954 0.601804 14392449 male
0.836466 -0.2516354 1.043209 0.8039628 -0.3020007 0.5122885 9723234 male
0.9542272 -0.705433 1.185117 0.3107131 0.9462574 0.08974546 9005400 male
0.8673608 0.5281945 1.27451 0.7734296 -0.09007239 0.6274503 12021344 male
0.6103625 0.2856366 1.089576 -0.973042 0.1816587 -0.1420906 11576996 male
0.5367568 0.592007 1.053738 -0.8861158 0.3110053 0.3436202 12354157 male
0.829124 0.9079579 1.217993 0.5710225 -0.4757743 0.6690085 11890541 male
0.8033831 -0.5851306 1.262483 -0.4608003 -0.02572651 0.887131 11303026 male
0.6513265 0.07480121 1.01298 -0.8055697 -0.2006319 -0.5574985 11184291 male
0.7990918 0.8615661 1.2145 0.3333395 -0.2353809 0.9129517 11565170 male
0.8667794 0.8589473 1.082423 0.58724 -0.3886933 -0.7099766 12482679 male
0.938566 0.4272968 1.336232 0.6896822 0.1727077 -0.7032145 12683127 male
0.9078359 -0.2272583 1.258304 0.4379795 0.02162063 0.898725 11633554 male
0.7700129 0.892143 1.072486 -0.4383991 -0.0782629 -0.8953667 13340288 male
0.8419086 -0.7172092 0.9757801 -0.2366159 -0.9049668 -0.3536213 7493977 male
0.8495779 -0.2370762 1.251779 -0.636544 0.2404638 0.7327954 10512734 male
1.191394 0.2197273 1.19955 -0.577044 -0.5237491 -0.6266636 13010564 male
0.7407497 -0.2311317 1.022628 -0.9268912 0.2821044 0.2475682 10251619 male
0.7779521 0.1846219 1.005731 0.5513759 0.3582042 -0.7534418 12304570 male
0.608366 0.2633279 1.139767 -0.9270128 0.2751091 0.2548773 12630711 male
0.7477409 0.7212303 1.069786 0.4313364 0.5993991 -0.674292 11826790 male
0.6743361 0.5086562 1.267037 -0.8198175 -0.122871 0.5592871 14786436 male
0.8902762 0.2503439 1.212433 0.9922904 0.1157099 0.04439729 12763065 male
0.6833691 0.1576132 0.9835746 -0.3900544 0.05927828 -0.9188819 13551558 male
0.7735599 0.3642936 1.315855 -0.009290634 0.1453128 0.9893423 12286827 male
0.801249 0.8394731 1.071426 -0.2422717 -0.3711337 -0.8964176 12945019 male
0.7349084 -0.6939071 0.9737321 -0.4985001 0.5586305 -0.662895 7820622 male
0.8442131 0.4328832 1.284444 0.617556 -0.09312425 0.7809947 13998218 male
0.8780122 0.3887672 1.238304 0.9159266 0.007421493 0.4012774 13206902 male
0.8461564 0.05650828 1.040541 0.9962531 0.07035878 -0.05029404 11907757 male
0.6493868 0.2102116 1.008238 -0.6631595 0.04207331 -0.7472947 11907757 male
0.7516135 -0.258798 0.9708934 -0.5168082 0.08984503 -0.8513739 11965316 male
0.4774578 0.3074684 1.012937 -0.8962945 -0.177982 0.4061756 12089710 male
0.4730363 0.3099364 0.9985105 -0.9902059 -0.09278618 0.1043223 13010555 male
1.191344 0.2563879 1.220426 0.6770264 0.635328 0.3714751 10250094 male
0.7023187 -0.3136998 1.051448 -0.8590928 0.3403041 0.3822995 13868683 male
0.5377058 0.09652954 0.9279794 0.3954824 -0.3554462 0.8469073 13797767 male
0.7117687 -0.3853733 0.9902422 -0.5333093 -0.1261436 -0.8364623 12888721 male
0.8910849 0.4548752 1.206017 0.9720336 -0.02582044 0.2334186 13272695 male
0.84776 -0.1539955 1.057145 0.7813761 -0.09419508 0.6169108 9985631 male
0.8760162 0.2428877 1.099773 0.9102181 -0.08903778 -0.4044448 12828606 male
0.8586295 -0.1732347 1.140828 -0.2527584 -0.110871 -0.9611561 10315877 male
0.8900225 0.2684397 1.178832 0.9943036 -0.08398148 0.06563193 12631218 male
0.6703584 -0.5720964 1.071917 -0.9746577 -0.004661457 -0.2236537 12818063 male
0.5143103 0.07440528 0.9046192 -0.619043 -0.1017388 -0.7787396 10126718 male
0.8349532 0.7201071 1.182386 0.7988291 0.5698925 -0.1926003 12481906 male
0.4857402 0.05086965 0.9404704 -0.8339445 0.1125758 0.540244 9198415 male
0.8834559 0.3739584 1.222104 0.959872 0.007073035 0.2803495 13536633 male
0.7143448 0.9012554 1.092688 -0.1306079 0.006790338 -0.991411 13140603 male
0.893759 -0.1040308 1.267033 0.3348165 -0.1542584 0.9295712 9529189 male
0.7120814 0.3747538 1.004984 -0.04931263 0.09909548 -0.9938554 12155748 male
0.92155 -0.3604333 1.227455 0.982859 -0.1750419 -0.05786848 10909548 male
0.9013978 0.09062962 1.135155 0.6730379 0.03067529 -0.7389717 13618633 male
0.66952 0.5378563 1.263631 -0.8509338 -0.09327064 0.5169259 14852999 male
0.6891574 0.6380471 1.292696 -0.7913882 0.1582155 0.5904854 15247501 male
0.7114829 -0.4335964 1.094422 -0.4257562 0.06013438 0.9028377 11303797 male
0.6793997 0.3853294 1.25415 -0.864724 -0.1109322 0.4898435 14523263 male
0.595237 0.6992341 1.118853 -0.8738651 0.3913358 0.2884724 13734774 male
0.8325012 -0.1608885 1.237222 -0.790503 -0.2332572 0.5663007 13079679 male
0.7571442 0.4610104 1.312281 -0.1528958 -0.2271222 0.9617893 12814192 male
0.7103297 -0.02015545 1.119273 -0.5025521 -0.3755906 0.7786998 9801621 male
0.6479372 0.3697618 1.025384 -0.5744437 0.1820062 -0.798053 12091501 male
0.7205694 -0.1292674 1.026777 -0.9526315 -0.3020515 -0.03547364 12554628 male
0.6684713 -0.578467 1.083405 -0.9978027 0.02760843 -0.06023085 11171181 male
0.8688514 0.37458 1.067486 0.8135356 0.02258201 -0.5810767 13340525 male
0.8119307 -0.1219053 1.235232 -0.8391396 -0.3240844 0.4368231 12093302 male
0.7647481 1.027285 1.116361 -0.2343449 0.8364987 -0.4953307 7628123 male
0.72393 -0.456298 1.099288 -0.004013198 0.006992193 0.9999676 9529183 male
0.8441277 0.03627021 1.064824 0.9759303 -0.0122258 0.2177402 11249059 male
0.8043751 0.2582536 1.320484 0.2358298 0.1311741 0.9629008 11248541 male
0.6847135 -0.4885396 1.03668 -0.8482696 -0.114297 -0.5170832 9791845 male
0.5886231 0.1350493 0.9311171 0.760215 0.4033625 0.5092857 11369075 male
0.7009273 0.1445405 0.9765494 -0.2702988 0.0889677 -0.9586571 12170929 male
0.6781963 0.3445969 1.248612 -0.8858831 -0.01100168 0.4637783 13998203 male
0.8629534 -0.5954221 1.242281 0.8849397 -0.1089033 0.4527936 10842224 male
0.7531731 -0.3014932 0.9672311 -0.2616075 0.01668192 -0.9650303 9793891 male
0.811417 -0.3341604 1.263162 -0.8351116 0.2013365 0.5119107 12684417 male
0.7145295 -0.4629041 1.006834 -0.2733706 -0.2461776 -0.9298738 13020056 male
0.6295374 0.3695968 1.170227 -0.8274087 -0.1134755 0.5500168 14392449 male
0.8621314 -0.5341406 1.211795 0.5709715 -0.1153015 -0.8128329 12617344 male
0.8906283 0.311019 1.104888 0.8985595 -0.1004855 -0.4271929 13865854 male
0.7021927 -0.662308 1.030579 -0.5968677 0.3383806 -0.7274941 12820626 male
0.8956985 0.6063044 1.178749 0.883411 0.3483206 -0.3134613 13075308 male
0.9144588 0.0009548082 1.14071 0.5289189 -0.00365886 -0.8486647 12433853 male
0.7762552 0.9690534 1.244274 0.1173948 0.1612623 0.9799047 8086371 male
0.7009445 0.6427096 1.305819 -0.6875179 0.1669473 0.7067163 15247500 male
0.6238644 0.07779577 1.095946 -0.842957 -0.5379295 -0.007453799 13422020 male
0.733046 -0.7020611 1.05624 0.1343127 -0.9602935 0.2445331 10315628 male
0.6414195 0.7588142 1.110432 -0.6946004 0.7191871 0.01732844 10844532 male
0.8722367 0.4810384 1.387664 -0.4045178 -0.08683973 0.9103979 13601404 male
0.5525474 0.604749 0.9875271 -0.6695926 0.1088956 -0.7347025 12687487 male
0.4945726 0.1014636 0.9249354 -0.8374882 0.08309413 -0.5401009 9138273 male
1.223751 0.2020919 1.179839 -0.6097203 -0.02734254 -0.7921451 12745344 male
0.8483262 0.008901724 1.00908 0.9709923 0.09717207 -0.2184758 13091775 male
0.7056049 0.1147068 0.9706171 -0.3030418 0.076535 -0.9498991 12894652 male
0.6916938 0.5950863 1.299932 -0.7378857 -0.07972663 0.6702003 14590854 male
0.7656482 0.4213575 1.011489 0.1750151 -0.007582678 -0.9845366 13077100 male
0.8735878 0.8496283 1.095003 0.9868218 -0.01681169 -0.1609362 12285809 male
0.8635489 -0.1226044 1.26804 -0.0672156 -0.2190653 0.9733924 11894397 male
1.121702 0.2519678 1.280139 0.08541819 -0.5434507 0.835084 12286071 male
0.8809256 0.2113923 1.112768 0.9641325 0.08975169 -0.2497866 12763842 male
0.8403817 0.4979542 1.065606 0.7833775 0.216872 -0.5824832 13733230 male
0.80924 -0.07131168 1.153864 -0.6433667 -0.229148 -0.7304592 10120289 male
0.8112592 0.08348414 1.315118 0.008977969 -0.212104 0.977206 9868178 male
0.4738269 0.3066053 0.9825913 -0.9727383 -0.01604395 -0.2313507 12353654 male
0.530398 0.03631227 0.8968253 -0.962185 -0.2044184 -0.1800374 9267300 male
0.8590993 0.8164662 1.137758 0.6000625 -0.7167756 0.3551871 10842724 male
0.6074457 0.1960029 1.172982 -0.9066741 0.04829272 0.4190587 13355206 male
0.4904053 0.4413573 1.057885 -0.7768263 0.1842526 0.6021563 11892331 male
1.163569 0.2530292 1.184672 -0.1257676 -0.6278272 -0.7681248 12546939 male
0.7126471 0.3055862 1.003896 -0.03353425 -0.02638309 -0.9990894 11694685 male
1.059419 0.338087 1.325301 0.7538773 0.3980071 0.5227425 10785140 male
0.6324385 0.3029292 1.170291 -0.8597974 0.1977257 0.4708005 12422008 male
0.7541319 0.05408297 1.150381 0.2897742 -0.2028036 0.9353619 9405831 male
0.6559039 0.5229281 1.014859 -0.3900727 -0.1161286 -0.9134319 11430235 male
0.5727224 0.6774914 1.068197 -0.9073014 0.3824216 0.1748094 12683367 male
0.7954923 -0.4086925 1.222439 -0.982097 -0.0446415 -0.1830109 10842475 male
0.8001969 1.039338 1.15445 0.1891533 0.9819435 0.002803251 7496026 male
0.5441906 0.5026881 0.9876753 -0.147815 0.08014448 -0.9857625 10250586 male
0.7435215 -0.1525785 0.984796 -0.8211263 -0.1350997 -0.5545268 12289661 male
0.9165239 -0.2366171 1.152333 0.1684936 -0.3120465 -0.9350064 9462875 male
0.8688786 0.4166559 1.072878 0.809521 0.1518245 -0.5671203 13536883 male
0.7079177 -0.1010329 1.029075 -0.9456801 -0.313475 -0.08615559 11437177 male
0.712349 1.01227 1.144386 -0.7069895 0.6549298 -0.2668948 8418159 male
0.803028 0.7064778 1.332858 -0.1083614 0.6017604 0.7912916 12551024 male
0.6543263 0.5827188 1.017568 -0.2175463 -0.3476557 -0.9120358 11038301 male
0.7598315 -0.1860773 0.9681579 -0.6957328 -0.001366879 -0.7182994 10382948 male
0.698539 -0.3593132 0.9991947 -0.7924994 0.0160708 -0.6096611 9200986 male
0.9292994 -0.1340017 1.146034 0.556885 -0.005945482 -0.8305685 12222323 male
0.5040799 0.2663825 1.018873 -0.1967309 -0.4462982 0.872992 9144933 male
0.9118853 0.07746543 1.142634 0.6970872 0.07089529 -0.7134728 13355976 male
0.8310785 0.7269567 1.311072 0.2040923 0.82375 0.5289445 11437957 male
0.5223296 0.413296 0.9775208 0.3716118 0.263557 -0.8901924 8475464 male
0.7381204 0.7908317 1.102278 -0.4252568 0.09626559 -0.8999388 13077101 male
0.8125287 -0.323486 1.003234 0.9107453 -0.3705204 -0.1823679 11631728 male
0.7223676 0.1621667 1.316547 -0.3431957 -0.07462938 0.9362944 10458257 male
0.8170481 -0.6833268 1.00535 0.4355565 0.8960983 -0.08543107 7164491 male
0.9021304 0.3801333 1.326441 -0.488247 -0.2107375 -0.8468794 12352626 male
0.8439015 0.5468891 1.312049 -0.4399011 -0.3839445 -0.8118337 12285801 male
0.9856451 0.3511126 1.374922 0.2782646 -0.2446753 0.9288181 12419691 male
0.9559604 -0.7120069 1.121915 -0.391233 0.4645807 -0.7944191 5395020 male
0.8507958 0.4632443 1.356176 -0.8686067 -0.4682036 0.1621974 10446173 male
