# .PCD v0.7 - Point Cloud Data file format
VERSION 0.7
FIELDS x y z normal_x normal_y normal_z rgb label
SIZE 4 4 4 4 4 4 4 4
TYPE F F F F F F U U
COUNT 1 1 1 1 1 1 1 1
WIDTH 194
HEIGHT 1
VIEWPOINT 0 0 0 1 0 0 0
POINTS 194
DATA ascii
-0.3908392 -0.6207979 1.098614 0.3657593 0.3881264 0.8459186 10576737 male
-0.596575 0.5183355 1.025706 -0.2409949 -0.643093 0.7268789 12811625 male
-0.6152899 -0.2297217 1.402859 -0.09192053 -0.06526802 0.9936252 10711921 male
-0.532115 -0.3706156 1.089823 -0.9743983 -0.1484759 -0.1688284 12881794 male
-0.6059127 0.7575705 1.332687 0.1379307 0.2303047 0.9632939 11039078 male
-0.4666675 -0.5193924 1.116626 0.07688347 -0.2204963 0.9723531 12881546 male
-0.4094724 -0.5807491 1.09414 0.65856 0.3824596 0.6480922 11431526 male
-0.2474778 -0.6615856 1.067122 0.2028979 -0.8914932 -0.4050586 7100499 male
-0.5230873 -0.211223 1.100938 -0.9009168 -0.05249388 -0.4308057 12093566 male
-0.7694707 0.2592779 1.251259 -0.9347882 0.3457998 -0.08120108 13552582 male
-0.7611728 0.1078745 1.208535 -0.8380172 -0.5340497 0.111885 11117985 male
-0.4976866 -0.5132675 1.074862 -0.9263985 -0.2183876 -0.3067458 10122855 male
-0.5679307 -0.2226128 1.301671 0.5497399 -0.2443178 -0.7988085 8740179 male
-0.6675697 0.7683827 1.287602 -0.712099 0.6924084 0.1161283 12225409 male
-0.2326816 0.3198617 0.9705703 0.0650941 -0.8709673 0.4870099 13533819 male
-0.620627 0.9984809 1.237541 -0.3605626 0.6485109 -0.6703941 8418419 male
-0.68629 0.4436324 1.518378 -0.7222209 0.07549596 0.68753 13601411 male
-0.6341566 0.3479979 1.409306 0.1785045 0.1039117 0.9784368 13273719 male
-0.5691923 0.5367463 1.090486 0.432633 -0.0702184 -0.8988317 11891304 male
-0.5634125 -0.1312016 1.113079 -0.8053108 -0.4352154 -0.4025696 13538956 male
-0.7542736 0.3956694 1.293599 -0.9981523 -0.05666416 -0.02194166 14260347 male
-0.6254308 0.04065262 1.238692 -0.2405156 -0.2646329 0.9338747 9340296 male
-0.6402478 -0.1854869 1.292662 -0.6655645 -0.009509197 -0.7462798 11038828 male
-0.5124374 1.002195 1.273071 0.5365435 0.7757183 -0.3322384 7561562 male
-0.3844098 0.4104367 0.9146213 0.4804842 0.7068186 -0.519175 9732715 male
-0.5540353 0.5860903 1.09499 0.4770959 -0.2519736 -0.8419555 11498074 male
-0.636577 0.3692822 1.556912 -0.3163213 0.06992634 0.9460715 11564649 male
-0.7869312 -0.486761 1.298564 -0.7988585 0.3251372 -0.5060742 10843499 male
-0.6207194 0.005369257 1.250851 0.07861493 -0.1127833 -0.9905049 10786452 male
-0.7628844 -0.4095983 1.308328 -0.8860403 0.2417718 -0.3955745 11632247 male
-0.3328007 0.3805301 0.953545 0.2675653 0.6276409 0.7310785 12163734 male
-0.7087986 0.151373 1.088708 -0.4764065 -0.01410599 -0.8791122 11119270 male
-0.4325595 -0.1882585 1.087728 0.4781076 0.1570801 -0.8641407 9462102 male
-0.8359285 -0.6516431 1.321982 -0.3114794 0.3040998 0.90028 8740707 male
-0.7187176 0.4838318 1.380002 -0.6776689 -0.2059102 0.7059505 12419438 male
-0.7578229 0.08994572 1.336914 -0.8142296 -0.5399653 0.2132316 11118249 male
-0.6700441 0.7665452 1.212047 -0.6293178 0.7742577 -0.06696457 11500149 male
-0.6062533 0.9977028 1.231931 -0.1990568 0.6457769 -0.7371219 9404022 male
-0.7083601 0.4514479 1.382546 -0.6033326 -0.1710555 0.7789288 12419183 male
-0.7324215 0.4714041 1.12611 -0.8582701 -0.1027912 -0.5027987 11959140 male
-0.658235 0.5095662 1.07019 -0.1308133 -0.185879 -0.973826 10907997 male
-0.6760809 0.7257186 1.108328 -0.5612293 0.6795646 -0.4724551 12553082 male
-0.7595346 0.2106486 1.136125 -0.8478329 0.1478286 -0.5092411 11711152 male
-0.1514712 0.2837499 0.935634 0.3399317 0.1355956 -0.9306238 10190713 male
-0.5375394 -0.1301949 1.196791 -0.4329486 -0.2863081 0.8547418 9593697 male
-0.7542225 0.4494132 1.277798 -0.9865652 -0.06932359 -0.1479312 14326912 male
-0.5197303 0.0418909 1.228041 0.5615327 -0.0344835 0.8267359 11118249 male
-0.6375959 -0.2358328 1.39478 -0.4560865 0.1118498 0.8828788 11502467 male
-0.5393634 0.6503465 1.31147 0.9186786 0.3214467 0.2295688 13602420 male
-0.5210831 -0.2715278 1.077085 -0.8268878 0.174541 -0.5345954 11763569 male
-0.5161619 -0.3346044 1.149043 -0.656602 -0.06111313 0.7517574 10055529 male
-0.6185704 0.7188817 1.382652 0.6022024 0.7200297 0.3448326 11105639 male
-0.7477372 0.4222804 1.166281 -0.9660909 -0.08040264 -0.2453648 13996666 male
-0.4484194 -0.240761 1.168329 0.4657595 -0.2812408 0.8390304 9789024 male
-0.7056555 -0.6996449 1.271694 0.06766126 -0.05196609 -0.9963542 10185061 male
-0.5187939 0.4841228 1.33312 0.9150631 -0.1267622 0.3828723 13140077 male
-0.7462628 0.3332378 1.168693 -0.9877605 0.02804757 -0.1534366 13866872 male
-0.6308951 0.5812948 0.9925412 -0.7921745 0.01620259 -0.6100796 11762790 male
-0.5819899 0.8973444 1.371854 0.1658461 -0.6501607 0.7414756 13268356 male
-0.8090873 -0.5581544 1.321638 -0.770174 0.07556697 0.6333418 11895930 male
-0.6560519 0.1132496 1.068253 -0.259967 -0.06099359 -0.9636893 11513770 male
-0.6053427 0.8439824 1.338556 -0.3369116 -0.2991104 0.8927619 11565170 male
-0.4662003 0.8601645 1.290599 0.6056198 -0.3712699 0.7038348 10905956 male
-0.6344506 0.5231021 1.431584 0.3797147 -0.3402893 -0.8602443 11497310 male
-0.6573454 -0.2254712 1.374148 -0.7724309 0.2598443 0.57951 11302510 male
-0.5507979 0.889617 1.211037 0.1233854 0.04645004 -0.9912713 12617342 male
-0.2257158 -0.6670094 1.080613 0.5153754 -0.7155897 -0.4715079 7820623 male
-0.6067981 -0.251642 1.39877 0.1361269 -0.1464297 0.9798102 10646128 male
-0.4434444 0.2020242 1.532922 -0.4051056 -0.1264162 -0.9054881 13010564 male
-0.4512838 -0.06615023 1.096871 0.7576097 0.1371126 -0.6381441 10053207 male
-0.58451 0.2104496 1.085892 0.6168469 0.2072467 -0.7593082 10722720 male
-0.7494735 0.3215398 1.210556 -0.9883444 0.1508524 -0.02047241 13670005 male
-0.5510364 0.7362896 1.29538 0.8104016 -0.2518915 0.5289613 14060155 male
-0.7521338 0.4512456 1.269582 -0.9731069 -0.06984957 -0.2195092 14392193 male
-0.6340433 0.2595185 1.415919 0.2155361 0.2799239 0.9355143 12038316 male
-0.5703281 0.1653798 1.09032 0.5703651 0.2849461 -0.7703828 11053477 male
-0.734588 0.3921994 1.359419 -0.8014392 0.1472666 0.579662 12615789 male
-0.5321569 0.8248926 1.222566 0.1498148 -0.4267674 -0.8918662 12814200 male
-0.3271731 -0.6494083 1.021951 -0.0571364 0.8799375 -0.4716411 6506817 male
-0.6145557 0.4132046 1.399813 0.210591 -0.05362583 0.9761025 12813168 male
-0.6010329 0.4414209 1.396994 0.3212782 -0.1024949 0.941422 12746351 male
-0.5075887 0.0229509 1.218067 0.5914254 -0.01084022 0.806287 10789025 male
-0.4923934 0.3639922 1.23603 0.998327 -0.02911421 -0.04995716 13603444 male
-0.4717249 -0.3167564 1.161496 0.2432913 -0.06182132 0.9679812 10449256 male
-0.4347932 0.3602374 0.9171681 -0.3243003 -0.8241219 -0.464384 13011579 male
-0.4142825 0.4231729 0.9058666 0.4152376 0.5708848 -0.7082856 15456450 male
-0.3906659 0.214963 1.549173 0.3131831 0.8395834 0.443865 12482940 male
-0.4559789 -0.3925829 1.043104 0.281558 -0.006989883 -0.9595188 11704706 male
-0.2468996 0.3034146 0.9426244 -0.02205258 -0.5784215 0.81544 12813441 male
-0.531405 -0.2836175 1.108967 -0.9970369 0.07692619 -0.000179112 12618366 male
-0.5579251 0.2853339 1.364184 0.6297815 -0.1403755 0.7639832 13078132 male
-0.4856839 -0.06004614 1.205392 0.4094167 -0.006652547 0.9123234 11037288 male
-0.5174193 0.1885562 1.287789 0.930751 0.06755283 0.3593597 13158088 male
-0.6047706 -0.2394585 1.283437 0.1856544 -0.1908952 -0.963894 10909037 male
-0.541646 0.3284535 1.350666 0.6943215 -0.009481184 0.7196026 13208434 male
-0.4232793 -0.4668187 1.095202 0.9414344 -0.02940402 0.3359123 12421755 male
-0.212765 0.3104906 0.9176428 0.4069278 0.3701377 -0.8351097 11178885 male
-0.7112026 0.1812096 1.08932 -0.4787933 0.006257454 -0.8779055 11184298 male
-0.2122817 0.2632563 0.915669 0.292635 -0.1986535 0.9353619 12358803 male
-0.6104679 0.4185725 1.399279 0.2458612 -0.06518006 0.9671112 12812144 male
-0.5864958 0.8980499 1.20156 0.999733 -0.02290026 -0.003128827 11888233 male
-0.6544296 -0.09039307 1.403625 -0.4946134 -0.1695057 0.8524234 9527904 male
-0.759436 0.1485129 1.133722 -0.8415936 -0.1112517 -0.5285295 12961468 male
-0.6395887 -0.3621615 1.384586 0.5663472 -0.3660238 0.738429 10712938 male
-0.5288295 0.07538642 1.298264 0.9314567 -0.1093328 -0.3470376 12500418 male
-0.7532492 0.4766381 1.267241 -0.9733709 -0.06293181 -0.2204292 14195838 male
-0.7372909 0.679018 1.301404 -0.8960086 0.4143026 -0.1597567 14521987 male
-0.5172068 -0.4117985 1.125868 -0.845359 -0.3098449 0.4351604 11040878 male
-0.7523617 0.4101837 1.310116 -0.9844331 -0.04350214 0.1702917 13340533 male
-0.6983161 0.6899509 1.100092 -0.7950022 0.3645186 -0.4848691 13933958 male
-0.6666443 -0.1633524 1.349868 -0.9904657 -0.1116914 0.08064049 13539979 male
-0.6831372 0.3998322 1.394467 -0.3616904 0.08551699 0.928368 11891563 male
-0.6677049 0.000154566 1.160824 -0.8244451 -0.5650649 0.03149873 12039087 male
-0.6390874 0.3919916 1.084785 0.03057561 0.04758209 -0.9983994 14195326 male
-0.5610718 -0.1264994 1.103029 -0.7143721 -0.3835756 -0.5852712 11437691 male
-0.4281002 -0.4434252 1.106658 0.8753506 -0.06928255 0.4784994 11106413 male
-0.5106838 0.3347546 1.179758 0.8512108 -0.004188444 -0.5248075 13535855 male
-0.6764619 -0.1301761 1.330247 -0.9609848 -0.196836 -0.1943297 12093302 male
-0.558682 1.0157 1.257339 0.1832204 0.8758456 -0.4464579 7628123 male
-0.5104114 -0.4527678 1.106587 -0.9139433 -0.2790911 0.2946459 11566712 male
-0.463639 0.03547188 1.141636 0.9551037 0.2920797 -0.04966605 12040375 male
-0.6397568 0.2123697 1.427461 0.03223759 0.1151595 0.9928239 13024957 male
-0.501171 -0.4655704 1.062239 -0.7885413 -0.1950403 -0.5832343 12094595 male
-0.2417854 0.356615 0.9762471 0.149716 0.9859934 -0.07349918 13336448 male
-0.5767994 0.1531878 1.080708 0.4703178 0.2295769 -0.8521127 11512743 male
-0.7537271 0.3701322 1.287448 -0.9953784 0.003724198 -0.09595942 14130045 male
-0.751229 -0.5561467 1.337528 0.3710513 -0.4072215 0.8345609 11039862 male
-0.4794167 -0.2380992 1.063524 -0.05233555 0.2124038 -0.9757796 11108981 male
-0.7522603 -0.3570291 1.334064 -0.9412209 0.3341657 -0.04936272 13079686 male
-0.4791378 -0.4524188 1.044969 -0.248067 -0.101468 -0.9634143 8147532 male
-0.749665 0.5498013 1.21926 -0.9955409 -0.0101351 0.09378672 14392699 male
-0.747131 -0.504058 1.283209 0.3059548 -0.1515952 -0.9398993 11436144 male
-0.5066789 0.2571972 1.270139 0.9600707 -0.2455189 0.1341079 11895411 male
-0.425426 -0.6738171 1.037651 -0.2664152 0.1354024 -0.9543004 9139562 male
-0.506965 0.5334067 1.325826 0.9891738 -0.005276812 0.1466548 13667437 male
-0.5270365 -0.02352667 1.325896 0.9354309 -0.08331718 -0.3435515 12433853 male
-0.6269465 0.9571123 1.3606 -0.4575855 0.150888 0.8762697 8020578 male
-0.7432556 0.6554953 1.359343 -0.9262545 0.2677845 0.2652248 14458497 male
-0.6923888 0.03531506 1.187201 -0.7139246 -0.6354977 0.2940314 11511717 male
-0.3114473 -0.6785754 1.03927 0.1992992 -0.9718428 -0.1257039 9530219 male
-0.6451942 0.7668333 1.154448 -0.1250616 0.8871582 -0.4441958 10582902 male
-0.650811 0.416613 1.546534 -0.1319612 0.382366 0.9145397 11169381 male
-0.5646933 0.6529428 0.9986331 0.5688956 0.4239486 -0.7047167 12358009 male
-0.2477001 0.3157014 0.9095404 0.2362144 0.3399286 -0.910303 10520440 male
-0.4143 0.168856 1.552376 0.02445173 -0.6169762 -0.786602 12944259 male
-0.4956801 -0.1128782 1.206855 0.1342417 -0.1144292 0.9843197 9395293 male
-0.5428281 0.1783718 1.153197 0.8726739 0.4525616 -0.183381 11908782 male
-0.7520662 0.6369852 1.349066 -0.9514643 0.1975509 0.2359864 15180934 male
-0.5358494 0.4271648 1.135097 0.7286092 -0.04759653 -0.683274 13010539 male
-0.4769479 0.8120542 1.290953 0.8969126 -0.1055501 0.4294267 12484215 male
-0.6567483 -0.1371492 1.387486 -0.6743677 -0.1834614 0.7152415 11894397 male
-0.45333 0.2227409 1.580592 0.1896318 0.355224 0.9153447 13283250 male
-0.5142674 0.1658465 1.291924 0.9005564 0.08000086 0.4273152 13421770 male
-0.5942069 0.4841573 1.084643 0.383045 -0.1533935 -0.9109046 11232342 male
-0.6242584 -0.08169149 1.267599 -0.07390906 -0.1617824 -0.9840549 10120289 male
-0.6978831 0.1219411 1.417095 -0.4658115 -0.02738767 0.8844602 10721946 male
-0.4236113 0.4017298 0.8945838 0.1079309 0.08240605 -0.9907373 8673618 male
-0.1729081 0.2966987 0.930238 0.2833138 0.2613444 -0.922731 11244942 male
-0.511981 0.7969153 1.31397 0.2120846 -0.7628613 0.6107887 10974053 male
-0.7663594 0.2627537 1.22979 -0.9314772 0.3513015 -0.09453934 13288379 male
-0.5625501 0.4188526 0.9357269 -0.7155344 -0.6952543 -0.06805921 9658466 male
-0.350912 0.1707765 1.555396 0.4735737 0.5824561 -0.660661 14254975 male
-0.5819703 0.3177601 1.102487 0.581624 -0.06419393 -0.810921 12484459 male
-0.5821123 0.2786763 1.56113 -0.4977522 -0.4887185 0.7165174 11498858 male
-0.7026705 0.3011931 1.096649 -0.550073 0.04038039 -0.83414 12747379 male
-0.6750796 0.0515984 1.224521 -0.4515638 -0.527291 0.7197601 9736340 male
-0.6149891 0.5354165 1.073107 0.2856968 -0.07239475 -0.9555818 11694679 male
-0.68472 0.6314913 1.060438 -0.814913 -0.1546293 -0.5585756 12219999 male
-0.7048821 -0.2905912 1.317909 -0.6805872 0.5408765 -0.4942207 11829883 male
-0.5549759 1.022335 1.310221 0.2004489 0.954563 0.2205216 7496026 male
-0.5614581 0.586537 0.9716617 0.416269 0.4754095 -0.7750523 9791316 male
-0.525248 -0.1488198 1.08739 -0.5166931 -0.1837616 -0.8362178 12619142 male
-0.578153 -0.2662704 1.3122 0.5589375 -0.3629742 -0.745546 9659997 male
-0.5354128 0.3321757 1.149209 0.7461075 -0.001483406 -0.6658239 13272943 male
-0.5762874 -0.09531858 1.096693 -0.6426977 -0.3680412 -0.6719267 11437177 male
-0.6231328 1.002778 1.243209 -0.3903426 0.6996934 -0.5983827 7695979 male
-0.5785676 0.667811 1.396362 0.8619503 0.4790004 0.1661338 13733236 male
-0.6110571 0.5607712 1.075135 0.377895 -0.1057215 -0.9197927 11760220 male
-0.4510095 -0.05076712 1.104038 0.8250812 0.1606184 -0.5417039 10185314 male
-0.5326176 -0.2940839 1.104488 -0.994971 0.08291733 -0.05619329 12487036 male
-0.5313179 -0.1312446 1.356691 0.9799412 -0.1248843 0.1553041 12025714 male
-0.4430704 0.3592024 0.9266824 -0.359821 -0.9053413 -0.2255791 9791340 male
-0.5421385 0.0433912 1.285751 0.8199014 -0.1383769 -0.5555303 11381421 male
-0.6159639 0.7159735 1.38447 0.6096457 0.7286984 0.3119788 11105639 male
-0.4587925 0.4514849 0.9556203 0.40857 0.6028985 0.685262 12417641 male
-0.5849789 0.7819417 1.208092 0.2521719 0.1455482 -0.9566742 13077101 male
-0.4206432 -0.2779092 1.124383 0.9121426 -0.1487701 0.381921 11367787 male
-0.7594538 0.2479009 1.361091 -0.8337418 0.2036088 0.5132429 10262164 male
-0.2732131 -0.6488523 1.07103 0.1235083 0.9907941 0.05543233 7097674 male
-0.6437528 0.3911719 1.464756 0.2955801 -0.1923946 -0.935744 11955820 male
-0.6659256 0.4974304 1.430515 0.06723218 -0.3658295 -0.9282504 11890787 male
-0.666977 0.3399753 1.531478 -0.7271476 -0.5142872 0.4547143 10840157 male
-0.7016408 -0.7126377 1.275248 -0.1058897 -0.5365998 -0.8371668 9134426 male
-0.6807363 0.3773326 1.478502 -0.6568662 -0.3606999 -0.6621348 10247514 male
