# .PCD v0.7 - Point Cloud Data file format
VERSION 0.7
FIELDS x y z normal_x normal_y normal_z rgb label
SIZE 4 4 4 4 4 4 4 4
TYPE F F F F F F U U
COUNT 1 1 1 1 1 1 1 1
WIDTH 194
HEIGHT 1
VIEWPOINT 0 0 0 1 0 0 0
POINTS 194
DATA ascii
0.7657595 -0.6550158 1.059964 0.8193626 0.3679112 0.4396436 10576737 male
0.578872 0.577679 1.018799 -0.3280279 -0.1302909 0.93564 12155759 male
0.9165726 -0.2253348 1.233557 0.2392666 0.1484333 0.9595412 10120298 male
0.6978075 -0.4116669 1.060223 -0.8682596 0.06593484 0.4917094 12814465 male
0.796801 0.7685597 1.164359 0.6499433 0.3225216 0.6881524 11039078 male
0.8654931 -0.1213796 1.000199 0.9979823 0.03902228 -0.05008799 11826540 male
0.7579407 -0.5141867 1.067146 0.860218 -0.2028634 0.4678372 10448485 male
0.8619074 -0.7347175 0.9774024 -0.2094093 -0.9040091 -0.3727133 7493977 male
0.8031615 -0.1501801 0.9417782 0.0009818408 -0.1535338 -0.988143 11173737 male
0.6682962 0.2371162 1.223537 -0.8252154 0.2495483 0.5067005 13156283 male
0.6134697 0.1546123 1.039651 -0.9293791 -0.06166765 -0.3639393 11052448 male
0.6906602 -0.5624274 1.040663 -0.8195207 -0.1352306 -0.556865 10383980 male
0.9565588 -0.0936732 1.202739 0.8509892 -0.0619 0.5215228 9789531 male
0.7670151 0.7674183 1.204407 0.08138153 0.8932215 0.4421905 10383467 male
0.6093163 0.09972949 0.8617252 0.127223 -0.6507519 0.7485562 13533820 male
0.7024322 0.9964411 1.080156 -0.7546388 0.5353927 -0.3793089 8418419 male
0.8798923 0.4483435 1.365424 -0.1200417 0.03870123 0.9920143 12614771 male
0.8443813 0.3508266 1.252554 0.6336726 0.1225158 0.7638385 13407362 male
0.7105629 0.533941 0.9531964 -0.1615235 -0.1197496 -0.9795768 11891813 male
0.7168388 -0.1241502 1.033361 -0.9144897 -0.3216453 0.2454652 13211015 male
0.6947758 0.4742962 1.244864 -0.64944 -0.1414965 0.7471322 14062203 male
0.7832467 0.08648309 1.111782 0.4827527 -0.07468707 0.8725663 13024966 male
0.8427048 -0.1783061 1.15324 -0.9696534 -0.1776911 -0.1679232 11038828 male
0.8100542 1.010096 1.045148 0.1538804 0.7499786 -0.6433141 7561562 male
0.5254792 0.2515503 0.8810816 -0.6516854 0.02754949 -0.7579891 10979185 male
0.6221306 0.4975668 0.9932829 -0.6929868 -0.2609932 -0.6720507 10973789 male
0.9238652 0.4150019 1.371132 0.2719887 0.06741629 0.9599361 11763313 male
0.7853314 -0.5529413 1.249981 -0.9620879 0.18314 0.2021061 12161159 male
0.8012692 0.008641873 1.108633 -0.5233019 -0.1925562 -0.830107 10786452 male
0.8136109 -0.3382078 1.233303 -0.9169189 0.250807 0.3104122 11699838 male
0.5854038 0.2111033 0.8778473 0.9352117 0.2619015 -0.2383002 12163734 male
0.8254424 0.7108127 1.111654 0.8487003 0.4550519 -0.2695102 12284519 male
0.8126864 -0.2670793 0.9514477 0.005397549 -0.1546563 -0.9879537 8871509 male
0.7577964 -0.6595881 1.278497 -0.8116885 0.3034688 0.4990679 10446950 male
0.7471201 0.4954795 1.276263 -0.2377425 -0.199882 0.9505398 12747887 male
0.7274958 0.08819605 1.258818 -0.4872943 -0.5751874 0.6570417 11118249 male
0.6741467 0.7629451 1.104249 -0.6220419 0.7225575 0.3016196 11500149 male
0.7109765 0.995669 1.0672 -0.661755 0.5340762 -0.526159 9404022 male
0.7541767 0.4693635 1.273156 -0.1597327 -0.2146768 0.9635349 13010803 male
0.6131691 0.4130902 1.061162 -0.9768125 -0.1659452 -0.1352766 14260096 male
0.6438763 0.5013998 0.9771773 -0.4799996 -0.2114228 -0.8514111 13012592 male
0.6077337 0.7121296 1.035822 -0.7955846 0.6057536 0.01038361 12553082 male
0.6318596 0.2036462 1.168658 -0.8769664 0.09768861 0.4705181 13026246 male
0.6090409 0.01863557 0.8152576 0.3515745 0.186995 -0.917294 10778742 male
0.81026 -0.181623 1.074566 0.1773691 -0.02467782 0.9838351 9790307 male
0.670655 0.4149678 1.205097 -0.9065662 -0.1649212 0.3885086 14589571 male
0.8507254 0.05328837 0.9985284 0.9743422 0.1074606 -0.1977618 13157824 male
0.8960565 -0.2330121 1.235457 -0.09051749 0.2844531 0.9544073 9724250 male
0.8669233 0.6192953 1.100865 0.7895824 0.3969729 -0.4679448 14062195 male
0.7272042 -0.2854797 1.033355 -0.8380885 0.3857411 0.3857612 12487030 male
0.7510211 -0.3751412 1.088565 0.03626198 0.1128546 0.9929497 10120299 male
0.810688 0.7381771 1.251314 0.2456551 0.8510513 0.4640747 11701902 male
0.6280335 0.4093137 1.131172 -0.8139868 -0.1704633 0.5553089 14393473 male
0.8360808 -0.2675217 1.040378 0.7819142 -0.2774335 0.5582483 9723234 male
0.9169468 -0.7161698 1.144782 -0.3932502 -0.03020607 -0.9189354 5591629 male
0.7472104 0.5477675 1.284564 -0.3000388 -0.25754 0.9185042 13274223 male
0.610825 0.2557144 1.066003 -0.9780863 0.2055878 -0.03287858 12434101 male
0.5411932 0.5632982 0.9888721 -0.9344159 0.2631625 0.2400265 11893099 male
0.820838 0.90197 1.165851 0.5292194 -0.4943226 0.6896175 13008251 male
0.8038718 -0.5878564 1.269179 -0.2986897 0.07081475 0.9517194 11961723 male
0.643858 0.1320893 0.9896241 -0.7867687 -0.04197982 -0.6158189 11578792 male
0.7913132 0.8569987 1.164182 0.2767753 -0.2014759 0.9395761 11565170 male
0.870859 0.8789348 1.031318 -0.1688947 -0.9229485 -0.3458911 11167846 male
0.8799119 0.4983883 1.269586 -0.01568993 -0.2422732 -0.9700813 13143152 male
0.9453038 -0.2214799 1.215619 0.7215348 -0.02034987 0.6920792 10449263 male
0.7713773 0.8827288 1.019598 -0.3760946 -0.111438 -0.9198558 13340288 male
0.8804518 -0.7358847 0.9729347 -0.05878207 -0.9671347 -0.2473767 7689810 male
0.9451311 -0.2281391 1.215056 0.7344223 -0.02196229 0.6783375 10646128 male
1.143124 0.2439715 1.198272 -0.3273419 -0.4920808 -0.8066622 12813953 male
0.7695456 -0.168822 0.953077 -0.462131 -0.1041867 -0.8806703 13016723 male
0.7857594 0.1928243 0.9742025 0.5828474 0.1971075 -0.7883133 11381930 male
0.6240021 0.2676183 1.117003 -0.8890663 0.3024662 0.3436212 13024957 male
0.7326941 0.6796378 0.9827037 0.5747057 0.5067858 -0.6425587 11892320 male
0.7161758 0.5317656 1.26922 -0.5178816 -0.1784271 0.8366377 13340528 male
0.8592535 0.2684896 1.250956 0.6852334 0.3340172 0.6472154 12038316 male
0.7132137 0.1496924 0.9428762 -0.1864086 0.04164847 -0.9815893 12170413 male
0.7429457 0.4017498 1.262712 -0.2740524 0.04346441 0.9607322 12813168 male
0.8030803 0.8304721 1.022292 -0.1785928 -0.400849 -0.8985683 12945019 male
0.7730402 -0.7055385 0.968566 -0.1763055 0.8107793 -0.5581697 6506817 male
0.818146 0.3790944 1.262125 0.4051692 0.1823061 0.8958808 12092529 male
0.8656046 0.4460541 1.22226 0.8068015 -0.03239712 0.5899339 12812400 male
0.8537384 0.04096426 1.017228 0.998875 0.04483283 -0.01546079 11907757 male
0.6632194 0.2341433 0.9679306 -0.5528761 0.1057143 -0.8265306 12959156 male
0.7558356 -0.2780268 0.9632582 -0.4657573 0.06665174 -0.882399 11965316 male
0.5144005 0.2672706 0.9403667 -0.776488 -0.366526 0.5125675 13011579 male
0.5346925 0.2952562 0.8817641 -0.2225356 0.1445902 -0.9641431 16772054 male
1.157132 0.2944903 1.179988 0.4236578 0.8796723 0.2160806 12614270 male
0.704028 -0.3349053 1.040027 -0.8945431 0.3056191 0.3261746 13868683 male
0.5834095 0.06305578 0.8514169 0.4307191 -0.332837 0.8388688 11902612 male
0.7206376 -0.4063137 0.9792157 -0.4731582 -0.1446812 -0.8690161 12888721 male
0.893141 0.3138756 1.166312 0.9576408 -0.01705319 0.2874604 13668983 male
0.8478685 -0.1677511 1.050073 0.7559056 -0.0680309 0.6511365 9985631 male
0.894841 0.1550464 1.086906 0.9980437 0.04190132 -0.04640281 13157832 male
0.8780272 -0.1758851 1.110922 -0.2551563 -0.1412607 -0.9565254 10315877 male
0.8977806 0.3201932 1.146952 0.969798 0.02177656 0.2429359 13537907 male
0.6823954 -0.5949662 1.056955 -0.9566979 -0.04532815 -0.2875322 12818063 male
0.6142894 0.1291638 0.840113 0.2123379 0.4927893 -0.8438433 13335165 male
0.8295134 0.7219898 1.16293 0.8052603 0.5901579 -0.05718201 13337720 male
0.5514758 0.03617546 0.8630724 0.7253893 -0.1830082 0.6635649 11172984 male
0.8712717 0.4218541 1.213755 0.8453624 0.009362853 0.5341114 12877937 male
0.7143432 0.8917698 1.035691 -0.06525937 -0.02445972 -0.9975685 13140603 male
0.9096519 -0.1035344 1.236736 0.3411878 -0.1262056 0.9314845 9529189 male
0.741991 0.3605283 0.9643591 0.1350668 0.05697086 -0.9891974 13010539 male
0.9339296 -0.3437812 1.220872 0.9597322 -0.1802564 0.2154581 10712938 male
0.8917924 0.09136803 1.090184 0.5384474 -0.04702468 -0.8413461 12500418 male
0.6638796 0.5064831 1.213128 -0.8829483 -0.1127918 0.4557197 14787718 male
0.6795825 0.6481298 1.237484 -0.8368993 0.2273711 0.4978977 15181703 male
0.7157268 -0.4548534 1.082886 -0.4851591 0.03803306 0.8735985 11303797 male
0.7195852 0.4843142 1.263233 -0.4953817 -0.1862189 0.8484809 12946288 male
0.5979589 0.6778537 1.080456 -0.9014732 0.3236205 0.2874301 14063227 male
0.8537324 -0.1540335 1.214526 -0.6947027 -0.2374075 0.678989 13539979 male
0.7785549 0.4385496 1.26982 0.04340349 -0.1671115 0.9849823 12155755 male
0.728882 -0.05396228 1.092829 -0.4478333 -0.2807344 0.8489016 9202531 male
0.6564566 0.3580281 0.9811144 -0.5459073 0.1528074 -0.8237932 12091501 male
0.7253192 -0.1433398 1.026527 -0.931083 -0.3033519 0.2026388 13210247 male
0.6806244 -0.5982229 1.063777 -0.9888076 -0.02575197 -0.1469575 11566191 male
0.8836524 0.391214 1.047508 0.8744056 0.09471188 -0.4758621 13865078 male
0.8290502 -0.1243274 1.205041 -0.828599 -0.3398202 0.4449114 12093302 male
0.7618557 1.019083 1.05867 -0.2095298 0.8172927 -0.5367774 7628123 male
0.7289183 -0.477056 1.088295 -0.06959825 0.002180163 0.9975728 9529183 male
0.84553 0.01113146 1.056199 0.9109855 -0.05614859 0.408599 10658458 male
0.8176604 0.2332452 1.283625 0.2804813 0.07978287 0.9565381 10262164 male
0.6951561 -0.5107509 1.023443 -0.8069731 -0.1466687 -0.5720863 9791845 male
0.6248842 0.1412345 0.8614331 0.5673653 0.8217826 -0.05263108 12288640 male
0.7172259 0.1345387 0.9411419 -0.1813591 0.04921801 -0.9821846 11907757 male
0.6976572 0.4583121 1.244751 -0.6238956 -0.1534412 0.7662964 13800567 male
0.8607723 -0.5591448 1.246458 0.8760114 -0.2515982 0.411464 11039862 male
0.8029933 -0.3560352 0.9769768 0.7113436 -0.2607794 -0.6526749 11895411 male
0.826104 -0.3071597 1.235375 -0.8502225 0.3470596 0.3958176 11501424 male
0.7257087 -0.4837728 0.9956503 -0.2028187 -0.2533622 -0.9458712 13020056 male
0.6587056 0.3982036 1.161259 -0.8212921 -0.113153 0.5591743 13669501 male
0.8199801 -0.5128209 1.202831 -0.3082286 -0.1923931 -0.9316546 11436144 male
0.8898619 0.2511337 1.08388 0.9564606 -0.1831754 -0.2272224 12698047 male
0.6959475 -0.7024838 1.037079 -0.7057678 0.1048812 -0.7006367 9139562 male
0.9007453 0.5846302 1.149464 0.9465896 0.2802616 -0.1594418 13075308 male
0.9252368 4.00932E-05 1.109282 0.5269933 0.003262602 -0.8498634 12433853 male
0.7653652 0.9650284 1.188788 0.04984304 0.1936221 0.9798093 8086371 male
0.7266098 0.686063 1.269292 -0.5704335 0.3694459 0.7335637 13998198 male
0.686619 0.04077762 1.112727 -0.4480742 -0.5023574 0.7395044 11511717 male
0.792004 -0.7352253 0.9815187 -0.01613832 -0.999811 0.01083922 9530219 male
0.657667 0.7579197 1.042033 -0.5026705 0.8115284 -0.2978994 10582902 male
0.8969357 0.4321885 1.369279 0.09415785 0.09771319 0.9907506 11036767 male
0.5967993 0.6060752 0.9093417 -0.2094891 -0.01951834 -0.9776162 11633513 male
0.5578002 0.1238901 0.8435062 -0.5161159 0.07729174 -0.8530244 11312527 male
1.149567 0.246914 1.192598 -0.3829145 -0.6820707 -0.6230217 13009284 male
0.8554613 -0.008879675 0.9897505 0.9808639 0.05973508 -0.1853051 13091775 male
0.7260396 0.09853907 0.9357169 -0.1860185 0.04387481 -0.9815663 11447981 male
0.7002649 0.6375322 1.266812 -0.6443636 0.1520741 0.749446 15378311 male
0.7750348 0.4122936 0.9711449 0.2221877 -0.02073381 -0.9747835 13077100 male
0.8718097 0.8141837 1.053419 0.9462688 -0.2857284 -0.1514428 12091256 male
0.8806759 -0.122856 1.237782 -0.05715469 -0.2000905 0.9781091 11894397 male
1.113936 0.2869298 1.25968 0.5649683 0.1652076 0.8084043 8608340 male
0.8949721 0.153634 1.090637 0.9928026 0.05466699 -0.1065583 13091527 male
0.8463539 0.4909377 1.02807 0.8123662 0.2173942 -0.5411112 13733230 male
0.8234357 -0.07578199 1.123455 -0.6352837 -0.2639392 -0.725776 10120289 male
0.8186488 0.08215891 1.282584 0.00770247 -0.1870806 0.9823145 9868178 male
0.5037625 0.2854205 0.9226217 -0.9811413 -0.1925598 0.01681441 13273728 male
0.5878614 0.03650178 0.8228452 -0.8392159 -0.1620253 -0.5190998 9730419 male
0.8505049 0.798824 1.075083 0.4875327 -0.8403128 0.2370363 10646120 male
0.610449 0.1962319 1.127911 -0.9290975 0.09600346 0.3571574 13355205 male
0.5079049 0.3945703 0.99572 -0.5263541 -0.104649 0.843801 9658466 male
1.176104 0.2500734 1.168445 -0.5359868 -0.5721128 -0.6208102 13270404 male
0.7116872 0.2931416 0.9641054 -0.07285199 -0.03773037 -0.9966289 11365722 male
1.035508 0.3236951 1.310276 0.4778684 -0.2185601 0.8508076 10841459 male
0.6402193 0.3051968 1.133881 -0.866513 0.1231827 0.4837165 13274484 male
0.7838282 0.03019032 1.111277 0.3741761 -0.08507282 0.9234474 9670034 male
0.6653685 0.5111911 0.9661325 -0.3303416 -0.1460887 -0.9324874 11430235 male
0.5809517 0.671212 1.001479 -0.8982725 0.4384146 0.02999121 12156768 male
0.8017869 -0.3972168 1.209751 -0.9836513 0.01360148 -0.1795699 10842475 male
0.7945369 1.032814 1.098601 0.1781898 0.9838519 -0.01684821 7496026 male
0.5611489 0.5407754 0.9279443 -0.4165567 0.09512385 -0.9041195 9791316 male
0.7586721 -0.1831885 0.9623579 -0.6950156 -0.0809789 -0.71442 10448230 male
0.9171703 -0.2468732 1.128897 0.04284439 -0.3484522 -0.9363469 9659997 male
0.8385721 0.3602052 0.9941126 0.5114235 0.06182997 -0.8571016 13536107 male
0.7227896 -0.1399346 1.00767 -0.9473987 -0.2926681 -0.1295429 13145999 male
0.7031081 1.001302 1.085906 -0.7432387 0.5935411 -0.3087158 7695979 male
0.8028924 0.7120083 1.285339 -0.05467604 0.6910536 0.7207326 12620675 male
0.6637576 0.570537 0.9663014 -0.149424 -0.3749409 -0.9149273 11038301 male
0.8107009 -0.127657 0.9395767 0.1743369 -0.1403807 -0.9746282 9791315 male
0.7186762 -0.4595099 0.9908953 -0.4046446 -0.2104634 -0.889926 14206887 male
0.9460866 -0.1351185 1.116115 0.5535993 -0.01004165 -0.8327228 12222323 male
0.519948 0.2722205 0.9506367 -0.6001193 -0.4022885 0.6913906 9791340 male
0.9191527 0.07621482 1.110725 0.6934943 0.0859195 -0.7153206 13355976 male
0.8012847 0.7281407 1.265526 0.02216561 0.8083533 0.5882802 11635332 male
0.56679 0.3599851 0.9134031 0.8809711 0.1801699 -0.4375259 11892067 male
0.7300242 0.7963703 1.057486 -0.55371 0.05598071 -0.8308259 13540741 male
0.8069269 -0.356463 1.040895 0.9326471 -0.1528575 0.3268092 11303019 male
0.7125871 0.2418578 1.270516 -0.5143554 0.1963045 0.8348073 10722979 male
0.8442269 -0.7102987 0.9836313 0.2540507 0.9366279 -0.2412185 7097674 male
0.9285203 0.4126459 1.310362 0.2047346 0.5439455 -0.8137611 12749431 male
0.8198375 0.5442999 1.283365 -0.5727744 -0.42999 -0.6978813 11892587 male
0.9215378 0.3525785 1.349968 -0.1891435 -0.7084907 0.6799014 12154215 male
0.9602185 -0.7218485 1.127762 -0.183698 0.5342348 -0.8251355 5922138 male
0.8336632 0.4705018 1.328329 -0.8589716 -0.4111936 0.3051028 11629931 male
