# .PCD v0.7 - Point Cloud Data file format
VERSION 0.7
FIELDS x y z normal_x normal_y normal_z rgb label
SIZE 4 4 4 4 4 4 4 4
TYPE F F F F F F U U
COUNT 1 1 1 1 1 1 1 1
WIDTH 193
HEIGHT 1
VIEWPOINT 0 0 0 1 0 0 0
POINTS 193
DATA ascii
-0.2255265 -0.6889141 1.132124 0.459957 0.248082 0.8525815 11300724 male
-0.2544202 0.4911615 0.9933323 -0.3890497 -0.3301106 0.8600393 9394768 male
0.07581767 -0.1376748 1.317415 -0.5534784 0.00460389 0.832851 10447975 male
-0.2512583 -0.3981708 1.137105 -0.7568095 0.1846593 0.6270092 11106413 male
-0.09365611 0.8312774 1.227808 -0.04784828 -0.1414293 0.9887914 11696496 male
-0.2151655 -0.4709942 1.142367 0.4975739 -0.2922721 0.8166991 10053984 male
-0.2525403 -0.5810457 1.12982 0.5996103 -0.002975745 0.8002867 10576991 male
-0.1316213 -0.7447013 1.064167 0.10618 -0.8796829 0.4635556 7099730 male
-0.154585 -0.214909 1.043114 -0.6389602 0.05380439 -0.767356 11894644 male
-0.2616468 0.2292663 1.261955 -0.9296551 0.2321561 0.2860861 13156283 male
-0.281211 0.106107 1.167781 -0.8935738 -0.352924 0.2774361 13486540 male
-0.2371989 -0.5053787 1.061149 0.1019604 -0.282988 -0.9536887 10649964 male
0.1065937 -0.0240982 1.313345 0.6874487 0.2036608 0.6970916 9789531 male
-0.1928827 0.7391837 1.225038 -0.710418 0.6839854 0.1657413 12881536 male
-0.07834712 0.1102064 0.8729128 -0.1855613 -0.5041746 0.8434306 14059140 male
-0.1500107 0.9774581 1.127473 -0.6888157 0.4892758 -0.5349228 7433064 male
-0.1114565 0.4621961 1.426569 -0.5875072 -0.01959433 0.8089818 13864833 male
-0.07220997 0.3245402 1.311296 0.651415 -0.004009999 0.7587113 12878961 male
-0.1271115 0.5196572 1.003492 0.1638909 -0.1555101 -0.9741441 11891813 male
-0.1961482 -0.1122789 1.067157 -0.8906474 -0.1849114 -0.4153978 12424075 male
-0.2106757 0.5011215 1.315997 -0.6361899 -0.1251872 0.7613086 12617580 male
-0.1217388 0.02341646 1.185585 0.202731 -0.06371915 0.9771593 10196123 male
0.02603425 -0.1146449 1.253745 -0.8194929 -0.5390852 -0.1944703 12552326 male
-0.02637339 1.000182 1.142017 0.4362089 0.8427433 -0.3154452 8087898 male
-0.1971415 0.263519 0.8570636 -0.3393727 -0.1330549 -0.9311943 8016969 male
-0.1321368 0.5364279 1.001327 0.10254 -0.1393396 -0.9849215 11629152 male
-0.04758034 0.4091873 1.44853 0.3852956 0.4693258 0.7945317 10185055 male
-0.01458799 -0.4068507 1.295867 -0.9896203 0.1218116 -0.07624841 11896443 male
-0.02091192 -0.01164011 1.193031 -0.1789497 -0.364361 -0.9139028 7098963 male
-0.01035195 -0.4456869 1.273425 -0.590315 0.01309659 -0.8070669 10514534 male
-0.2337624 0.3161273 0.9477241 -0.2501257 -0.3955413 0.8837333 10644324 male
-0.1310154 0.3476843 1.021952 0.3457918 0.01404774 -0.9382062 12352869 male
-0.1177456 -0.269475 1.036402 0.0875553 -0.1028433 -0.9908368 9727322 male
0.01497054 -0.5849904 1.331404 0.1756036 0.3127822 0.9334511 11043717 male
-0.1316606 0.434539 1.330769 0.08654043 -0.09495386 0.991713 14461598 male
-0.237743 0.1033379 1.291136 -0.8071108 -0.4562964 0.3746546 13422028 male
-0.1806888 0.7641909 1.120366 -0.5339451 0.8326942 -0.1467071 12488055 male
-0.1564109 0.9700415 1.128895 -0.7575755 0.3988665 -0.5167061 7103332 male
-0.1804243 0.4643341 1.328139 -0.3266639 -0.1658478 0.9304759 12222315 male
-0.2579191 0.4424965 1.052015 -0.7887943 -0.2023869 -0.5803822 13009523 male
-0.2012486 0.4921769 1.004576 -0.1878067 -0.2131807 -0.9587924 13012592 male
-0.233613 0.7049656 1.039105 -0.6911095 0.6411596 -0.3335897 12553082 male
-0.29264 0.2024726 1.129865 -0.9874908 0.140275 -0.07200801 12761777 male
-0.008098077 0.01284658 0.8448493 0.6274803 0.3569482 -0.6919947 12155506 male
-0.142719 -0.1932029 1.153585 -0.4418046 -0.01186685 0.897033 9724518 male
-0.2522765 0.48842 1.258213 -0.9283011 -0.04694081 0.368855 14589572 male
-0.06063445 0.003722673 1.150081 0.7766935 -0.1345176 0.6153476 11118248 male
0.08662975 -0.1453086 1.32318 -0.4502388 0.09262211 0.8880914 11105388 male
-0.05956478 0.6880485 1.247945 0.8358121 0.5332547 0.130605 11760486 male
-0.1861951 -0.382167 1.034494 0.1115588 -0.1437693 -0.9833032 10847851 male
-0.2655467 -0.3996056 1.110822 -0.9496996 0.220804 0.2220728 12617086 male
-0.0478618 0.6649218 1.261158 0.871109 0.4881883 0.05330509 12221550 male
-0.2802764 0.4778509 1.094565 -0.9858528 -0.06684463 -0.1537083 13734774 male
-0.1358392 -0.3097191 1.137407 0.3835855 -0.2333239 0.8935448 10446946 male
0.1470089 -0.6505532 1.249478 -0.08518045 -0.8935767 -0.4407551 5526866 male
-0.01305694 0.5214978 1.268022 0.8427594 -0.2081048 0.4964365 13007727 male
-0.2580707 0.3671908 1.186858 -0.9491364 -0.01457218 0.3145283 13669493 male
-0.2673537 0.5629387 0.9819648 -0.9786982 0.1256378 0.1623739 13536891 male
-0.04440766 0.8966113 1.234714 0.3851232 -0.1215791 0.9148218 10643815 male
-0.01164728 -0.4685908 1.324636 -0.5562295 -0.02238878 0.8307272 11305082 male
-0.1787901 0.1739398 1.006806 -0.1974349 0.003995945 -0.9803079 12763576 male
-0.1234939 0.7799249 1.226722 -0.1185174 0.3703496 0.9213008 10843499 male
0.02614771 0.8619056 1.126351 0.2678088 0.1984527 -0.9428124 13465972 male
-0.0903194 0.5572318 1.334593 0.06254891 -0.4531924 -0.8892156 12418411 male
0.1179829 -0.1105716 1.329335 0.2769756 0.1350071 0.9513453 11304063 male
-0.1101947 0.8887914 1.089252 -0.3993071 -0.1740975 -0.9001356 13403514 male
-0.1566237 -0.7451048 1.078614 -0.07552566 -0.991579 -0.1052001 7691869 male
0.08443585 -0.1939029 1.341235 -0.07883183 0.2478491 0.9655861 10052713 male
0.2088042 0.2808577 1.324162 -0.1952 -0.4321715 -0.8804118 12354688 male
-0.08224259 -0.1052299 1.019378 0.4149291 -0.1778419 -0.892304 9725531 male
-0.1373661 0.2074274 1.009854 0.3292843 0.1462925 -0.9328294 10856101 male
-0.2661446 0.2662248 1.069615 -0.8771643 0.08970323 -0.4717376 10845556 male
-0.08425029 0.7109809 1.115652 0.7342206 0.02544931 -0.678434 12746344 male
-0.2465342 0.516617 1.270609 -0.9076409 -0.0672566 0.4143246 14063739 male
-0.144648 0.2747059 1.347804 0.01285676 0.2766051 0.9608978 10854042 male
-0.08851468 0.138239 1.032671 0.6355449 0.2572264 -0.7279543 11250347 male
-0.2020805 0.4034861 1.311323 -0.5247049 0.03931124 0.8503762 12289137 male
-0.02180036 0.8380696 1.097847 0.3951712 -0.154433 -0.9055333 15112844 male
-0.2136244 -0.6953806 1.06963 0.2526023 0.7650623 -0.5923443 7362383 male
-0.08854205 0.3735808 1.317457 0.4930453 0.0894163 0.8653966 12680813 male
-0.04155413 0.4019884 1.27322 0.8039895 -0.03219839 0.5937715 13206899 male
-0.07516444 -0.005180458 1.162114 0.6108329 -0.1275923 0.7814113 9934735 male
-0.01036335 0.4060537 1.147883 0.9702265 0.1384883 -0.1986997 13536883 male
-0.1431328 -0.3848675 1.097761 0.878756 -0.3952433 0.2675273 11040619 male
-0.2009155 0.2336974 0.8724242 -0.7317942 -0.4637373 -0.4994249 12551035 male
-0.2433614 0.29957 0.8833334 -0.8145661 -0.3473288 -0.4645913 13536383 male
0.2104167 0.3249076 1.355548 0.443335 0.4805975 0.7566245 13878457 male
-0.2316641 -0.457557 1.048901 -0.1284277 -0.1925248 -0.9728519 14007707 male
-0.09827369 0.1126212 0.8741985 0.2133208 -0.3449011 0.9140775 13009538 male
-0.174789 -0.4402906 1.059506 0.6612048 -0.4481478 -0.601641 10121065 male
-0.02963177 0.3455357 1.248877 0.8659226 0.03386141 0.4990307 13340275 male
-0.06970891 -0.1269766 1.137594 0.6955622 -0.06518627 0.7155027 10643045 male
-0.02191507 0.1632455 1.130744 0.8050897 0.06607033 -0.5894622 13552582 male
0.09039032 -0.1176027 1.206919 0.02800035 -0.1451823 -0.9890087 10315877 male
-0.01457198 0.3332103 1.221667 0.9145979 0.05958276 0.3999512 13535860 male
-0.1746964 -0.4418424 1.10815 0.855757 -0.4073437 0.3189847 10318443 male
-0.09118509 0.1442633 0.8445683 0.2763641 0.2612836 -0.9248534 10324084 male
-0.2504064 0.1393407 1.053962 -0.7240013 -0.05969345 -0.6872109 11316652 male
-0.120054 0.08626255 0.8475157 -0.7842084 -0.2000014 -0.5873813 8936534 male
-0.03732076 0.3591423 1.261562 0.8460698 -0.005198089 0.533047 13601652 male
-0.1159522 0.8801941 1.090097 0.9400126 0.1440996 -0.3092116 11165535 male
0.06147749 -0.05102929 1.336376 0.1565372 -0.06194162 0.9857279 9529189 male
-0.2727446 0.1831122 1.074882 -0.833486 -0.03954555 -0.5511238 11249834 male
0.02482381 -0.2988773 1.346348 -0.5326964 0.0666107 0.8436812 11171696 male
0.01256593 0.1428461 1.214412 0.7862633 0.4302569 -0.4434741 14013134 male
-0.2594888 0.5088602 1.235657 -0.9869782 -0.03344049 0.1573405 14919304 male
-0.2168274 0.7089421 1.196578 -0.8794748 0.4676065 0.088705 14325888 male
-0.2208098 -0.4045181 1.155118 -0.1038863 0.002692982 0.9945856 9596263 male
-0.2535392 0.3194624 1.228993 -0.9889221 0.06659246 0.1326603 13539448 male
-0.2827259 0.5670761 1.084546 -0.9888696 -0.07610586 -0.1278474 13273711 male
0.03630833 -0.1113818 1.302119 -0.7194656 -0.465688 0.515271 13539979 male
-0.1705637 0.4504064 1.329531 -0.2413425 -0.141645 0.9600472 11893099 male
-0.2109397 -0.02977433 1.141859 -0.8500743 -0.2368071 0.4704214 11972526 male
-0.1665451 0.3756309 1.016144 0.009294903 0.0007432775 -0.9999567 12286817 male
-0.1924398 -0.1283201 1.069622 -0.9013741 -0.1910493 -0.3886196 12883597 male
-0.162416 -0.4313925 1.091386 0.8904245 -0.4350077 0.1338379 11831419 male
-0.04582038 0.351004 1.073819 0.6687936 0.004346222 -0.7434356 13405289 male
0.07633726 -0.1475081 1.221361 -0.511804 -0.2980278 -0.805752 8541777 male
-0.07637386 1.0063 1.1265 0.04389972 0.8492424 -0.526175 7628125 male
-0.2537406 -0.456972 1.145442 -0.4637357 0.05742539 0.8841107 9857376 male
-0.03907133 -0.01780239 1.087193 0.9968399 -0.04880798 0.06267548 13552582 male
-0.1631221 0.2468616 1.352924 -0.1672017 0.143261 0.9754589 10656406 male
-0.2465511 -0.4779607 1.05593 -0.2643428 -0.1543691 -0.9519944 10783098 male
-0.02980219 0.1453401 0.8869762 0.493507 0.6141299 -0.6158697 13270135 male
-0.07386439 0.1444937 1.055489 0.7780336 0.2862114 -0.5592381 11908530 male
-0.2115949 0.4821935 1.313207 -0.6409841 -0.1407484 0.7545392 13011571 male
0.01479103 -0.4391512 1.337174 -0.09761004 -0.1437662 0.9847862 9198947 male
-0.1398021 -0.3349212 1.039675 0.4030614 -0.1784404 -0.8976084 9792096 male
-0.01216681 -0.4954266 1.274594 -0.3904118 -0.006348821 -0.9206187 11038567 male
-0.2784879 -0.5079927 1.077071 -0.6845566 -0.01591361 -0.7287861 10842476 male
-0.2622517 0.5644675 1.190335 -0.9525338 0.05829264 0.2988001 14064251 male
0.04575664 -0.3845112 1.253863 0.3357961 -0.2722155 -0.9017427 10910573 male
-0.01696011 0.1883603 1.185862 0.9676964 0.2199314 0.1232647 13026246 male
-0.2849678 -0.6842465 1.080499 -0.3023371 0.2671882 -0.914988 10713202 male
-0.003115345 0.5326332 1.205958 0.9833915 0.02780552 -0.1793551 13799023 male
0.06190814 0.05759011 1.213667 0.6512285 0.237763 -0.7206736 12433853 male
-0.1283721 0.9256398 1.244642 -0.3487176 0.02355379 0.9369319 7493717 male
-0.2471362 0.5851012 1.279581 -0.9263795 -0.02939808 0.3754424 14656648 male
-0.2394677 0.02512431 1.10049 -0.9077834 -0.4147773 -0.06236434 13748937 male
-0.2567127 -0.7229928 1.113819 -0.04506171 -0.9533058 0.2986258 10315628 male
-0.1875249 0.7489376 1.067087 -0.2849443 0.8329287 -0.4743803 10582902 male
-0.03616926 0.3791663 1.448908 0.1162178 -0.0422341 0.9923255 12815233 male
-0.2304213 0.569191 0.9181871 -0.343145 0.1438863 -0.9281964 11434860 male
-0.1089894 0.07817403 0.8395102 -0.329943 -0.04935843 -0.9427097 10515568 male
0.1784879 0.2895355 1.33652 -0.6046702 -0.6557288 -0.4520993 12420731 male
-0.04072816 -0.05986044 1.063481 0.9666141 -0.08355159 -0.2422321 11375236 male
-0.05757583 0.1228593 1.068188 0.8453768 0.2867111 -0.4507052 12764097 male
-0.2267253 0.6486801 1.297169 -0.8163373 0.2824717 0.5037891 15050122 male
-0.06863534 0.4302794 1.050252 0.6188366 -0.0181811 -0.7853094 13076332 male
0.01280811 0.8302177 1.175152 0.9441437 -0.1765218 0.2782682 12944762 male
0.02242148 -0.08541577 1.320383 -0.4489204 -0.4221929 0.7875429 12091518 male
0.1747009 0.3450858 1.358241 0.3383502 0.8479379 0.4080694 8081745 male
-0.02971298 0.2000013 1.124415 0.8470512 -0.01871007 -0.5311822 12894656 male
-0.02536308 0.5152397 1.153149 0.9383262 0.04186277 -0.343208 13996402 male
-0.2102451 0.07194804 1.226094 -0.3360949 -0.5831273 -0.7395964 10921382 male
-0.1239978 0.1038478 1.358488 -0.2059889 -0.1633351 0.9648266 9736084 male
-0.2227766 0.2999704 0.8629792 -0.4644376 -0.09271289 -0.8807397 10578522 male
-0.01487031 0.02979938 0.8494942 0.8823948 0.4699554 -0.02283472 11498097 male
-0.003757357 0.8052213 1.190935 0.6633379 -0.4027776 0.6306769 12223352 male
-0.2841924 0.2427159 1.136563 -0.9617384 0.2706182 0.04272157 12827578 male
-0.2901394 0.3858221 0.9177533 -0.9698716 0.08288655 -0.2290834 12287855 male
0.3073044 0.3102791 1.277161 -0.5060935 -0.4985439 -0.7037922 13729662 male
-0.1103325 0.321797 1.032388 0.4676443 -0.01794145 -0.8837348 13012595 male
0.06497421 0.3644939 1.416348 0.4722874 0.3685921 0.8006777 9728608 male
-0.2597786 0.300076 1.052181 -0.8070961 -0.09758024 -0.5823009 13338232 male
-0.135667 -0.009195746 1.184339 0.05947499 -0.133708 0.9892346 9275270 male
-0.1762161 0.5002244 1.001061 -0.0121618 -0.1667479 -0.9859247 11430235 male
-0.2384576 0.6701461 0.9924945 -0.7184477 0.5422782 -0.435623 11959127 male
0.006763226 -0.2645383 1.286581 -0.956934 0.2579089 -0.1332681 11765630 male
-0.1535122 0.8172797 1.198712 -0.8007819 0.01937478 0.5986428 13535348 male
-0.1999702 0.4360977 0.9181944 0.8781415 -0.07360152 -0.4727057 12550252 male
-0.1768496 -0.2289068 1.082555 -0.9655562 0.2426216 -0.09400052 11567729 male
0.1596965 -0.1857487 1.251954 0.5706468 -0.4815425 -0.6651912 10186857 male
-0.1077387 0.3058529 1.034516 0.4676283 -0.06775984 -0.8813244 13011307 male
-0.18881 -0.08056079 1.044319 -0.7318127 -0.1791942 -0.6575254 10449519 male
-0.1422511 0.9790387 1.119776 -0.5879496 0.5032449 -0.6332929 8287085 male
-0.04931314 0.6643164 1.275476 0.8725316 0.488544 -0.00368309 12747117 male
-0.1700524 0.5591307 0.9990676 0.1541166 -0.3992966 -0.9037757 11038301 male
-0.1209335 -0.1819376 1.028744 -0.1097046 -0.1304403 -0.9853681 11109487 male
-0.2213187 -0.4286926 1.041852 -0.1288332 -0.1770159 -0.9757395 12231561 male
0.1354044 -0.07368372 1.225892 0.6278157 0.171814 -0.7591624 11893107 male
-0.2261004 0.263595 0.9114043 -0.7482779 -0.5822433 0.3179199 10053485 male
-0.001289804 0.09383825 1.181902 0.5083361 0.06641845 -0.8585938 11381421 male
-0.05655716 0.6762078 1.272851 0.8407843 0.5411473 0.01554364 12353898 male
-0.1720005 0.3134515 0.915209 0.8474981 0.2628464 0.4611496 12220776 male
-0.1401433 0.9011829 1.104298 -0.6052671 -0.1044496 -0.7891403 6640203 male
-0.142004 -0.3507342 1.124851 0.7000446 -0.3024859 0.6468692 10513765 male
-0.2225045 0.3220488 1.307187 -0.7546358 0.05635116 0.6537198 13273461 male
-0.1750618 -0.7051222 1.087345 0.4525011 0.8754051 -0.1700256 9462878 male
-0.09424541 0.4377816 1.360313 -0.231784 -0.3236643 -0.9173428 11893357 male
-0.1082764 0.4645988 1.355855 -0.3010219 -0.378132 -0.8754441 12088172 male
0.03338105 0.3891895 1.419327 0.5147176 0.7043917 0.4887722 11833235 male
0.1401803 -0.6568817 1.269929 0.009136014 -0.9979438 0.06344057 6314071 male
