# .PCD v0.7 - Point Cloud Data file format
VERSION 0.7
FIELDS x y z normal_x normal_y normal_z rgb label
SIZE 4 4 4 4 4 4 4 4
TYPE F F F F F F U U
COUNT 1 1 1 1 1 1 1 1
WIDTH 193
HEIGHT 1
VIEWPOINT 0 0 0 1 0 0 0
POINTS 193
DATA ascii
-0.2350303 -0.6660087 1.128644 0.6027371 0.4266078 0.6743247 10182241 male
-0.3954388 0.4498953 0.9918581 -0.1698512 -0.2920198 0.9412094 10708574 male
-0.2383485 0.5838103 1.339323 0.4583158 -0.8750713 0.1555533 10837856 male
-0.2991508 -0.380557 1.095833 -0.9831349 0.1672608 0.07395917 12881794 male
-0.2426284 0.8215327 1.209864 -0.3799364 0.02817187 0.9245837 12025459 male
-0.117737 -0.127504 1.079002 0.9943238 0.01362619 -0.1055219 12156532 male
-0.2547146 -0.5784768 1.119331 0.8091804 0.03580946 0.5864682 10906212 male
-0.1375087 -0.7388716 1.083023 -0.01011295 -0.9737584 -0.2273595 7232088 male
-0.2002799 -0.191597 1.027462 -0.2732451 -0.05771463 -0.9602116 11041135 male
-0.3749777 0.4484593 1.205619 -0.9865069 -0.1004034 0.1293193 14523518 male
-0.3852818 0.1237759 1.201721 -0.8670866 -0.392584 0.3066572 12763329 male
-0.3007192 -0.5107679 1.074908 -0.7172924 -0.09806772 -0.6898366 10580588 male
-0.06029664 -0.07046215 1.349913 0.6038625 0.0703564 0.7939777 9789531 male
-0.3097182 0.7271686 1.271329 -0.6303845 0.6527234 0.4201995 12024171 male
-0.2633109 0.07535959 0.8391712 0.9675202 0.1979071 0.1572816 14454411 male
-0.270239 0.9789363 1.111608 -0.6863551 0.4808947 -0.5455797 7433064 male
-0.1890985 0.4571247 1.437858 0.008907611 0.1623486 0.9866934 11234145 male
-0.1603138 0.2872562 1.279007 0.8362498 0.05127962 0.5459459 12420715 male
-0.2245126 0.5707798 1.003496 0.4953381 -0.1630194 -0.8532673 12419176 male
-0.2588718 -0.1375289 1.059539 -0.8179882 -0.2899775 -0.4967985 12948876 male
-0.3671374 0.3054879 1.243985 -0.980839 0.05746168 0.1861538 13538419 male
-0.2515241 0.01261107 1.187254 -0.09220491 -0.1762892 0.9800105 9341830 male
-0.1088721 -0.1780337 1.264735 -0.7185751 -0.06960418 -0.6919574 10579563 male
-0.1462528 1.000903 1.124612 0.444889 0.8233206 -0.3524446 8087898 male
-0.403984 0.2516894 0.8761898 -0.8657148 -0.2508118 -0.4331648 13078147 male
-0.2797468 0.5080373 1.002224 0.05967204 -0.161609 -0.9850492 11892067 male
-0.08175316 0.404745 1.364524 0.05881779 0.798511 -0.5991 11171684 male
-0.281185 -0.252484 1.343252 -0.7089697 0.6811053 0.1829144 12224632 male
-0.162567 -0.03351001 1.212043 -0.1300436 -0.3509163 -0.9273331 7098963 male
-0.403406 -0.391748 1.307248 -0.204177 0.2210809 -0.9536431 11366763 male
-0.3934987 0.2932002 0.9466384 -0.1500406 -0.3880932 0.9093248 10314335 male
-0.2143472 0.3636629 1.043667 0.4949675 -0.04306177 -0.867844 13010539 male
-0.1542228 -0.2473967 1.034815 0.2358114 -0.0893347 -0.9676841 9330516 male
-0.4184802 -0.5106976 1.39176 0.1608911 0.410739 0.8974451 5719109 male
-0.2466393 0.4765338 1.33582 0.1496715 -0.1301302 0.980135 13737368 male
-0.3679075 0.1434845 1.294127 -0.8774732 -0.2125599 0.4299528 13091519 male
-0.3172378 0.7568746 1.127688 -0.6261047 0.77731 0.06150037 11500149 male
-0.2767017 0.9716883 1.113374 -0.7577253 0.388383 -0.5244153 7103332 male
-0.2959303 0.4871148 1.333884 -0.2843673 -0.1612287 0.9450613 11892077 male
-0.3935608 0.4722825 1.069393 -0.9170473 -0.1537772 -0.367936 13667962 male
-0.3075853 0.5213301 1.001505 -0.02082189 -0.1825612 -0.9829741 11826266 male
-0.2889134 0.7280737 1.035893 0.3767053 0.7590011 -0.5310466 10511187 male
-0.400223 0.2138576 1.116055 -0.9722834 0.1384917 -0.1883758 11578532 male
-0.2732349 -0.0139461 0.8159868 -0.4259313 -0.1313724 -0.8951671 11240580 male
-0.1985538 -0.1330742 1.158256 0.01869487 -0.07900465 0.996699 9658462 male
-0.3239237 0.5028707 1.323154 -0.5750983 -0.1248483 0.8085017 13537916 male
-0.1314889 0.01878391 1.09856 0.9825581 0.08716439 0.1642627 13092287 male
-0.2235987 0.0824267 1.188157 -0.1759287 -0.4489015 -0.8760917 12893636 male
-0.1662277 0.6659355 1.191529 0.9394659 0.3267147 -0.1032546 13668211 male
-0.2626827 -0.2946991 1.060312 -0.8503511 0.3674541 -0.3766707 11763569 male
-0.2842296 -0.3468906 1.119416 -0.8370108 0.2928747 0.4622096 11764857 male
-0.1391463 0.6012605 1.261607 0.9689125 0.2299013 0.09140193 13535859 male
-0.3938629 0.3487351 1.12969 -0.9890517 -0.09488624 0.1130203 14063739 male
-0.13878 -0.173764 1.134161 0.6505302 -0.07803793 0.7554607 9525591 male
-0.3596154 -0.5879043 1.340148 -0.537527 -0.8363421 0.1076879 6971481 male
-0.1433337 0.5407106 1.284774 0.7374844 -0.1141753 0.6656433 12417387 male
-0.374251 0.2745968 1.062687 -0.8358498 0.008198005 -0.5488971 12682616 male
-0.4064328 0.5531017 0.9827738 -0.963926 0.2428647 0.1089202 13405305 male
-0.1640682 0.9099964 1.222593 0.4397757 -0.1199032 0.8900679 8474701 male
-0.3753477 -0.3820238 1.362366 -0.0778463 -0.07790049 0.9939173 11835795 male
-0.3068042 0.1208814 1.017535 -0.3931791 -0.03892365 -0.9186378 11645613 male
-0.2522709 0.7918925 1.213987 -0.3116746 0.3830938 0.8695391 11040363 male
-0.09497734 0.8560559 1.114456 0.3143193 -0.3815785 -0.8692534 14585484 male
-0.1816799 0.6010542 1.323397 0.6380119 -0.7507299 0.1713058 7224891 male
-0.114355 -0.1055268 1.366072 -0.1240043 -0.05734144 0.9906236 10449781 male
-0.2111766 0.8906581 1.076213 -0.01688156 -0.1263413 -0.9918432 12946564 male
-0.1159683 -0.7371528 1.083155 0.004857164 -0.9381847 -0.3461011 7493977 male
-0.115728 -0.1792918 1.356398 -0.3654999 0.5752485 0.731778 9264730 male
0.1138171 0.3120956 1.297686 -0.167095 -0.4568363 -0.8737162 12616580 male
-0.1515964 -0.1190871 1.024754 0.5086265 -0.1146688 -0.8533173 10053207 male
-0.1778248 0.2364916 1.077424 0.7380228 -0.0881367 -0.6689951 11579824 male
-0.3865355 0.3076185 1.151935 -0.9760592 0.005222439 0.2174429 13670521 male
-0.2206321 0.7014824 1.081333 0.6974528 0.5323345 -0.4797703 11497312 male
-0.3527583 0.5096092 1.292577 -0.8202128 -0.08931696 0.565043 13800566 male
-0.192958 0.2964008 1.316988 0.6451058 0.1410648 0.7509591 11761769 male
-0.1980718 0.1364572 1.029193 0.5557402 0.296512 -0.7766812 11381413 male
-0.2920041 0.4107631 1.327676 -0.2835018 -0.01169619 0.9589005 12418417 male
-0.1778896 0.8193902 1.085027 -0.02451199 -0.4056358 -0.9137062 13340548 male
-0.2150712 -0.7190694 1.03978 -0.2116345 0.5471275 -0.8098534 7820622 male
-0.2418678 0.3230358 1.343125 0.2373748 -0.03525721 0.9707782 13145222 male
-0.1564823 0.3567788 1.267607 0.8545427 0.03732805 0.5180383 13536891 male
-0.1368726 0.00779606 1.117948 0.9369282 0.03078301 0.3481641 10986654 male
-0.1372792 0.3686752 1.113848 0.9071468 0.03542144 -0.4193212 13800054 male
-0.2070981 -0.3421191 1.140486 0.4636476 -0.0128696 0.8859264 10449256 male
-0.400097 0.2390157 0.8773576 -0.8857172 -0.3008082 -0.3535815 12748668 male
-0.3977803 0.3071906 0.8648697 -0.4161643 0.09872947 -0.9039137 9001543 male
0.1373881 0.4075876 1.245104 0.3061197 0.5905277 0.7467046 12756383 male
-0.2483147 -0.43361 1.039807 -0.006221966 -0.2263947 -0.9740159 11704706 male
-0.2887383 0.05061775 0.8385937 0.1999082 -0.4419203 0.8744962 12362139 male
-0.266664 -0.2978148 1.095446 -0.8879938 0.4120476 0.2041666 12618366 male
-0.1472639 0.3806594 1.254434 0.8639265 -0.03158485 0.5026268 13404281 male
-0.1227509 -0.06878471 1.095277 0.9771869 0.03664006 0.2091973 12222837 male
-0.133182 0.1905421 1.144529 0.8851855 0.1043334 -0.4533888 13487564 male
-0.09798273 -0.1615638 1.243789 -0.2422581 -0.164137 -0.9562271 11302509 male
-0.1320702 0.3490782 1.223054 0.9245428 0.04750388 0.3781062 13075308 male
-0.2341705 -0.5202758 1.080306 0.8306854 -0.3348377 -0.4447984 10910061 male
-0.3112879 0.1108643 0.8253965 0.07940728 0.211031 -0.9742488 10519147 male
-0.2336138 0.35559 1.033402 0.4324122 -0.007086069 -0.9016484 12879209 male
-0.348697 0.04795776 0.841845 -0.6893954 -0.1747108 0.7030008 9725024 male
-0.1626506 0.4269002 1.279909 0.7892169 -0.03037689 0.6133629 13470067 male
-0.2377385 0.8823974 1.075289 0.9538081 -0.09086482 -0.2863461 11888233 male
-0.2105151 0.01833272 1.36074 -0.4007095 -0.2393711 0.8843832 9604236 male
-0.3702715 0.08014029 1.179276 -0.6083891 -0.6720126 0.4222107 10394270 male
-0.2298433 -0.2566046 1.388 -0.2027289 0.1725961 0.9639045 9199455 male
-0.1422712 0.0825544 1.186231 0.3304386 -0.01085845 -0.9437652 12038839 male
-0.3755397 0.4294408 1.238407 -0.9871051 -0.1160822 0.1102213 14195582 male
-0.3276121 0.7240333 1.232678 -0.8066617 0.5656793 0.1711841 13535867 male
-0.2880256 -0.4191093 1.135697 -0.744179 0.05210366 0.6659452 11040878 male
-0.3640327 0.3453599 1.264841 -0.9530816 -0.02581747 0.3016111 13867641 male
-0.4033585 0.5472225 1.086624 -0.9890283 -0.07895522 -0.1248571 12486508 male
-0.1761413 -0.2271285 1.275202 -0.1544899 0.2644232 -0.9519525 11369594 male
-0.2871214 0.4734384 1.335265 -0.1970115 -0.1487783 0.9690469 11367016 male
-0.3221243 -0.005897124 1.111333 -0.8981979 -0.429005 0.09589273 13157824 male
-0.3757541 0.4001076 1.065623 -0.8102083 -0.1262478 -0.5723847 13011566 male
-0.2652995 -0.126659 1.062346 -0.8433505 -0.2950567 -0.4491123 12883597 male
-0.2400693 -0.537449 1.086717 0.8846635 -0.3022657 -0.3549736 11762291 male
-0.1859672 0.3406046 1.061602 0.5482486 0.005792483 -0.8362955 12748392 male
-0.1706156 -0.1028291 1.32975 -0.8061903 -0.3556359 0.4728431 12684161 male
-0.1962001 1.006965 1.109174 0.04851092 0.8274591 -0.5594267 7628125 male
-0.2931124 -0.4589518 1.133276 -0.72337 0.05582277 0.6882004 11303797 male
-0.1751412 -0.03382398 1.162339 0.5140744 -0.1177178 0.8496294 8942452 male
-0.1512799 0.2174079 1.320544 0.8206477 0.2612551 0.508216 11117732 male
-0.3108559 -0.4963723 1.099622 -0.9969913 0.07206648 -0.02854639 10714477 male
-0.2545758 0.1223756 0.8676332 0.6290743 0.7769939 -0.02336925 11563885 male
-0.2020664 0.1232105 1.0201 0.4416484 0.2328532 -0.8664446 11381413 male
-0.3657233 0.2859876 1.254615 -0.952962 0.1947494 0.2322414 12290674 male
-0.3067828 -0.321927 1.377065 -0.2274332 0.04746617 0.9726363 8806237 male
-0.2178952 -0.2798469 1.03178 -0.2573332 0.0880888 -0.9622995 11108981 male
-0.4148208 -0.3634076 1.331585 -0.6328567 0.739949 0.2279648 12421764 male
-0.2769914 -0.4830168 1.055317 -0.3292628 -0.179444 -0.9270308 9003615 male
-0.3805615 0.6111149 1.181197 -0.8848096 0.2174234 0.4121157 14062195 male
-0.2642274 -0.3435363 1.310497 0.3836797 -0.7245781 -0.5725177 11238767 male
-0.1229422 0.1742989 1.208362 0.9550312 0.2188654 0.2000343 13026240 male
-0.2696231 -0.6880534 1.076016 -0.2545216 0.3068088 -0.9171082 12820626 male
-0.145259 0.4766353 1.144497 0.9521937 0.1750323 -0.2503816 12812139 male
-0.1311284 -0.0546204 1.219129 0.05896587 -0.2735442 -0.9600504 9001564 male
-0.2294586 0.9629021 1.229767 -0.1862017 0.2874283 0.9395286 8020578 male
-0.2968727 0.6946988 1.328381 -0.5543625 0.5605914 0.6151581 13339512 male
-0.3407446 0.08925078 1.044661 -0.6823507 -0.1859567 -0.7069778 10856609 male
-0.2356403 -0.7307971 1.100549 -0.04384805 -0.9769912 0.2087235 10710386 male
-0.3349327 0.7412536 1.075636 -0.6496251 0.7086333 -0.2753655 10909806 male
-0.06724852 0.4056264 1.367747 0.1645951 0.8858165 -0.4338636 11695464 male
-0.3503362 0.5787745 0.9190935 -0.1311704 0.09628266 -0.9866733 13674894 male
-0.3374117 0.1162631 0.8297689 -0.3369233 0.06347298 -0.9393904 9729387 male
0.1059631 0.3514755 1.329836 0.4728715 0.2369524 0.8486733 11836557 male
-0.1822769 -0.1821481 1.156102 0.1042014 -0.02395027 0.9942679 10645864 male
-0.2091864 0.09167273 1.009283 0.2787917 0.1245868 -0.9522361 11577764 male
-0.336885 0.642637 1.313072 -0.7525557 0.1803953 0.6333386 14063492 male
-0.1892118 0.4488616 1.052486 0.6588253 -0.08327249 -0.7476731 13471090 male
-0.10681 0.8448179 1.156993 0.9906542 0.01400246 0.1356778 14390153 male
-0.1368298 -0.1373979 1.330109 -0.8688229 -0.2050692 0.4506591 13474187 male
0.02971496 0.3256297 1.338009 0.02319011 -0.9994199 -0.02494293 10257538 male
-0.1414893 0.2165696 1.132872 0.884947 -0.02604463 -0.4649632 13486790 male
-0.1530665 0.4986075 1.110627 0.9859886 0.006023437 -0.1667051 13535089 male
-0.1335189 -0.09523381 1.232091 -0.2257148 -0.2802843 -0.9330026 10383464 male
-0.2519656 -0.01197926 1.277141 -0.8565847 -0.514589 -0.03822488 12762041 male
-0.420962 0.2938011 0.8922359 -0.9375604 -0.202515 -0.2827867 13733763 male
-0.2721464 0.01821797 0.8169296 0.612308 0.2220749 -0.7587897 11964558 male
-0.1349278 0.8000371 1.182685 0.4410498 -0.5929121 0.6737436 11697007 male
-0.3883102 0.210446 1.081133 -0.8789572 0.02416275 -0.4762884 10526874 male
-0.4479102 0.3908287 0.9349663 -0.974153 0.219219 -0.05449015 12222062 male
0.1632361 0.3367893 1.273151 -0.2444397 -0.5001081 -0.8307475 12617348 male
-0.2111645 0.337083 1.046162 0.5015288 0.003821044 -0.8651327 13142125 male
-0.1087184 0.3654714 1.42957 0.2107648 -0.3267053 0.9213263 12419691 male
-0.3900217 0.3329082 1.145493 -0.9752016 -0.07663683 0.2076266 14262143 male
-0.3203725 0.05241577 1.183106 -0.3181421 -0.6028944 0.7316449 10657439 male
-0.2939387 0.5090461 1.002151 0.006620075 -0.1678897 -0.9857837 12219232 male
-0.3526542 0.6760173 0.9868131 -0.6366664 0.590771 -0.4956265 13010795 male
-0.2954266 -0.2801146 1.300561 -0.62075 0.4606168 -0.6344302 10185834 male
-0.1733302 1.017214 1.153437 0.2823524 0.9592472 0.01104844 7496026 male
-0.3674029 0.4872725 0.9132551 0.2020569 0.1485131 -0.9680481 9724751 male
-0.2384338 -0.1717906 1.053117 -0.7742175 -0.2034043 -0.5993448 12619143 male
-0.04261111 -0.2395259 1.309194 0.4917221 -0.8108732 -0.3173235 10776176 male
-0.2630307 0.2694656 1.023736 0.2509436 0.1098202 -0.9617521 10973534 male
-0.2666055 -0.07812318 1.038565 -0.6586267 -0.2544957 -0.7081264 10449519 male
-0.2625141 0.9801039 1.103759 -0.585371 0.4914299 -0.6448546 8287085 male
-0.2221771 0.7286742 1.298873 0.450739 0.8796531 0.1518057 8543566 male
-0.3363454 0.4880419 1.01106 -0.3186107 -0.263597 -0.9104966 11567207 male
-0.1464084 -0.1032762 1.028513 0.6084045 -0.09419962 -0.7880169 10185314 male
-0.2717977 -0.3074445 1.093354 -0.9019786 0.4072542 0.1434534 12487036 male
-0.03275136 -0.1196324 1.26885 0.7892067 -0.006758105 -0.6140907 12222323 male
-0.3131357 0.1800154 0.8741059 0.8166792 0.1847933 0.5467053 12418411 male
-0.07493609 0.0942677 1.282105 0.9432339 0.3294155 0.04237169 13552582 male
-0.1552583 0.644833 1.265409 0.93539 0.3534582 0.01063383 13011571 male
-0.3648185 0.3815308 0.9119791 0.9801137 0.198339 -0.006242633 12616296 male
-0.2605701 0.8965644 1.091726 -0.6030363 -0.164769 -0.7805118 6704197 male
-0.1597042 -0.3284615 1.085767 0.8970629 -0.3913607 0.2052197 11367787 male
-0.3106151 0.1181373 1.342744 -0.5286452 -0.2156451 0.8209943 10854053 male
-0.1589383 -0.7067735 1.088128 0.3411338 0.9336476 -0.1092239 8215387 male
-0.1511703 0.4297938 1.42886 0.741047 0.5733494 0.3494565 10842458 male
-0.2072498 0.3839971 1.38389 -0.6512759 -0.4390347 -0.6189413 10313307 male
-0.1929599 0.3759871 1.436962 -0.3468498 -0.3405546 0.8739096 11497826 male
-0.3327721 -0.6028172 1.32545 -0.4390173 -0.8649593 0.243124 5922138 male
