# .PCD v0.7 - Point Cloud Data file format
VERSION 0.7
FIELDS x y z normal_x normal_y normal_z rgb label
SIZE 4 4 4 4 4 4 4 4
TYPE F F F F F F U U
COUNT 1 1 1 1 1 1 1 1
WIDTH 193
HEIGHT 1
VIEWPOINT 0 0 0 1 0 0 0
POINTS 193
DATA ascii
-0.2524529 -0.65569 1.130215 0.5181205 0.4120969 0.7494848 10576737 male
-0.5039263 0.5097145 1.025903 -0.2117707 -0.3515073 0.9119189 9854295 male
-0.3727825 -0.1786431 1.383669 -0.5032234 0.06835193 0.861449 11894131 male
-0.3475369 -0.3870169 1.102829 -0.9977574 0.01999637 0.06387985 12947587 male
-0.3972679 0.8074478 1.248102 -0.3905201 -0.002535596 0.9205911 12026477 male
-0.3047079 -0.5315276 1.141225 0.1739634 -0.1074773 0.9788696 12224128 male
-0.2766055 -0.605493 1.127464 0.5573289 0.2987309 0.7746901 10774111 male
-0.1353724 -0.7251093 1.091638 0.1097515 -0.9764528 -0.185727 7100502 male
-0.2498033 -0.1489997 1.044437 0.2482426 -0.06175749 -0.9667274 10912364 male
-0.5104333 0.4374175 1.215838 -0.9885434 -0.1505939 0.0101788 14523518 male
-0.5206686 0.09676667 1.128 -0.9246221 -0.3256122 -0.1976134 13353660 male
-0.2818249 -0.4899849 1.059057 0.3145635 -0.2106095 -0.9255775 10454901 male
-0.3187176 -0.240581 1.291412 0.3768391 -0.3806036 -0.8444723 8740179 male
-0.463959 0.7400562 1.218936 -0.7835401 0.6112377 0.1115954 12815489 male
-0.3583182 0.1093532 0.8694158 -0.1907541 -0.7068061 0.6812034 13665150 male
-0.405484 0.9900615 1.145761 -0.3471473 0.6656371 -0.6606179 8943479 male
-0.3206388 0.3995242 1.483303 0.1490966 0.2119141 0.9658482 10183766 male
-0.3479232 0.3485685 1.349471 0.4762498 0.1249264 0.8703907 13010547 male
-0.3716227 0.5172262 1.030484 0.2513458 -0.1287447 -0.9592968 11891813 male
-0.3411148 -0.1564607 1.090927 -0.880958 -0.4068142 -0.2416927 13538956 male
-0.498037 0.4205016 1.296911 -0.8479756 -0.1372273 0.5119631 13077364 male
-0.3544243 0.02213445 1.205371 -0.02038633 -0.1228999 0.9922098 10196123 male
-0.3858343 -0.198033 1.298963 -0.8739746 0.09944568 -0.4756883 11632247 male
-0.3002768 0.9985573 1.182067 0.5254581 0.8274973 -0.1978437 9269604 male
-0.4433393 0.2757532 0.8673478 0.376081 0.3038419 -0.8753533 9928554 male
-0.4698499 0.4830818 1.031083 -0.3596971 -0.2634629 -0.8951008 10973789 male
-0.2383191 0.3993397 1.438645 0.4079719 0.910771 0.06368136 9395285 male
-0.5731269 -0.3223113 1.337886 -0.7505605 0.6592174 -0.04573393 11764857 male
-0.3598502 -0.0606395 1.235421 -0.01574527 -0.2822919 -0.9591995 7098963 male
-0.5443621 -0.2917767 1.341267 -0.7224021 0.6913767 -0.01155192 12422012 male
-0.4331181 0.2448177 0.9206057 0.5880873 -0.1305581 0.7981906 11961970 male
-0.4753248 0.1808167 1.054068 -0.5824034 -0.04311286 -0.8117561 11250857 male
-0.1921918 -0.1862782 1.077654 0.8263153 0.1398119 -0.5455784 9329492 male
-0.7366481 -0.5321282 1.360489 -0.1506998 0.200927 0.9679453 10847884 male
-0.3853731 0.4632375 1.357771 0.1640783 -0.1205708 0.9790512 15511466 male
-0.4988981 0.09370303 1.315046 -0.8209981 -0.4198766 0.3868669 12235698 male
-0.4708643 0.7436326 1.145476 -0.6756576 0.7370954 0.01331806 10974829 male
-0.4377145 0.9655695 1.151829 -0.7280629 0.3571309 -0.5851343 7103332 male
-0.42587 0.4532094 1.35644 -0.1838138 -0.1523849 0.9710775 11892325 male
-0.5149048 0.4419924 1.085459 -0.8630177 -0.2183228 -0.455561 13668728 male
-0.4431693 0.486266 1.025327 -0.09079964 -0.2174658 -0.9718356 13012592 male
-0.4953342 0.6981617 1.06143 -0.7156427 0.6057865 -0.3476756 12553082 male
-0.5312202 0.2007401 1.178579 -0.9857723 0.166614 0.02220362 12960445 male
-0.3172381 0.02016241 0.8219222 0.3323633 0.1712448 -0.9274751 14860732 male
-0.3165247 -0.1713021 1.154842 -0.6899383 -0.2557139 0.677197 10513773 male
-0.5113674 0.4272187 1.270605 -0.9542668 -0.1437365 0.2621353 14195582 male
-0.281287 -0.0005544026 1.185462 0.5429947 -0.04477532 0.8385417 10855070 male
-0.3566358 -0.1727952 1.391004 -0.2017942 0.01302286 0.9793415 11830411 male
-0.3251492 0.3493825 1.076085 0.6038334 0.01428018 -0.7969828 13273711 male
-0.3102075 -0.3170463 1.048994 -0.5531847 0.1629796 -0.8169606 11301995 male
-0.328487 -0.3565162 1.139959 -0.7358595 0.1413625 0.6622141 11368819 male
-0.3687232 0.7125235 1.310152 0.6590675 0.7399592 0.1345006 11630439 male
-0.5234742 0.390108 1.141751 -0.9857073 -0.1643308 -0.03710413 13734267 male
-0.2601367 -0.3152387 1.148384 0.3772007 -0.04907564 0.9248305 10117466 male
-0.6624027 -0.6326126 1.299344 -0.4881543 -0.5924156 -0.6408972 7165522 male
-0.3079382 0.4881672 1.319896 0.7033308 -0.178163 0.6881742 12745067 male
-0.5115045 0.3106665 1.171301 -0.9917057 0.01068167 0.1280857 14064251 male
-0.5255734 0.5531944 0.9860404 -0.9587268 0.2302572 -0.1668075 11762790 male
-0.3462257 0.900154 1.277046 0.7495047 0.2487497 0.6134871 12546421 male
-0.6489302 -0.4201088 1.357326 -0.4306448 0.1616524 0.8879267 9922925 male
-0.4168182 0.03384851 1.041257 -0.4892254 -0.3090633 -0.8155603 10396830 male
-0.3986055 0.7666314 1.258141 -0.004336271 0.4692727 0.8830428 10710881 male
-0.2434053 0.8619273 1.187873 0.6593336 -0.3837015 0.6465699 13402490 male
-0.3498216 0.5541576 1.3634 0.3732934 -0.3187694 -0.871228 11367007 male
-0.3872119 -0.1653185 1.372784 -0.6829074 0.004794989 0.7304894 12685962 male
-0.3457915 0.8789572 1.118003 -0.02718386 -0.03655829 -0.9989618 12420731 male
-0.1046196 -0.7208857 1.093496 0.1291137 -0.8991919 -0.4180715 7559513 male
-0.4031181 -0.2277626 1.376417 -0.4618202 0.6175832 0.6366422 9330523 male
-0.04289939 0.283228 1.396322 -0.1668323 -0.7758706 0.6084339 12352124 male
-0.3041779 -0.2294005 1.071242 -0.818099 0.02513658 -0.5745281 12750214 male
-0.3548913 0.1893646 1.034783 0.4990329 0.1644993 -0.8508269 10722720 male
-0.5112178 0.2892292 1.160764 -0.9938272 0.09695806 0.05391592 13208693 male
-0.3476848 0.7301974 1.242845 0.7568994 -0.01290375 0.6534042 13008243 male
-0.5119016 0.4581937 1.27769 -0.9415115 -0.1222874 0.3140098 14194555 male
-0.3432952 0.2666701 1.353026 0.5345418 0.2682115 0.8014537 7887706 male
-0.322057 0.1630103 1.063446 0.7170641 0.3499627 -0.6027814 11381421 male
-0.4683506 0.4154129 1.329845 -0.621218 -0.1371474 0.7715432 12813944 male
-0.2987441 0.8327969 1.132206 0.4095324 -0.1777553 -0.8948109 14062471 male
-0.2121243 -0.7104747 1.041428 -0.1882809 0.5332826 -0.8247183 7820622 male
-0.3970369 0.3121766 1.368099 0.07775531 -0.04343363 0.996026 13473419 male
-0.299128 0.3904219 1.302894 0.7638417 -0.003951319 0.6453916 13536634 male
-0.2629722 0.01148173 1.169905 0.7339355 0.04619159 0.6776468 10658719 male
-0.2717654 0.3086917 1.123333 0.8247629 -0.001159199 -0.5654777 13207401 male
-0.2448942 -0.3601732 1.129522 0.7837104 -0.08163942 0.6157381 11237231 male
-0.5079465 0.278341 0.904375 -0.903751 -0.3869448 -0.1830518 12089710 male
-0.5042946 0.2824798 0.8901296 -0.8355497 -0.2682633 -0.4794705 13010555 male
-0.05067545 0.3595393 1.332287 -0.5595554 0.2417696 -0.7927455 12612469 male
-0.2980261 -0.4197488 1.043996 -0.1122642 -0.1549341 -0.9815256 11770754 male
-0.3657945 0.09663703 0.8575078 -0.06213558 -0.4299555 0.9007095 13797767 male
-0.3326722 -0.3219491 1.072583 -0.9112138 0.2175356 -0.3498112 11698288 male
-0.2831435 0.2958407 1.289629 0.7871419 -0.02071791 0.616424 13603702 male
-0.2486082 -0.08309272 1.164492 0.5361097 0.05129164 0.8425887 11037288 male
-0.2508887 0.1289045 1.214858 0.9951267 0.02935186 0.09413582 13618632 male
-0.3677022 -0.2385214 1.281666 -0.3340009 -0.06004404 -0.9406585 10251621 male
-0.2879817 0.4088998 1.288814 0.8082297 0.004165564 0.5888528 13141872 male
-0.2499097 -0.467751 1.10283 0.9549965 -0.192791 0.2254186 11764090 male
-0.3764272 0.102056 0.8258113 -0.08289661 0.1132225 -0.9901056 14613479 male
-0.4878692 0.2019553 1.062645 -0.6654887 0.003644708 -0.746399 11316652 male
-0.4043197 0.04909629 0.8406584 -0.7433012 -0.2393658 0.624666 9593437 male
-0.3090993 0.3630358 1.314977 0.7484522 0.02651189 0.6626588 13536891 male
-0.3930447 0.8794739 1.109002 0.3630049 -0.01870267 -0.9315997 13140603 male
-0.3639874 -0.1262653 1.391667 -0.2248311 -0.05964601 0.9725707 9529189 male
-0.5093656 0.1165642 1.093038 -0.8182157 -0.1504615 -0.5548734 10857125 male
-0.5184139 -0.3300616 1.397724 -0.2135272 -0.01128573 0.976872 10253685 male
-0.2877561 0.04727999 1.230909 0.6588852 -0.1893305 -0.7280278 13025220 male
-0.5130599 0.4275473 1.260894 -0.9773622 -0.1477291 0.1514579 14392449 male
-0.4771194 0.7196501 1.258093 -0.8286908 0.5431157 0.1352673 13011060 male
-0.3368003 -0.4476901 1.07167 -0.8266973 -0.1130794 -0.5511667 12423046 male
-0.4857196 0.4439858 1.319389 -0.7484916 -0.1827464 0.637467 13010550 male
-0.5324127 0.619344 1.086042 -0.9554664 0.06714171 -0.2873608 14788750 male
-0.3951837 -0.1820769 1.332822 -0.9951112 0.08828077 -0.04427648 12356218 male
-0.4157859 0.4522178 1.357502 -0.1016684 -0.1349383 0.9856244 12156795 male
-0.4304221 -0.01700059 1.13818 -0.8303372 -0.5196165 0.2013432 12039087 male
-0.3886731 0.3695471 1.041167 0.215033 0.01717682 -0.9764559 12352091 male
-0.3406055 -0.149502 1.076922 -0.783751 -0.376639 -0.4938396 12554628 male
-0.253029 -0.4611644 1.112245 0.9071168 -0.1717959 0.3842208 10843499 male
-0.2640933 0.4188862 1.17299 0.9660466 0.1999514 -0.1636265 14063482 male
-0.4176436 -0.1250727 1.342088 -0.9592527 -0.1135838 0.2587145 12684161 male
-0.3599035 1.006717 1.157053 0.04230315 0.8554633 -0.5161328 7628125 male
-0.3428657 -0.4832218 1.10536 -0.9957597 -0.05601147 0.07297647 12947075 male
-0.2378132 0.01495248 1.071268 0.8676672 0.2193058 -0.4461602 10789796 male
-0.3014876 0.1706637 1.351397 0.7729141 0.2063251 0.6000285 11053218 male
-0.3205972 -0.4777603 1.061516 -0.4854461 -0.1701577 -0.857548 8804434 male
-0.3340453 0.1412257 0.890843 0.2641022 0.4154873 0.8704139 11369075 male
-0.3259816 0.1532293 1.053514 0.6299092 0.3096517 -0.7122713 10460575 male
-0.4910647 0.3959048 1.305625 -0.816527 -0.03736503 0.5760971 12682605 male
-0.609425 -0.4190288 1.370284 -0.1179265 -0.2395691 0.963691 12948894 male
-0.2438241 -0.3749146 1.12543 0.8282092 -0.1140186 0.548698 10843496 male
-0.6973668 -0.438993 1.306195 -0.3498593 0.4811907 -0.803775 11499632 male
-0.3408325 -0.5324753 1.09861 -0.9740977 -0.08853048 -0.2080773 9728355 male
-0.3822779 0.3571029 1.04321 0.2753009 0.04882444 -0.9601176 12416867 male
-0.5292645 -0.3818886 1.300656 0.336322 -0.5803168 -0.7417008 10582640 male
-0.2573498 0.2885047 1.163623 0.9871039 -0.07739953 -0.1401267 13077868 male
-0.2721868 -0.686386 1.073296 -0.2081376 0.3013123 -0.930532 12820626 male
-0.2705786 0.5111629 1.266538 0.9707226 -0.1877261 0.1498552 13009774 male
-0.3176158 -0.09147044 1.254993 0.4259503 -0.2485971 -0.8699231 10841191 male
-0.4018087 0.9550892 1.272203 -0.2990633 0.2303091 0.9260232 8020578 male
-0.4801939 0.6526794 1.344904 -0.8124207 0.2276222 0.5368062 14393993 male
-0.4750133 0.03686191 1.111404 -0.7144798 -0.6697811 -0.2022671 13880521 male
-0.2368428 -0.7260537 1.099812 0.03516471 -0.9813392 0.1890418 10710386 male
-0.4531992 0.7442646 1.090159 -0.3094693 0.819466 -0.4823944 10582902 male
-0.2669474 0.4033341 1.463154 0.4076758 0.7071647 0.5776838 11897988 male
-0.443558 0.5952069 0.9402815 0.2751577 0.04789962 -0.9602052 11633513 male
-0.3973021 0.08367559 0.8284768 -0.3108816 0.01323874 -0.9503566 10054758 male
-0.05863066 0.3177992 1.409448 0.2655229 -0.01559117 0.9639786 9398881 male
-0.2287098 -0.001527425 1.091942 0.9633649 0.2123863 -0.1637696 11908789 male
-0.33758 0.1182832 1.033173 0.3669767 0.1726067 -0.9140762 11840940 male
-0.4948315 0.6055166 1.337845 -0.7974016 0.03467873 0.602452 13143157 male
-0.2819609 0.4323344 1.121999 0.8775449 0.173515 -0.4469986 13404521 male
-0.2657868 0.8258222 1.203726 0.9220866 -0.08242155 0.3781049 11497320 male
-0.4230154 -0.2671308 1.295558 -0.1383977 0.2727848 -0.9520687 11631471 male
-0.1182495 0.3616353 1.387389 0.002898819 0.8402237 -0.5422322 13476243 male
-0.2581587 0.1031905 1.223884 0.8261646 -0.4918155 0.2748997 13355205 male
-0.2773693 0.5222061 1.206447 0.9518294 0.04120426 -0.3038474 13732720 male
-0.4935735 0.08230855 1.225437 -0.518282 -0.8483382 -0.1081944 11381930 male
-0.4214498 0.07031763 1.380626 -0.5028164 -0.1086496 0.8575379 9868178 male
-0.4942108 0.282113 0.8773336 -0.6566358 -0.1331231 -0.7423663 12353654 male
-0.3424345 0.04215684 0.8237065 -0.6459061 -0.3025236 -0.7009172 9267300 male
-0.294084 0.7845819 1.208752 0.3411178 -0.7929143 0.5049015 10579815 male
-0.5221896 0.193727 1.110067 -0.9092811 0.1104947 -0.4012468 11316391 male
-0.5530415 0.3851094 0.9448718 -0.9897957 0.1186363 -0.0789308 12419698 male
0.07150095 0.2959839 1.342412 -0.2727054 -0.9381278 -0.2134199 10381421 male
-0.424812 0.2720736 1.037439 -0.1049922 0.06697844 -0.9922151 13936779 male
-0.2524177 0.3498016 1.465992 0.1031093 -0.3291443 0.9386334 11762794 male
-0.51313 0.3133844 1.155461 -0.9960044 -0.03284986 0.08304417 14064507 male
-0.3575625 -0.01101342 1.199343 -0.1357538 -0.2170891 0.9666662 9275270 male
-0.418797 0.4954789 1.024033 0.0776188 -0.1535583 -0.9850865 11430235 male
-0.5082371 0.6518345 1.021866 -0.8635008 0.3706515 -0.3420293 12683367 male
-0.4097402 -0.2221905 1.351641 -0.6267429 0.7749249 0.08176094 10710367 male
-0.3423641 1.01634 1.203934 0.2050359 0.9752178 0.08312884 7496026 male
-0.4729067 0.4768899 0.9301525 0.4093451 0.1641951 -0.8974836 10250586 male
-0.3111073 -0.2010733 1.076952 -0.8275803 -0.144138 -0.5425267 11830650 male
-0.3388159 -0.277106 1.305669 0.3143586 -0.5244015 -0.7913165 9659997 male
-0.2943876 0.3333441 1.100426 0.6761614 0.03686254 -0.7358309 12814441 male
-0.3590758 -0.1046414 1.065052 -0.688194 -0.3543105 -0.6331297 11699327 male
-0.4233367 0.9754025 1.144039 -0.5536789 0.4762086 -0.683129 8287085 male
-0.3557146 0.7011192 1.332454 0.6530637 0.7519706 -0.08971131 10907994 male
-0.4187602 0.5553194 1.023259 0.2388592 -0.3656458 -0.8995831 11038301 male
-0.3086883 -0.242453 1.081442 -0.9505078 0.08236684 -0.2995848 11238000 male
-0.3419625 -0.3377897 1.097647 -0.9789671 0.1998284 0.0411374 12948099 male
-0.2780689 -0.1799627 1.310138 0.8783542 -0.2271833 -0.4205733 12222323 male
-0.4801724 0.2415878 0.9223296 -0.5302935 -0.6143354 0.5842783 9144933 male
-0.2747057 0.03376979 1.257391 0.8557608 -0.187538 -0.4821858 12369082 male
-0.3210598 0.6528207 1.323214 0.9077527 0.4187682 -0.024867 13536883 male
-0.4768359 0.3932727 0.9061534 0.7264718 0.4529049 -0.5168327 8475464 male
-0.408108 0.7817294 1.139147 -0.3616303 0.2547902 -0.8968309 13276289 male
-0.2375648 -0.3021554 1.136416 0.6120556 -0.1960432 0.76613 9855835 male
-0.443121 0.1170638 1.373155 -0.4873556 -0.007769868 0.8731692 10525338 male
-0.1582634 -0.6936848 1.109213 0.3010173 0.9399557 0.1608478 7164491 male
-0.3231438 0.4284493 1.399222 0.6390857 -0.02495916 -0.7687306 14328200 male
-0.391512 0.4451098 1.394535 -0.5833653 -0.4751245 -0.6587425 10379345 male
-0.3618404 0.3514311 1.443643 -0.6245417 -0.7807093 0.02099502 10513758 male
-0.6602376 -0.6388145 1.309989 -0.5712363 -0.768708 -0.2877104 6575698 male
