# .PCD v0.7 - Point Cloud Data file format
VERSION 0.7
FIELDS x y z normal_x normal_y normal_z rgb label
SIZE 4 4 4 4 4 4 4 4
TYPE F F F F F F U U
COUNT 1 1 1 1 1 1 1 1
WIDTH 192
HEIGHT 1
VIEWPOINT 0 0 0 1 0 0 0
POINTS 192
DATA ascii
-0.6667281 -0.6451677 1.562247 -0.1801177 0.149404 0.9722326 11828346 male
-0.4533008 0.3890393 1.349182 -0.5682344 0.3570373 0.7413732 9854295 male
-0.7416003 -0.2490231 1.631498 -0.9824417 0.1798022 0.04979777 11301994 male
-0.7365213 -0.2714166 1.528805 -0.742376 0.07355148 0.6659341 9593950 male
-0.1156461 0.4165727 1.61761 -0.1698245 0.28466 0.9434662 11696496 male
-0.6773116 -0.5523365 1.543224 0.2824365 0.1052087 0.9534994 11498090 male
-0.6595014 -0.5010173 1.526594 0.7897883 0.05166536 0.6111999 11893107 male
-0.5708269 -0.672922 1.574529 -0.1164152 0.4510519 0.8848729 11037802 male
-0.6965756 -0.1606711 1.425119 -0.1120762 -0.1369167 -0.9842221 10514019 male
-0.8270034 0.2325779 1.573473 -0.9664354 0.1918176 -0.1709061 13355462 male
-0.7644744 0.317794 1.500661 -0.6302623 0.7677096 -0.1157218 12763069 male
-0.7224382 -0.5992423 1.526264 -0.994845 -0.09387363 0.03835899 10779259 male
-0.6136867 -0.1620715 1.603052 0.8021613 -0.09169229 -0.5900254 11237229 male
-0.5349866 -0.6616237 1.587818 0.2970579 0.95398 -0.04097405 8348513 male
-0.7700285 0.1146291 1.237755 -0.7264673 0.2927676 0.6217175 12813444 male
0.006112874 0.4853333 1.497319 0.2523071 0.6373852 -0.7280668 7433064 male
-0.6354827 0.4152652 1.854028 -0.3496895 0.8154525 0.4612532 12351858 male
-0.586507 0.42845 1.656002 -0.2779928 0.7760448 0.5661048 12418927 male
-0.4087712 0.2925739 1.405087 -0.0167491 -0.5243962 -0.8513098 11891303 male
-0.7420411 -0.07887088 1.426134 -0.6141557 -0.2158507 -0.7590926 12424075 male
-0.3861885 0.5076575 1.660892 -0.2665496 0.9107969 0.3152783 14128517 male
-0.8159621 0.1349434 1.497171 -0.8304291 -0.4561633 0.3198481 11117732 male
-0.7271745 -0.1238994 1.578248 -0.6809067 -0.08435108 -0.7274965 12289921 male
0.06500369 0.3813398 1.538877 0.9404261 -0.2185529 -0.2604488 8087898 male
-0.6824511 0.2327908 1.192974 -0.2552975 0.328138 -0.9094772 11761776 male
-0.4542825 0.3406663 1.383044 -0.1284872 -0.2771924 -0.9521847 11827293 male
-0.618129 0.3521717 1.882136 0.3206407 -0.3044262 0.8969474 10187369 male
-0.6858063 -0.5346947 1.570679 0.009568527 -0.02797405 -0.999563 11434352 male
-0.6921026 -0.0008161243 1.552017 0.03900889 -0.1515661 -0.9876772 7098963 male
-0.7442871 -0.3777564 1.588523 -0.8627153 -0.06777543 -0.5011277 12619150 male
-0.6770958 0.1963748 1.246375 0.1213714 -0.4658701 0.8764897 11367780 male
-0.8220932 0.2321872 1.505377 -0.9664552 0.2475035 0.06860423 12369084 male
-0.6081493 -0.1161629 1.476071 0.9738631 -0.1820991 -0.1357608 11894897 male
-0.7142241 0.1135542 1.554029 -0.1052998 0.1772554 0.9785155 12893636 male
-0.6706488 0.3322131 1.702608 -0.275566 0.2810012 0.9192942 11304569 male
-0.7942014 0.219495 1.873402 0.8938024 -0.4441441 0.06207693 12021102 male
-0.1987925 0.4561765 1.509064 0.5418648 0.7988395 -0.2612245 12879746 male
0.01466666 0.4887566 1.503439 0.3567164 0.6768532 -0.6439124 7563619 male
-0.6691633 0.3075317 1.7103 -0.08078113 0.2869014 0.9545481 12103856 male
-0.4949343 0.3352092 1.388818 -0.07566187 -0.1988461 -0.9771057 14064756 male
-0.4446115 0.3320511 1.385172 -0.08338639 -0.3406936 -0.9364693 11364699 male
-0.2492981 0.4560859 1.412246 0.5087077 0.6804796 -0.5274127 11960692 male
-0.6863679 0.3220547 1.401106 -0.3280747 0.5239947 -0.7860005 11908781 male
-0.8102476 0.05296072 1.194186 0.7523248 -0.4718542 0.4597405 9460564 male
-0.7586231 -0.118789 1.463496 -0.9478338 -0.1772861 -0.264917 13210503 male
-0.4178304 0.5043024 1.605123 -0.3442457 0.9364721 -0.06719348 14786438 male
-0.6436661 -0.04805569 1.541975 0.4185551 -0.05016006 0.9068053 11497837 male
-0.7470985 -0.2799739 1.633959 -0.9758016 0.1887874 0.1103206 11762537 male
-0.5417106 0.2507721 1.430237 0.2632765 -0.6467754 -0.7157983 13009515 male
-0.6523013 -0.3721762 1.513101 0.8551689 0.03592699 0.5171031 10777704 male
-0.7588609 -0.3221439 1.501281 -0.979997 0.1107866 0.1653258 11435375 male
-0.4296914 0.2349284 1.576333 0.4349431 -0.8974493 0.07354769 13008497 male
-0.6259903 0.392423 1.417553 -0.3169824 0.6359031 -0.7036686 13209206 male
-0.7024435 -0.3902187 1.553754 0.1721652 0.07036702 0.9825518 10447973 male
-0.6041789 -0.6901571 1.567203 0.1489769 -0.7192494 -0.6785913 10972528 male
-0.3129343 0.3509909 1.747795 0.2283562 -0.9265257 0.2990043 14063227 male
-0.5447586 0.2699372 1.412828 0.2393251 -0.5280517 -0.8147914 13010275 male
-0.4484038 0.4085612 1.317433 -0.2988791 0.9464573 -0.1220247 12878962 male
-0.04108097 0.3812023 1.631151 0.03901605 -0.1331191 0.9903318 9527904 male
-0.7419084 -0.4254135 1.624577 -0.9617943 -0.2422351 0.1275707 12223860 male
-0.7455395 0.1161131 1.372848 -0.2883327 -0.07662934 -0.9544592 10922146 male
-0.1735727 0.433893 1.608596 0.3107385 0.4996051 0.8086016 10843499 male
-0.09685774 0.2993104 1.535768 0.01401098 -0.8718594 -0.4895557 11364964 male
-0.5629481 0.413027 1.774271 -0.3190593 -0.02088628 -0.9475046 12087395 male
-0.7491859 -0.2868248 1.627491 -0.9831256 0.182864 -0.0050053 11828586 male
-0.05134723 0.4211533 1.467422 -0.8518299 -0.5237805 0.006313682 13072761 male
-0.5107211 -0.703325 1.561694 0.1331087 -0.9896008 0.05451888 7296853 male
-0.668128 -0.2500909 1.679056 0.2073855 -0.006969309 0.9782346 10382956 male
-0.827987 0.1907822 1.85561 -0.8704444 -0.02478055 -0.491643 12416118 male
-0.7391714 -0.1900484 1.450681 -0.7092816 -0.06227916 -0.7021689 12291714 male
-0.5995364 0.1898537 1.431759 0.7979529 -0.4169362 -0.435242 11447206 male
-0.5768321 0.3111061 1.389105 0.2345746 -0.1241214 -0.9641415 12944746 male
-0.2284713 0.4779732 1.641994 0.5249381 0.7889719 0.3193172 10777698 male
-0.3395175 0.51805 1.639022 0.01106514 0.9878622 0.1549384 15379343 male
-0.7490593 0.2911095 1.686638 -0.5259559 0.3912737 0.7551659 10657698 male
-0.6758567 0.09720396 1.374859 0.3140976 -0.08996446 -0.9451187 12961472 male
-0.6090705 0.1982977 1.672495 0.7342999 -0.327736 0.5944685 12631479 male
-0.0944831 0.3314594 1.500264 -0.1354166 -0.4542983 -0.8804973 13996676 male
-0.5272455 -0.6899057 1.494604 0.1135703 0.8192977 -0.5620081 11045249 male
-0.6564805 0.4047284 1.654024 -0.4974492 0.751685 0.4330288 13142647 male
-0.5344865 0.3958542 1.700522 -0.2735178 0.3615598 0.8913263 12155502 male
-0.6550298 -0.02942649 1.547595 0.3274449 -0.09026029 0.9405495 10314597 male
-0.6505991 0.2533256 1.372003 0.1100393 0.1147181 -0.9872848 12433328 male
-0.6432815 -0.2872266 1.505072 0.8429781 -0.1847867 0.5052149 11367791 male
-0.6885442 0.2566897 1.217647 -0.6933573 0.6594806 -0.2904153 12813953 male
-0.6486168 0.2849748 1.209425 -0.4351226 0.6289441 -0.6442809 13010555 male
-0.8809119 0.2483663 1.898203 -0.5210099 0.1050068 -0.8470671 12025475 male
-0.7543598 -0.2890812 1.479897 -0.9863321 0.124466 -0.1079699 13012091 male
-0.8110889 0.1008608 1.198465 -0.4063845 0.03419844 0.9130621 12359315 male
-0.7510659 -0.2540882 1.489342 -0.9895616 0.101112 0.1026872 9987164 male
-0.4865138 0.3403164 1.713498 -0.06178164 -0.1827371 0.9812188 13010035 male
-0.6887518 -0.2729076 1.538926 0.2604808 -0.08759976 0.9614969 9853789 male
-0.5391678 0.1912588 1.561362 0.3771191 -0.922472 0.08262342 13077099 male
-0.6754454 -0.2093036 1.565394 0.2504632 -0.1472462 -0.9568632 10974574 male
-0.5889071 0.3479153 1.71023 0.07605462 0.1407706 0.9871168 12618366 male
-0.6884602 -0.5768576 1.488802 -0.05330473 -0.3051406 -0.9508144 9924974 male
-0.7493806 0.08694905 1.210986 0.7443334 -0.4801332 -0.4641551 12217192 male
-0.8230393 0.222421 1.516436 -0.9906396 0.1256716 0.05329281 11513515 male
-0.8804007 0.09209158 1.175491 -0.5202717 0.6183946 0.5889869 11104879 male
-0.5014016 0.4507943 1.673677 -0.403902 0.7217184 0.5621263 13010547 male
-0.0709227 0.4202769 1.46794 -0.01605102 -0.4249448 -0.905077 12152687 male
-0.7047476 -0.06294619 1.699198 -0.3087046 -0.2109253 0.9274762 9199712 male
-0.7772478 0.2579845 1.419197 -0.5956025 0.4119552 -0.6896018 10789275 male
-0.6654941 -0.4536414 1.65723 0.3643021 -0.2142356 0.9063042 10451062 male
-0.6220067 0.09185135 1.568311 0.6795191 -0.1147705 -0.7246252 13025220 male
-0.3475615 0.5190148 1.628487 -0.02255628 0.997279 0.07018337 15313036 male
-0.6152859 0.4264249 1.55223 -0.449835 0.8552297 -0.2573531 14194549 male
-0.7542679 -0.3559766 1.522394 -0.8985422 0.061371 0.4345754 11368819 male
-0.4187351 0.492757 1.663834 -0.4146345 0.834134 0.3637291 14262656 male
-0.4929255 0.4706409 1.476295 -0.3251686 0.9218366 -0.2109091 14261119 male
-0.7044905 -0.2301361 1.57732 -0.4852977 -0.1117463 -0.8671789 10974064 male
-0.6660472 0.3135085 1.708644 -0.1057514 0.265605 0.9582645 8481909 male
-0.7781225 -0.02117649 1.496205 -0.9662371 -0.1025535 0.2363663 9857635 male
-0.5229478 0.3999831 1.400007 -0.3170025 0.3971737 -0.8612564 13010541 male
-0.7473214 -0.06543785 1.426839 -0.6682643 -0.1952438 -0.717846 11305334 male
-0.6794801 -0.5940786 1.493667 0.07252143 -0.231729 -0.9700735 13077895 male
-0.7279848 0.2142021 1.377224 -0.2722102 0.1404739 -0.951929 11184803 male
-0.7338468 -0.1091346 1.582598 -0.7292297 -0.115672 -0.6744214 12026235 male
0.05656762 0.4249083 1.511747 0.8232173 0.08518464 -0.5612996 7628125 male
-0.7308164 -0.3676921 1.547478 -0.3807115 0.09634405 0.9196613 9923174 male
-0.5965357 -0.006674316 1.498268 0.9299824 -0.06869525 0.3611286 13092798 male
-0.7379884 0.3420547 1.638077 -0.5549501 0.7839118 0.2784112 10590616 male
-0.7254093 -0.5204539 1.53538 -0.7927321 -0.07335158 0.605141 9923693 male
-0.7373363 0.1306083 1.235313 0.4201271 0.175335 0.8903658 12422796 male
-0.6709182 0.07962133 1.37762 0.3332035 -0.10218 -0.9373019 13157056 male
-0.4482571 0.4862173 1.650223 -0.3887113 0.871675 0.2984734 13536883 male
-0.6689211 -0.5831267 1.625999 0.0410573 -0.1872948 0.9814455 11504772 male
-0.6694067 -0.3235739 1.527412 0.615506 0.02080571 0.7878577 10711654 male
-0.7047344 -0.4692177 1.570928 -0.408102 -0.1160774 -0.905527 9724764 male
-0.7059182 -0.5814023 1.544266 -0.2428638 0.02788126 0.9696597 10644841 male
-0.3357283 0.5024093 1.480568 0.04275841 0.9989582 -0.01594846 14655108 male
-0.6386932 -0.5315356 1.606647 0.9957933 0.07552756 -0.05188054 13013644 male
-0.5204083 0.2088364 1.623741 0.3085647 -0.8065472 0.5042515 13141357 male
-0.6005083 -0.6655538 1.511886 0.2173779 0.528484 -0.8206411 7295302 male
-0.2659548 0.3329723 1.634994 0.5877621 -0.7463574 0.3122283 13010547 male
-0.6734679 -0.05889943 1.561753 0.1806351 -0.08341569 -0.9800066 9791076 male
-0.0005576795 0.4724708 1.622843 0.1774013 0.497619 0.8490609 8020578 male
-0.3207853 0.4969014 1.547744 0.055971 0.9799635 -0.1911511 14590081 male
-0.755497 0.0870942 1.383348 -0.4460447 -0.1656166 -0.8795543 10857125 male
-0.5886487 -0.7072666 1.550337 0.01908774 -0.9164823 0.3996196 10841459 male
-0.1998592 0.438095 1.466621 0.8032801 0.3740053 -0.4635315 10714481 male
-0.6081648 0.390614 1.875535 0.1403571 0.3589376 0.922748 10249557 male
-0.3618746 0.3759995 1.285455 0.2418204 0.181564 -0.9531829 11895403 male
-0.8099917 0.0967593 1.172089 0.03590827 -0.1654059 -0.9855718 7691865 male
-0.823699 0.1688915 1.844318 0.06439176 0.1716559 -0.9830505 12549751 male
-0.6614026 -0.1102793 1.547633 0.2515692 1.958561E-05 0.9678395 10446687 male
-0.62657 0.06999303 1.404526 0.6462788 -0.052352 -0.7613036 11315367 male
-0.3108395 0.4975642 1.552725 0.0818095 0.9658772 -0.2457405 14392193 male
-0.4031849 0.2468395 1.563789 0.3620954 -0.9278835 0.08898956 14260353 male
-0.08846776 0.3063058 1.596376 0.0912166 -0.8289317 0.551862 13667454 male
-0.7355507 -0.08587517 1.677086 -0.654932 -0.2228435 0.7220838 11633534 male
-0.5656428 0.451709 1.813802 -0.2091556 0.9778821 0.0006430894 12286833 male
-0.5619936 0.1630258 1.554745 0.6495528 -0.7600635 -0.01961631 13882320 male
-0.3245494 0.2790683 1.562087 0.443549 -0.8958035 0.02829057 13339504 male
-0.8154167 0.1685592 1.546726 -0.6193645 -0.6063964 -0.4986694 11447214 male
-0.7755471 0.1739727 1.707537 -0.5030136 0.1014328 0.8583059 10064785 male
-0.6403933 0.2381996 1.193274 0.2086941 -0.1395456 -0.9679742 8870222 male
-0.8692515 0.01354775 1.189469 -0.7393895 0.4997211 -0.4512007 11704982 male
-0.1384546 0.3423686 1.60502 -0.5611225 -0.2592233 0.7860948 11170920 male
-0.6607901 0.3994446 1.521842 -0.5231797 0.8511643 -0.04245389 13340528 male
-0.5493532 0.3720753 1.259217 -0.2311196 0.9369965 -0.2619566 11892331 male
-0.4781595 0.4565558 1.805904 0.03594523 0.8762184 0.4805717 13536127 male
-0.4851871 0.3137219 1.705801 0.008399797 -0.3416731 0.9397814 13009523 male
-0.7248827 0.276539 1.873242 0.5507464 -0.8346605 -0.004515588 9329741 male
-0.4158441 0.4939114 1.523722 -0.2218138 0.9722424 0.07445426 13668976 male
-0.8162277 0.1235746 1.474691 -0.9150221 -0.3923438 0.09381485 12301237 male
-0.4001063 0.3244443 1.390568 0.00534845 -0.4185986 -0.9081557 11694688 male
-0.2702762 0.3199724 1.372486 0.5899624 -0.7952784 -0.1395591 13800306 male
-0.738466 -0.1847635 1.638999 -0.9846814 -0.04735998 0.1678093 12222840 male
-0.1453845 0.4612802 1.572818 -0.2064079 0.9129798 0.3519429 13535348 male
-0.503975 0.2960698 1.281404 0.1710785 -0.9849845 -0.0231881 12945266 male
-0.7297319 -0.1187549 1.428789 -0.4956487 -0.2263579 -0.8385074 13013640 male
-0.6971736 -0.3627149 1.561465 0.01621166 0.08851007 -0.9959435 11501941 male
-0.769318 0.1696902 1.385155 -0.4339088 0.1016892 -0.8951998 11250085 male
-0.7385662 -0.09895626 1.429298 -0.5939329 -0.2283644 -0.7714232 13409171 male
0.01617396 0.4737329 1.49177 0.363922 0.4812104 -0.7974945 8616053 male
-0.4193772 0.2461713 1.637428 0.08928418 -0.9597292 0.266361 13271659 male
-0.4146026 0.3391608 1.383629 -0.01386611 -0.3733046 -0.9276053 11825250 male
-0.6907203 -0.1440955 1.423013 -0.03484159 -0.1818285 -0.9827129 10844010 male
-0.659153 -0.3919272 1.449836 0.6393006 -0.1335277 -0.7572749 9727328 male
-0.6029147 -0.09536008 1.618044 0.9561317 -0.06570747 -0.2854732 12354426 male
-0.7007778 0.2209525 1.245942 -0.5740483 0.1320558 0.8081028 11900046 male
-0.6156734 0.07308128 1.575986 0.7638851 -0.159687 -0.6252838 11381421 male
-0.4131802 0.2414593 1.606536 0.2660924 -0.961842 0.06367731 14062203 male
-0.5793269 0.2534146 1.252995 0.4687887 -0.7649701 0.4416536 12417641 male
-0.06326485 0.4475367 1.483481 -0.2678759 0.3334087 -0.9039256 6640203 male
-0.639764 -0.2943462 1.490843 0.9749614 -0.1700189 0.1433321 11367531 male
-0.5786887 0.4501927 1.607633 -0.4462923 0.8850996 0.131992 13800567 male
-0.4917917 -0.6800767 1.565387 0.03032719 0.9585716 -0.2832331 11359566 male
-0.5945576 0.3502872 1.839421 0.3956829 -0.8711108 -0.2908625 12025709 male
-0.7217465 -0.2028585 1.66574 -0.7146863 0.01650443 0.6992505 11105387 male
-0.7000336 0.3223592 1.895599 0.1384455 -0.0699487 0.9878969 8085587 male
