# .PCD v0.7 - Point Cloud Data file format
VERSION 0.7
FIELDS x y z normal_x normal_y normal_z rgb label
SIZE 4 4 4 4 4 4 4 4
TYPE F F F F F F U U
COUNT 1 1 1 1 1 1 1 1
WIDTH 191
HEIGHT 1
VIEWPOINT 0 0 0 1 0 0 0
POINTS 191
DATA ascii
-0.6403095 -0.6487933 1.555261 -0.2480599 0.1683796 0.9539993 10381926 male
-0.3719277 0.3136555 1.357779 -0.2529929 0.7730244 0.5817456 10182738 male
-0.7124141 -0.2885439 1.639185 -0.8688626 0.1328121 0.4769057 11565680 male
-0.7244679 -0.3181029 1.478968 -0.9937192 0.1096988 -0.02210557 12092020 male
-0.1148749 0.1800619 1.646117 -0.04411236 0.4981179 0.8659866 11894643 male
-0.6289918 -0.5802558 1.53318 0.364912 0.3784522 0.8506547 10774626 male
-0.6267227 -0.5986751 1.49282 0.5850554 -0.09889472 -0.8049411 11765620 male
-0.4547949 -0.7033035 1.580781 0.1907381 -0.9460524 -0.2619235 7559514 male
-0.6439293 -0.1361622 1.414161 0.1681318 -0.1966632 -0.965948 13015176 male
-0.8158602 0.2164995 1.591708 -0.992838 0.109656 0.04741961 12434874 male
-0.7053726 0.3352003 1.452836 -0.4378985 0.8596698 -0.2630833 12761790 male
-0.6768582 -0.6192123 1.531765 -0.435096 0.08496867 0.8963661 10579560 male
-0.5772004 -0.1394709 1.598386 0.8897961 -0.01823824 -0.455994 11696241 male
-0.4558569 -0.6907081 1.573955 0.1251235 0.980285 -0.1529232 5461072 male
-0.795284 0.177036 1.162322 -0.7085589 -0.2922305 0.6422973 13532540 male
0.03930959 0.1533094 1.545284 0.7002721 0.2498527 -0.6687247 8154733 male
-0.5605353 0.4906535 1.850732 0.3475383 0.6141742 0.7085247 12419695 male
-0.6328524 0.3740033 1.676149 -0.3564698 0.5099208 0.7828858 12419699 male
-0.369595 0.169186 1.423573 -0.2448141 -0.7383777 -0.6283823 12418920 male
-0.7005481 -0.1060168 1.416767 -0.4888834 -0.2574255 -0.8335018 12948876 male
-0.2836209 0.3767279 1.671959 0.3434614 0.8819792 0.3227182 13931898 male
-0.7982092 0.1448049 1.44375 -0.9366654 -0.3438243 -0.06665701 12564921 male
-0.6800541 -0.1273336 1.554926 -0.4423202 -0.06476673 -0.8945158 9987942 male
0.03867258 0.06408761 1.591888 0.8380495 -0.5382402 -0.08927888 8022370 male
-0.6422892 0.2925365 1.16015 -0.05835691 0.6151702 -0.7862317 12617598 male
-0.4273185 0.3069928 1.380673 -0.1155785 0.1431181 -0.9829338 10840411 male
-0.5341058 0.4807706 1.846705 0.4043956 0.467085 0.7863181 11432548 male
-0.7106035 -0.408243 1.580595 -0.9068063 -0.1758207 -0.3831312 11107445 male
-0.6709042 0.04115424 1.532042 0.09229778 -0.1144623 -0.9891307 9800589 male
-0.7137544 -0.294969 1.585654 -0.8560232 0.1761613 -0.4859956 11895419 male
-0.5667039 0.3332959 1.246159 -0.429516 0.7602779 0.4873331 8279375 male
-0.7623456 0.2941156 1.466216 -0.7070836 0.6810768 -0.190177 13025985 male
-0.6673328 -0.2236808 1.422935 -0.1158806 -0.04391529 -0.992292 10052447 male
-0.6699197 0.02725414 1.546735 -0.0949985 -0.07929892 0.992314 11574700 male
-0.596594 0.2209604 1.67496 0.5470039 -0.2945066 0.7836152 12235690 male
-0.8025585 0.4826508 1.88864 0.04993935 -0.6438397 0.7635291 9591388 male
-0.1585522 0.2362379 1.524745 0.9279406 0.2317769 -0.2919005 12290933 male
0.004865855 0.1920573 1.547544 0.3811541 0.6735067 -0.6333328 7497826 male
-0.6215541 0.2339516 1.699762 0.4602601 -0.05364593 0.886162 11118245 male
-0.4336329 0.3145929 1.382319 -0.09479368 0.2010878 -0.9749759 10906202 male
-0.4216743 0.2784661 1.380779 -0.1524197 -0.1170999 -0.9813542 13407607 male
-0.1814443 0.2127603 1.459378 0.7389058 -0.476783 -0.4761263 11435121 male
-0.652247 0.3651393 1.45446 -0.4171447 0.8744649 -0.2475911 12683895 male
-0.8500154 0.1820972 1.108906 -0.1772246 0.6401899 -0.7474948 9794414 male
-0.689535 -0.09856105 1.532865 -0.4163359 0.008529128 0.909171 9592670 male
-0.2661012 0.370487 1.667783 0.4369819 0.8520076 0.2883228 14391934 male
-0.6547755 -0.06747613 1.541027 -0.00146492 0.01290645 0.9999158 9591636 male
-0.7200648 -0.3001413 1.620221 -0.9853749 0.1222919 0.1186644 11894384 male
-0.7555199 0.2519675 1.398589 -0.5507942 0.4165868 -0.7232436 10724256 male
-0.6523721 -0.3043216 1.422253 0.2786639 0.03904941 -0.9595945 10517870 male
-0.7188802 -0.2765433 1.488405 -0.9630687 0.1759298 0.2038322 10712177 male
-0.3613769 0.1654817 1.656726 0.1343098 -0.946452 0.2935806 13536883 male
-0.5848802 0.3575912 1.383296 -0.111052 0.4434803 -0.8893778 13142125 male
-0.6725139 -0.3840251 1.541359 0.1251879 0.07523633 0.9892765 9725018 male
-0.5870384 -0.6913326 1.56807 0.1230596 -0.9114963 -0.3924676 10776430 male
-0.3156947 0.2121607 1.736788 -0.06408182 -0.9642851 0.2569976 14590596 male
-0.3293881 0.386176 1.523691 0.2741671 0.9560161 0.1042379 14456953 male
-0.3555364 0.3205746 1.343612 0.1626967 0.9792588 0.1207559 12156530 male
-0.112066 0.06124268 1.646457 -0.2083073 -0.6725485 0.7101315 14585476 male
-0.696235 -0.4876026 1.584873 -0.9515499 -0.1341972 -0.2766659 11830906 male
-0.6842102 0.1183568 1.353486 0.06674779 -0.08772297 -0.9939063 12105136 male
-0.1425454 0.2144635 1.628316 0.4189897 0.5450443 0.7262055 11892075 male
-0.1709212 0.08196469 1.550617 -0.5166712 -0.3856785 -0.7643972 12421499 male
-0.5021211 0.4443126 1.759781 -0.1950899 0.08238039 -0.9773197 11890787 male
-0.7125162 -0.3140811 1.645628 -0.8036569 0.03858961 0.5938407 11302768 male
-0.0717398 0.1067321 1.519818 0.008243679 -0.0727443 -0.9973167 10909808 male
-0.4649395 -0.7016545 1.591769 -0.0694228 -0.9963259 0.05015288 6969172 male
-0.721693 -0.3211447 1.631389 -0.9447399 0.03190102 0.3262655 12421755 male
-0.8587521 0.453927 1.852029 -0.5510044 0.8146969 0.1807299 11827314 male
-0.6892241 -0.1380103 1.420701 -0.393157 -0.2190951 -0.8929867 12817805 male
-0.5582536 0.1818622 1.468807 0.6078364 -0.696011 -0.3822352 11579824 male
-0.357789 0.3921587 1.540349 0.2000464 0.9793293 -0.02992304 14918270 male
-0.1908137 0.26886 1.684284 0.8200997 0.2386713 0.52007 11107444 male
-0.2610158 0.372501 1.643374 0.5088854 0.8545765 0.1036083 15313806 male
-0.7791981 0.2608519 1.645637 -0.6658546 0.4260326 0.6124818 10458518 male
-0.583395 0.1233383 1.442719 0.9764705 0.1169185 -0.1812059 11382449 male
-0.6595906 0.2269047 1.713088 0.1099954 0.03614021 0.993275 12170421 male
-0.1313171 0.1169565 1.525545 -0.2542586 -0.03880107 -0.9663577 13538441 male
-0.4799082 -0.695794 1.505311 0.297672 0.3086453 -0.9033989 5389369 male
-0.5980494 0.2381016 1.68171 0.4717911 -0.2273086 0.8519063 11445670 male
-0.5048318 0.3933613 1.665382 -0.1481345 0.7568783 0.6365465 12420208 male
-0.5992335 -0.007141639 1.524071 0.5871152 -0.02367103 0.8091574 11116183 male
-0.6433515 0.2507845 1.356931 -0.007096889 0.1384665 -0.9903418 11381413 male
-0.6121469 -0.2607875 1.513136 0.5639727 -0.286546 0.7744846 9725277 male
-0.6516622 0.3017993 1.174625 -0.3010802 0.8781677 -0.3717152 12879236 male
-0.5856981 0.3029702 1.168542 0.1467288 0.439142 -0.886355 11895411 male
-0.8274447 0.5540515 1.878695 0.220867 0.9676674 -0.1218096 12023678 male
-0.622764 -0.3925808 1.44435 0.7111831 -0.1440252 -0.6880956 10516840 male
-0.800592 0.2384481 1.135646 -0.5947611 0.1732122 0.7850204 12025721 male
-0.6672314 -0.343717 1.420177 0.02373563 -0.0449785 -0.998706 9726819 male
-0.5113524 0.3602342 1.69208 -0.1682025 0.4592988 0.8722115 12418419 male
-0.6271513 -0.1599791 1.538531 0.2115292 -0.07640923 0.9743804 9196882 male
-0.5543886 0.1827203 1.539896 0.2677156 -0.95966 0.08591306 12486250 male
-0.6540875 -0.1409595 1.548289 0.03378662 -0.002805189 -0.9994252 11302509 male
-0.463982 0.3502747 1.703443 -0.2131587 0.4019355 0.8905119 11432039 male
-0.6928506 -0.5708509 1.495802 -0.8730307 -0.2137434 -0.4383281 11766657 male
-0.771524 0.2023836 1.120442 0.3848672 -0.3874301 -0.8377204 11116426 male
-0.7546532 0.3094234 1.50136 -0.6685744 0.728963 -0.1470421 13091263 male
-0.8451703 0.2268702 1.102816 -0.1677801 -0.9275934 0.333797 12621207 male
-0.5461449 0.3876937 1.670949 0.01633376 0.62525 0.7802537 12418669 male
-0.06555442 0.1510986 1.506412 -0.1427811 -0.3429139 -0.9284524 12152687 male
-0.6925339 -0.02533419 1.687164 -0.402749 -0.2155159 0.8895766 9200991 male
-0.7306026 0.3192654 1.454884 -0.542497 0.8017354 -0.2508333 12499893 male
-0.6206902 -0.4303041 1.636955 0.6890688 -0.1913638 0.6989737 9594972 male
-0.5900524 0.1101229 1.579644 0.9141831 -0.1327245 -0.3829538 12500418 male
-0.2037281 0.3154052 1.654042 0.7799534 0.5940959 0.1967815 12879471 male
-0.6323491 0.3946902 1.543017 -0.2994249 0.915136 -0.2699462 13539189 male
-0.7187039 -0.3203124 1.507746 -0.8877114 0.151324 0.4348215 10317419 male
-0.3082618 0.3841063 1.673719 0.2101638 0.9218141 0.3257145 13667965 male
-0.4444882 0.4076441 1.473814 0.08400557 0.9723562 -0.2178681 14261119 male
-0.6970361 -0.09090331 1.667924 -0.5402447 -0.2480722 0.804112 10580080 male
-0.624245 0.228339 1.700647 0.4626835 -0.07888451 0.883007 11380906 male
-0.7425716 -0.05332019 1.478999 -0.9712487 -0.1629175 0.1735919 10908783 male
-0.4242524 0.3802499 1.42191 0.08123223 0.8050915 -0.5875619 11892067 male
-0.6804204 -0.04369721 1.390952 -0.1928528 -0.250375 -0.9487467 10120808 male
-0.6876234 -0.5897496 1.4955 -0.7635479 -0.2483499 -0.5960849 11570822 male
-0.5311149 0.1640649 1.514546 0.02172087 -0.9877534 -0.1545039 13931633 male
-0.7307858 -0.07607411 1.606899 -0.954569 -0.2641892 -0.137849 12619648 male
0.0290413 0.05630584 1.573284 0.7461616 -0.5725104 -0.3398158 7234396 male
-0.7238702 -0.4032747 1.483593 -0.9831523 -0.1653581 -0.07789963 12486271 male
-0.5661547 -0.01665458 1.483723 0.9680562 -0.05207693 0.2452661 12497320 male
-0.7529985 0.3159527 1.619103 -0.6358494 0.6907039 0.3444179 10459286 male
-0.6918864 -0.4662797 1.533669 -0.5109764 -0.11876 0.8513515 10252651 male
-0.7484166 0.1894184 1.180474 0.7668387 -0.4722466 0.4346744 12551296 male
-0.5854015 0.1314645 1.453709 0.9906047 0.115511 -0.07321042 13027270 male
-0.3234143 0.393997 1.655244 0.1418003 0.9662099 0.2152469 14128759 male
-0.6672336 -0.5432217 1.617275 -0.3561001 -0.2631955 0.8966165 9857390 male
-0.6246384 -0.3054278 1.51079 0.6738568 -0.07895422 0.7346315 11171181 male
-0.7032158 -0.2041755 1.618911 -0.9978838 0.06217718 0.0190326 12881026 male
-0.6951894 -0.5448847 1.521926 -0.8642287 -0.03196607 0.5020828 10976117 male
-0.2200038 0.3271679 1.51374 0.635977 0.769845 0.05359077 13536883 male
-0.6058667 -0.5677093 1.579947 0.8831563 0.3355889 -0.3277429 12025464 male
-0.5777013 0.1622582 1.602919 0.6960384 -0.4942322 0.5208312 13552326 male
-0.572665 -0.6474268 1.53094 0.4697014 0.8339415 -0.2896935 8479060 male
-0.2557463 0.1853717 1.656517 0.312401 -0.8282363 0.4652207 13465978 male
-0.6443641 -0.04965029 1.548596 0.2338219 -0.07683785 -0.9692386 9791076 male
-0.02054448 0.1830362 1.663877 0.1356799 0.5232555 0.8413055 7493717 male
-0.33018 0.3894565 1.574402 0.2775592 0.9154876 -0.2912788 14589821 male
-0.7185481 0.117017 1.35715 -0.2296836 -0.09404971 -0.9687107 11184805 male
-0.6366584 -0.7026946 1.562414 0.05023513 -0.3536785 0.9340172 7492428 male
-0.171584 0.2134632 1.490835 0.7883087 -0.4637348 -0.4043756 10709850 male
-0.5880126 0.4526985 1.870367 0.08317891 -0.1903543 0.9781855 9202518 male
-0.3253194 0.2926099 1.307236 0.4632521 0.607821 -0.6449429 13142648 male
-0.7485035 0.2070548 1.130493 0.403065 -0.5276064 -0.7477769 9864824 male
-0.8822692 0.4327352 1.844937 -0.8926377 0.3118107 -0.3255335 11893107 male
-0.5890911 -0.03322405 1.519901 0.6502852 -0.005779295 0.7596685 11235436 male
-0.5802212 0.1183838 1.450498 0.9860566 0.1333438 -0.09955984 12368568 male
-0.2692134 0.3561431 1.565178 0.5016708 0.8360691 -0.2220694 14589567 male
-0.4458828 0.1598919 1.544174 -0.1784631 -0.9568111 0.2294855 13009516 male
-0.1688378 0.06502112 1.618042 -0.3672451 -0.7853031 0.4984278 12616821 male
-0.6810194 -0.1721768 1.560691 -0.6130797 -0.1158055 -0.7814874 10908272 male
-0.5146907 0.4946788 1.797021 0.1794591 0.9498755 -0.2559904 9657425 male
-0.5526965 0.1812088 1.541275 0.2781566 -0.9580796 0.06864721 12420715 male
-0.3423448 0.1533293 1.574512 -0.02904936 -0.998076 0.05477709 13603183 male
-0.7966816 0.1743639 1.522447 -0.5582765 -0.5847869 -0.5885165 11447214 male
-0.7718522 0.1563191 1.680681 -0.6306094 0.008617111 0.7760527 9736084 male
-0.597316 0.2839055 1.161063 0.2234722 0.09390807 -0.970176 8345165 male
-0.8275933 0.1739971 1.120559 0.3517632 -0.9209037 0.1679255 9196364 male
-0.148969 0.07821712 1.643624 -0.3690063 -0.4489717 0.8137929 13076092 male
-0.6074985 0.3936714 1.458619 -0.4318944 0.8749837 -0.2187941 14064504 male
-0.5064639 0.3092254 1.195609 0.3854235 0.256924 -0.88625 11038818 male
-0.3879873 0.3883773 1.810748 0.4560359 0.4240441 0.7824436 13010547 male
-0.4618532 0.2571115 1.708852 -0.3248129 -0.2321453 0.9168453 12284258 male
-0.6710429 0.4651041 1.824343 -0.3746877 -0.6283085 -0.6817901 13010811 male
-0.2855221 0.3681186 1.518763 0.4121717 0.9042729 0.1113784 14392961 male
-0.7822751 0.1289656 1.406268 -0.8124948 -0.2400885 -0.5312344 13749189 male
-0.4001776 0.2331804 1.392759 -0.1010033 -0.3860584 -0.9169282 11891549 male
-0.295341 0.1599205 1.398605 -0.1224942 -0.9916769 -0.03965214 14063219 male
-0.7007254 -0.2247381 1.59898 -0.8979318 0.161098 -0.4095927 10513251 male
-0.1110232 0.2217479 1.604032 0.1731347 0.9348961 0.3098289 13339512 male
-0.3693955 0.2574958 1.279935 0.2867051 -0.3972618 -0.8717704 9791316 male
-0.7111702 -0.2254509 1.506599 -0.9614588 -0.1379611 0.2378318 12749192 male
-0.6507272 -0.3406377 1.551077 0.3338801 0.1129608 -0.9358227 10712939 male
-0.5064045 0.1656993 1.565356 0.05767271 -0.9917856 0.1141713 14061939 male
-0.686685 -0.04626296 1.39398 -0.2637935 -0.2456206 -0.9327828 10449519 male
0.01477261 0.1786937 1.541627 0.4400395 0.538005 -0.7189687 7300197 male
-0.4379883 0.1598476 1.612517 -0.2408817 -0.970544 -0.004510954 14127733 male
-0.4119971 0.2686255 1.381946 -0.1362818 -0.1949372 -0.9713017 11368286 male
-0.7055518 -0.193864 1.443109 -0.7621105 -0.07092804 -0.6435503 11371123 male
-0.6468275 -0.3821321 1.426475 0.3639734 -0.1506376 -0.9191473 12624014 male
-0.5742657 -0.08334357 1.608585 0.9701402 -0.01679243 -0.2419631 12354426 male
-0.6987399 0.2574839 1.191105 -0.4936 0.1226863 0.8609921 14594741 male
-0.5768226 0.09397432 1.609201 0.9901803 -0.008161217 -0.1395591 13355976 male
-0.4121474 0.1552886 1.609399 -0.09876703 -0.9930717 -0.06366845 13207147 male
-0.5016308 0.265853 1.221408 0.2421694 -0.9690367 -0.04818574 9526096 male
-0.1265704 0.1763306 1.529356 0.0895852 0.3146144 -0.9449828 12289137 male
-0.5989056 -0.2046534 1.525234 0.5256607 -0.1644643 0.8346452 9592927 male
-0.4472105 0.4149621 1.623306 0.02317995 0.9769812 0.212062 14062203 male
-0.4838854 -0.6807792 1.573039 0.2217148 0.8224092 -0.5239139 12080468 male
-0.6142827 0.4540394 1.801099 -0.3963048 -0.5746351 -0.7160567 14133651 male
-0.6640688 -0.1836391 1.670252 -0.292007 -0.06655636 0.9540976 10579567 male
