# .PCD v0.7 - Point Cloud Data file format
VERSION 0.7
FIELDS x y z normal_x normal_y normal_z rgb label
SIZE 4 4 4 4 4 4 4 4
TYPE F F F F F F U U
COUNT 1 1 1 1 1 1 1 1
WIDTH 194
HEIGHT 1
VIEWPOINT 0 0 0 1 0 0 0
POINTS 194
DATA ascii
0.2051978 -0.6310095 1.072237 0.3376068 0.07205367 0.9385254 11300724 male
0.1888399 0.552579 1.033034 -0.6435513 -0.507092 0.5733232 10182738 male
0.2855256 -0.2454163 1.365166 -0.1490282 -0.02291188 0.9885675 12225946 male
0.2021768 -0.3736963 1.099645 -0.8261071 0.1849003 0.5323148 10646381 male
0.26481 0.7650791 1.304054 0.4050145 0.07454782 0.9112663 11103591 male
0.4060497 -0.06992683 1.136942 0.9068646 0.02165492 0.4208657 12288631 male
0.4205516 -0.1769298 1.129475 0.7924819 -0.1670597 0.5865695 10710378 male
0.2995225 -0.6931362 1.01222 -0.1385843 -0.966353 0.216694 7099730 male
0.327081 -0.1887817 1.05441 -0.6042257 0.2306472 -0.7627015 11564142 male
0.1103223 0.1778556 1.326091 -0.8924608 -0.04059369 0.4492953 10657438 male
0.1379934 0.1509594 1.09299 -0.7287837 -0.07395268 -0.6807389 11052968 male
0.1918043 -0.4887091 1.026235 -0.03353593 -0.1146397 -0.992841 11636354 male
0.3402096 -0.2076848 1.263383 0.5182913 -0.1697362 -0.8381909 8740179 male
0.2303889 0.7538071 1.341671 0.4017902 0.733339 0.5484329 11958891 male
0.5606724 0.2655056 0.9709305 -0.1815591 -0.672001 0.7179492 13863046 male
0.2025267 1.00735 1.21416 -0.5011945 0.6055811 -0.6181226 8418419 male
0.1873617 0.3887039 1.502429 -0.5139197 -0.01188955 0.8577561 10646118 male
0.2447247 0.3887958 1.383269 0.1178622 0.09375481 0.9885943 13011323 male
0.2923723 0.5674147 1.069807 0.3549023 -0.07243763 -0.932093 11432287 male
0.283049 -0.1283962 1.087168 -0.9030194 -0.2806305 -0.3252732 13538956 male
0.1256479 0.3719668 1.259914 -0.9916525 -0.0468788 -0.1201161 14195838 male
0.3033353 0.03816492 1.214625 0.09969302 -0.1729324 0.9798755 10787492 male
0.2628155 -0.178976 1.261345 -0.7257476 -0.07426798 -0.6839407 11038828 male
0.3136134 1.020726 1.235311 0.4226798 0.8135161 -0.3994163 7561562 male
0.3955946 0.3239008 0.9184948 -0.153397 -0.5174526 -0.8418506 12617598 male
0.1654584 0.504888 1.065284 -0.4852944 -0.2004291 -0.8510686 12551019 male
0.1948815 0.417889 1.502766 -0.4120446 0.1556958 0.897763 11299945 male
0.1832684 -0.5507673 1.2625 -0.8076412 0.1553351 -0.5688471 11170928 male
0.2705981 0.01466727 1.222892 -0.004952075 -0.09144376 -0.9957981 10786452 male
0.192392 -0.3750948 1.299196 -0.9878852 0.1309685 -0.08324838 12554632 male
0.4234164 0.3460761 0.9742914 0.2244624 0.2696355 0.9364366 11367780 male
0.17078 0.2827116 1.075049 -0.5602443 0.182076 -0.8080686 11316387 male
0.4323092 -0.1921296 1.093127 0.9893324 -0.08737984 -0.1165611 10381157 male
0.1814104 -0.6409485 1.289146 -0.70805 0.06480567 0.7031825 11368568 male
0.1815092 0.4503678 1.372281 -0.4438796 -0.1861227 0.8765441 12221293 male
0.1292271 0.09188154 1.292439 -0.7421461 -0.6702216 -0.004721105 12434617 male
0.1472128 0.7430511 1.188165 -0.8520756 0.5213915 0.04602444 12223347 male
0.2161253 1.007803 1.206709 -0.3510348 0.6174462 -0.7039424 9404022 male
0.1844808 0.4119473 1.370006 -0.4452816 -0.003048433 0.8953856 12287595 male
0.1523866 0.4163286 1.096557 -0.6945785 -0.08677179 -0.7141649 13339251 male
0.2172742 0.545329 1.050467 0.1311759 -0.1024183 -0.9860546 11367773 male
0.1521294 0.7250915 1.096495 -0.7077319 0.5788657 -0.4050063 13012343 male
0.1191562 0.1768848 1.112983 -0.8394486 -0.0322135 -0.5424837 11184289 male
0.6603502 0.2210098 0.9712185 0.3620256 0.595014 0.7175624 11826798 male
0.3185344 -0.1528717 1.163458 -0.4794468 -0.1721394 0.8605225 9264474 male
0.1163362 0.4728652 1.285264 -0.9819031 -0.1244588 0.1427459 14392193 male
0.3502693 0.05820893 1.200655 0.6325367 -0.08395925 0.7699667 11381421 male
0.2992269 -0.2494929 1.364104 0.0921377 -0.08040144 0.9924951 12554662 male
0.3458692 0.3976095 1.131596 0.7395832 -0.0006774769 -0.6730649 13338480 male
0.2717846 -0.2721323 1.029448 -0.4295655 0.4156365 -0.8016982 11499883 male
0.20553 -0.3397702 1.062333 -0.9295037 0.3386185 -0.1461524 11698547 male
0.2758737 0.695906 1.386912 0.7534668 0.6574692 0.004712045 11695454 male
0.1242614 0.3758808 1.185015 -0.9895961 -0.09907456 0.1043273 14392449 male
0.4073965 -0.04260358 1.089018 0.9532579 0.05849081 -0.2964428 11827563 male
0.3424622 -0.696817 1.261595 0.3382118 0.935021 0.10653 9003608 male
0.2407302 0.5318698 1.392813 0.1934925 -0.1579708 0.9683006 9721162 male
0.1321481 0.2954775 1.126923 -0.9242636 0.1780822 -0.337674 13344135 male
0.1810196 0.5672245 0.9925196 -0.9100032 -0.08927934 -0.4048748 12550768 male
0.2712953 0.908407 1.339392 -0.7854727 -0.3804105 0.4881811 13006464 male
0.1762715 -0.5821792 1.281144 -0.9134437 -0.0005115346 0.4069651 11632247 male
0.2036376 0.02781752 1.08773 -0.7822106 -0.401538 -0.4763549 13880779 male
0.2443241 0.8565257 1.311743 -0.1977267 -0.3091138 0.9302436 11565170 male
0.3741598 0.8696171 1.238233 0.983889 0.1174146 -0.1348206 12945535 male
0.2168048 0.5127936 1.402162 0.2075103 -0.2810824 -0.9369805 11497316 male
0.2504831 -0.251263 1.345473 -0.723813 0.2527062 0.6420549 9659484 male
0.2615531 0.9017793 1.178255 0.08528596 0.06267746 -0.9943833 13668481 male
0.2726164 -0.6905293 1.022746 -0.182807 -0.9631218 -0.1974284 7691869 male
0.2439295 -0.2428921 1.327359 -0.9216293 0.2775245 0.2712559 10512734 male
0.455438 0.07651439 1.510921 0.7529936 0.5697303 -0.3292544 12809853 male
0.3564039 -0.1378802 1.042755 0.05421323 0.03260371 -0.9979971 13608602 male
0.345852 0.1861962 1.15435 0.9341394 0.2241456 -0.2777458 12697789 male
0.126973 0.3154367 1.220359 -0.9758699 0.2168216 -0.02581596 13144184 male
0.300258 0.6801513 1.122041 0.8744502 0.4611854 -0.1504828 12746599 male
0.1173182 0.4695973 1.257072 -0.9805948 -0.1304983 -0.1463021 14590083 male
0.224456 0.2728665 1.395624 -0.02786186 0.2304906 0.9726757 11840940 male
0.2334226 0.09320427 1.043042 -0.3110109 -0.09517801 -0.9456286 11315876 male
0.2378387 0.3193877 1.39001 0.1271532 -0.08279075 0.9884219 12223854 male
0.3032834 0.8416972 1.187969 0.07784714 -0.4257806 -0.9014716 12814200 male
0.2262455 -0.6321009 1.011389 0.4470402 0.7751844 -0.446368 7362383 male
0.2707584 0.4697494 1.379545 0.3412566 -0.1132823 0.9331191 13009008 male
0.30264 0.3627777 1.359583 0.6231674 0.04215032 0.780952 13207922 male
0.3359949 0.04605689 1.207467 0.436925 -0.1201307 0.8914402 10855330 male
0.2240283 0.2139717 1.046596 -0.175725 0.07867019 -0.9812909 11907757 male
0.3284203 -0.3392134 1.085854 0.7648074 -0.5176597 0.3835341 10975338 male
0.3751453 0.3173911 0.9350077 -0.3784093 -0.8540466 -0.3569465 12813953 male
0.3516834 0.3606503 0.9078182 -0.1117497 -0.261991 -0.9585785 11895411 male
0.4399934 0.1446091 1.501569 0.7424237 0.4288688 0.5146639 12613754 male
0.2241293 -0.3834292 1.018973 -0.3193856 0.07585663 -0.9445839 8082506 male
0.53774 0.2610808 0.9634157 -0.007960489 -0.5216704 0.8531101 13533828 male
0.2492972 -0.2643024 1.079587 -0.8196684 0.5682771 0.07214552 12224117 male
0.3208956 0.4253485 1.344696 0.6662266 -0.02953557 0.7451643 13141107 male
0.3631647 -0.2104815 1.15827 0.2044015 -0.2909018 0.9346638 8999250 male
0.3813403 0.3641581 1.218929 0.9991893 -0.02866967 -0.02826673 13077099 male
0.3041063 -0.2300608 1.247773 0.1354261 -0.1623343 -0.9773983 10909037 male
0.3260897 0.2971188 1.338169 0.6933768 -0.08897785 0.7150607 12618609 male
0.2783537 -0.3836001 1.108419 0.5700676 -0.4842069 0.6637519 10054245 male
0.5550938 0.2647245 0.9305779 0.2652167 0.2411972 -0.9335332 15397601 male
0.2410992 0.7422727 1.348515 0.5485338 0.6330295 0.5462458 11892586 male
0.5459985 0.222221 0.9280698 -0.3879804 -0.4170738 -0.8219008 10120298 male
0.314388 0.3547409 1.349908 0.6954326 0.03048188 0.7179446 13142899 male
0.2361056 0.9085707 1.167804 0.407872 0.09422485 -0.9081643 13140603 male
0.279678 -0.1155813 1.375367 -0.2323067 -0.2110453 0.9494702 9529189 male
0.155321 0.1255906 1.081049 -0.6532177 -0.155494 -0.7410319 10855077 male
0.3090526 -0.3718297 1.337576 0.8298528 -0.2661135 0.4904366 10909548 male
0.3475302 0.07787912 1.242165 0.694562 -0.06763093 -0.7162471 13025220 male
0.1111848 0.550932 1.282606 -0.9934036 -0.1067459 0.04189086 14984068 male
0.1075278 0.5863197 1.299247 -0.9941943 -0.08018738 0.07174945 14786692 male
0.2227712 -0.3856389 1.118378 -0.3751126 -0.1050012 0.9210134 9200736 male
0.123238 0.3865217 1.272185 -0.9945359 -0.09872029 -0.033952 14523263 male
0.1133462 0.6579579 1.121687 -0.9311256 0.1842659 -0.3147241 13866106 male
0.2421129 -0.1657936 1.313129 -0.9831549 -0.1808694 0.02632272 13079679 male
0.1825977 0.4180402 1.36867 -0.4677106 -0.06227945 0.8816849 12418414 male
0.1988969 0.01121758 1.141078 -0.8736948 -0.4736974 0.1107624 12039087 male
0.2126718 0.3703695 1.061085 -0.09667632 0.1815086 -0.9786258 12025193 male
0.2842767 -0.1207536 1.073883 -0.7853991 -0.2426183 -0.56946 12554628 male
0.2950055 -0.3744054 1.096671 0.6807734 -0.5019652 0.5334592 9923172 male
0.3811569 0.3830073 1.215506 0.9978188 0.03058184 -0.0585047 13143917 male
0.2279748 -0.1253043 1.30347 -0.9579239 -0.2647459 -0.1108674 12093302 male
0.2646387 1.030186 1.225734 0.0508807 0.8827519 -0.4670762 7628123 male
0.1632611 -0.4554946 1.0806 -0.8488383 0.3118344 0.4268878 11566710 male
0.3868094 0.05985682 1.145448 0.9446343 0.1349317 0.2990981 12698303 male
0.1937706 0.2558708 1.393825 -0.300777 0.1214564 0.9459291 11248541 male
0.2478993 -0.4168249 1.021138 0.2854798 -0.2411823 -0.9275412 10386796 male
0.5565538 0.3164404 1.001364 -0.01910233 0.9925507 0.1203251 11826286 male
0.2577412 0.08226719 1.037497 -0.1671722 -0.06070484 -0.9840572 11380389 male
0.1244849 0.3401243 1.267193 -0.9982074 0.02116645 -0.05598372 13998203 male
0.2367205 -0.6002837 1.298076 0.4644221 -0.1934305 0.8642319 10842224 male
0.3412193 -0.3078553 1.036485 0.6726099 -0.2496654 -0.6966084 9529437 male
0.1999564 -0.336154 1.307295 -0.9637529 0.2648732 -0.03197932 12684417 male
0.160936 -0.4680832 1.043128 -0.7674401 0.2410841 -0.5940659 12093305 male
0.1388109 0.3226061 1.112221 -0.8973973 -0.009401763 -0.4411234 12551276 male
0.2576644 -0.5383456 1.27749 0.9241018 -0.1394229 -0.3558052 12617344 male
0.3812548 0.3632848 1.232768 0.999111 -0.0253808 0.03366369 14062197 male
0.1564433 -0.6117996 1.013512 -0.1060712 0.4160473 -0.9031355 10713202 male
0.3454756 0.6013444 1.322813 0.909961 0.3441143 0.231423 13140843 male
0.3716013 -0.008691811 1.28833 0.9035103 -0.02141493 -0.4280313 12433853 male
0.2081141 0.9610412 1.33478 -0.4167221 0.07360427 0.9060493 8086371 male
0.1204021 0.6674176 1.327791 -0.9303429 0.2882603 0.2266456 15182473 male
0.1522382 0.08073717 1.182987 -0.4665318 -0.8247099 0.3196901 10065558 male
0.1238212 -0.6413521 1.075351 0.002006418 -0.6618192 0.7496608 6505794 male
0.1722461 0.7619113 1.13164 -0.5576224 0.7344566 -0.3868216 10844532 male
0.1707219 0.4739058 1.469788 -0.8881842 0.04702986 0.4570748 13601404 male
0.2408943 0.6216545 0.9660679 0.2722199 0.2373783 -0.9324956 13674894 male
0.5307077 0.2567765 0.9253446 0.06177232 0.003573477 -0.9980839 9992299 male
0.467145 0.03822214 1.502549 -0.5380328 -0.3033099 -0.7864631 11695734 male
0.3526392 -0.07160407 1.179578 0.3291395 -0.1287742 0.9354596 10248543 male
0.2876802 0.1554115 1.046189 0.2925917 0.1473164 -0.9448218 12039343 male
0.1103479 0.6093848 1.326857 -0.9700961 -0.006889117 0.2426236 14918531 male
0.2934197 0.423009 1.084175 0.5412533 -0.0080904 -0.8408208 11893348 male
0.3669098 0.830746 1.250202 0.9316955 -0.0750712 0.3553984 11826546 male
0.2363367 -0.1283598 1.341113 -0.8259507 -0.2639121 0.4981526 12091518 male
0.3436365 0.161738 1.522947 -0.6579565 -0.3946502 0.6413615 12286071 male
0.3713574 0.2572503 1.213091 0.9749701 -0.1995571 -0.09803283 12960956 male
0.3279571 0.4708575 1.110752 0.725813 -0.0147789 -0.6877334 13142381 male
0.2195474 -0.006916292 1.241877 -0.5901394 -0.2405754 -0.7706226 9932683 male
0.1989654 0.1256511 1.397057 -0.387482 -0.06298379 0.9197233 10721946 male
0.3754002 0.3635713 0.9080083 0.1259421 0.0105341 -0.9919817 8345165 male
0.6384122 0.2371795 0.9598318 0.587101 0.7658504 -0.2622701 10911612 male
0.3373568 0.8171653 1.275891 0.3607452 -0.732682 0.5770962 10974053 male
0.1345962 0.2006033 1.09427 -0.7196263 0.03201832 -0.6936231 10132374 male
0.2896915 0.4185655 0.9082327 -0.1356777 0.04335679 -0.989804 11038818 male
0.4269676 0.1391632 1.468528 0.04376432 -0.6268192 -0.7779348 13007227 male
0.2750283 0.2890429 1.071105 0.4632669 0.1999567 -0.8633663 10846581 male
0.3080602 0.2860514 1.517068 0.6876152 0.3919311 0.6112083 9070434 male
0.1272092 0.3154919 1.166274 -0.994693 0.08705354 -0.05484283 13536115 male
0.3112662 0.002902563 1.20577 0.1361073 -0.235433 0.9623129 11245226 male
0.2234442 0.519914 1.051966 0.09594112 -0.1261782 -0.9873574 11564378 male
0.1433276 0.6390865 1.055352 -0.9048078 -0.15842 -0.3952547 13011051 male
0.2031681 -0.3860154 1.264948 -0.7830568 0.1281519 -0.6086044 12224384 male
0.2746882 1.037679 1.277664 0.1482352 0.9706879 0.1891859 7496026 male
0.2663039 0.5324285 0.9511705 0.5022799 0.3907234 -0.7713951 9724751 male
0.3436168 -0.1536822 1.04318 -0.2396109 0.0559245 -0.9692572 10448230 male
0.3380318 -0.2523055 1.27413 0.5689902 -0.2634128 -0.7790148 9659997 male
0.3747766 0.3744943 1.178201 0.9438252 0.04693963 -0.3270947 13537907 male
0.2705503 -0.09275623 1.071694 -0.7499977 -0.2619465 -0.6073613 11437177 male
0.2003614 1.011473 1.220087 -0.5252127 0.6542144 -0.5442015 7695979 male
0.1665066 0.7152904 1.372352 -0.6251861 0.6104774 0.4862712 11433315 male
0.2384119 0.5899542 1.056738 0.3710668 -0.3017361 -0.878217 11038301 male
0.3923166 -0.09725158 1.057242 0.6367329 0.005319477 -0.7710662 9791315 male
0.2258975 -0.3013472 1.049524 -0.8221116 0.4307517 -0.372271 11699578 male
0.3758141 -0.1154288 1.317051 0.996168 -0.05727809 0.06609666 12025714 male
0.4064966 0.3164434 0.9709957 -0.145621 -0.5699903 0.8086444 11900046 male
0.3604189 0.06448071 1.266411 0.8793789 -0.05945637 -0.4723959 12369082 male
0.1818276 0.7230185 1.380776 -0.5058051 0.6630633 0.5518226 11172209 male
0.3193114 0.4439074 0.9506546 0.56256 0.7316507 0.3849853 11431517 male
0.2542894 0.7931274 1.180907 0.1262726 0.1393863 -0.9821543 13077101 male
0.3442374 -0.3195539 1.085648 0.7542211 -0.5645899 0.3352446 11368555 male
0.1241944 0.1612169 1.345882 -0.7857869 -0.07304373 0.6141692 10458257 male
0.2593467 -0.6488372 1.032396 0.5701457 0.821505 -0.007968187 9462878 male
0.1958688 0.3775496 1.429531 -0.2326358 -0.1870633 -0.9544046 11759463 male
0.209316 0.548211 1.400069 0.1024668 -0.3708603 -0.9230186 12285801 male
0.2280431 0.316018 1.518361 -0.4710354 -0.164031 0.8667293 12419691 male
0.3179555 -0.6862187 1.256103 0.3980677 0.8868293 -0.2346831 8347475 male
0.1664359 0.4893644 1.425906 -0.9153383 -0.1985224 -0.3503497 10643295 male
