# .PCD v0.7 - Point Cloud Data file format
VERSION 0.7
FIELDS x y z normal_x normal_y normal_z rgb label
SIZE 4 4 4 4 4 4 4 4
TYPE F F F F F F U U
COUNT 1 1 1 1 1 1 1 1
WIDTH 194
HEIGHT 1
VIEWPOINT 0 0 0 1 0 0 0
POINTS 194
DATA ascii
-0.63764 -0.642518 1.520045 0.03586927 0.1602385 0.9864264 11828346 male
-0.5422252 0.5877832 1.292829 -0.2988266 -0.5932237 0.7475215 12681328 male
-0.6197553 -0.2292458 1.634293 0.0437774 -0.02133654 0.9988135 12291490 male
-0.6910784 -0.4013137 1.506858 -0.6078853 -0.04243319 0.7928904 9923431 male
-0.368979 0.8288313 1.505421 -0.1671226 0.06029252 0.984091 12024181 male
-0.5340049 -0.08604447 1.438822 0.9650227 -0.2052763 0.1630737 12222837 male
-0.5476038 -0.1429354 1.419741 0.9356178 -0.1949946 -0.294273 11236202 male
-0.4797644 -0.7134319 1.484409 0.1120245 -0.9935799 0.01579733 7035226 male
-0.5718399 -0.1309019 1.382494 0.5319477 -0.3194376 -0.784214 10251866 male
-0.7234545 0.2501237 1.60249 -0.8306728 0.2712281 0.4862287 11117217 male
-0.7275788 0.1597718 1.373316 -0.7940937 -0.08519244 -0.6017954 10986917 male
-0.6761141 -0.5651864 1.452854 -0.4869181 -0.293059 -0.8228168 10383980 male
-0.5509287 -0.09583229 1.635567 0.4888714 -0.2676163 0.8302929 9789531 male
-0.4422749 0.7806196 1.533376 0.2535959 0.9035968 0.3452562 10845041 male
-0.5308321 0.1207963 1.241195 -0.09385565 0.09168745 0.9913551 13009540 male
-0.4057938 0.9038 1.386081 -0.7233245 -0.01381067 -0.6903703 7757918 male
-0.6085532 0.4935275 1.801818 -0.4910842 0.4155121 0.7656281 10707799 male
-0.5217744 0.4271316 1.638645 0.1572813 0.00766564 0.9875242 13471874 male
-0.5008904 0.4883364 1.310588 0.1827202 -0.3274592 -0.9270297 11232607 male
-0.6748286 -0.02277046 1.370635 -0.7030678 -0.159332 -0.6930435 11120041 male
-0.6465834 0.474069 1.533543 -0.9818794 0.1843098 0.04408038 14392449 male
-0.6204729 0.1094242 1.504194 0.04691884 0.09444974 0.9944235 11643569 male
-0.6499213 -0.1956787 1.52921 -0.7313845 -0.07848708 -0.6774338 11171441 male
-0.2724385 0.9722987 1.39528 0.4873146 0.6965271 -0.5266637 7694696 male
-0.6087994 0.4398248 1.269431 -0.2604854 -0.07192616 0.962795 11297623 male
-0.4555629 0.5829256 1.293115 0.1263477 -0.8758765 -0.4657002 10183769 male
-0.5819671 0.5676121 1.754842 -0.6301563 0.573433 0.5235244 13337720 male
-0.6947705 -0.4916983 1.54803 -0.8340086 0.00433074 -0.5517347 11172214 male
-0.6142942 0.009246277 1.498269 -0.157387 -0.134822 -0.9782906 9142147 male
-0.6912484 -0.4864569 1.544831 -0.7522815 -0.01229118 -0.6587273 11106419 male
-0.6084613 0.272624 1.241725 -0.2444117 -0.26982 0.9313755 9262931 male
-0.635767 0.3260316 1.333791 -0.4239333 0.1289282 -0.8964699 12418923 male
-0.6245459 -0.246251 1.391988 0.201317 -0.1206802 -0.9720638 11371891 male
-0.7181298 -0.6879364 1.56763 -0.8254458 -0.1274133 0.5499139 7162445 male
-0.5722405 0.4426866 1.634586 -0.2636227 0.172338 0.9491064 11891307 male
-0.7312884 0.1498117 1.578544 -0.8838838 -0.4559321 0.1042857 12434617 male
-0.4620708 0.7805073 1.412081 -0.4075612 0.8809885 -0.2403189 12879746 male
-0.409387 0.9108396 1.389165 -0.7610695 0.03992679 -0.6474406 7562586 male
-0.6067484 0.4857971 1.606149 -0.7092546 0.1057268 0.6969792 12813944 male
-0.5418646 0.3934591 1.326396 0.1553339 -0.06053212 -0.9860058 12156767 male
-0.5109711 0.5319723 1.299224 0.1291703 -0.2686191 -0.9545465 11826266 male
-0.4459339 0.7542551 1.345367 0.3386467 0.7095509 -0.617945 11369842 male
-0.7435566 0.2418682 1.474698 -0.9722537 0.2162114 0.08930618 13025469 male
-0.5379637 -0.01931465 1.202672 -0.9717728 -0.2202397 -0.08457106 11447210 male
-0.6490366 -0.1544992 1.503569 -0.334618 0.08938489 0.9381052 9658209 male
-0.6401789 0.5005096 1.520753 -0.9799541 0.1873283 -0.06781107 14326912 male
-0.5131659 0.05274523 1.436 0.9620025 -0.1132658 0.2484396 13157824 male
-0.6559272 -0.2457236 1.625708 -0.5298673 0.2288921 0.8166083 9527639 male
-0.3698015 0.5725185 1.516114 0.9986535 0.007292293 -0.05136323 13601644 male
-0.702822 -0.2828053 1.443727 -0.9714434 0.2372682 -0.001303792 12487030 male
-0.6695215 -0.3605168 1.512538 -0.08911867 0.1287176 0.9876689 9725283 male
-0.4459138 0.7518131 1.609719 0.2464662 0.8943817 0.373277 11306375 male
-0.6366508 0.5333383 1.405999 -0.9631339 0.2271998 -0.1440609 14523010 male
-0.6294758 -0.2481188 1.499086 0.2595878 -0.1531587 0.9534972 10445414 male
-0.514378 -0.7012695 1.510763 0.1012745 0.06027186 -0.9930313 5591629 male
-0.4839746 0.5524905 1.638873 0.1984114 -0.03959099 0.979319 11300962 male
-0.695181 0.3365083 1.454719 -0.8208889 0.570908 -0.01433617 12822686 male
-0.5773934 0.5690483 1.226524 -0.6737016 0.3916562 -0.6266831 14592660 male
-0.2995887 0.8529261 1.509922 0.2214102 -0.04541086 0.9741229 12222582 male
-0.6979457 -0.5606075 1.572719 -0.8846875 -0.09309301 0.4567953 12291459 male
-0.6704088 0.1369351 1.327783 -0.4293255 -0.06564579 -0.9007611 11513770 male
-0.3648703 0.8450605 1.506004 -0.1974731 -0.02880723 0.979885 11695984 male
-0.2644366 0.7789423 1.422913 0.7209913 -0.3147455 -0.6173387 12021355 male
-0.5458103 0.5043616 1.798731 0.831844 0.2195892 0.5097221 9792094 male
-0.6442463 -0.2408257 1.630895 -0.3409568 0.1618486 0.926042 9593433 male
-0.3338058 0.831634 1.368664 -0.02526925 -0.2258715 -0.9738294 12946819 male
-0.5322617 -0.7027017 1.511526 0.01707191 -0.4413486 0.8971735 9527393 male
-0.6876229 -0.2862437 1.611773 -0.8387578 0.2782836 0.4680212 11171175 male
-0.4583515 0.1185955 1.893689 0.7706993 0.1549085 -0.6180828 12547965 male
-0.6912587 -0.2395718 1.428981 -0.9615875 0.1690601 -0.2162603 10251619 male
-0.5090505 0.1770998 1.423099 0.9006513 -0.1736011 -0.3983595 13552584 male
-0.7029946 0.308416 1.394663 -0.8028419 0.4789327 -0.3550613 11841449 male
-0.4018363 0.6759595 1.354776 0.9024293 0.2336919 -0.3619525 11169623 male
-0.6269344 0.5517358 1.503505 -0.9693868 0.2053776 -0.1345717 14195838 male
-0.5576269 0.2712786 1.664523 0.3462048 0.1985166 0.9169152 11907761 male
-0.5908564 0.1651083 1.317773 0.2572437 -0.07824315 -0.9631739 12170413 male
-0.6338855 0.4217214 1.611677 -0.6833689 0.3690703 0.6299161 13010547 male
-0.3139416 0.7695758 1.397201 -0.02201604 -0.662864 -0.7484161 12222579 male
-0.5677304 -0.6629415 1.507114 0.330198 0.6302957 0.7026356 10512746 male
-0.5389388 0.479867 1.639686 -0.1114691 -0.004077463 0.9937597 12554374 male
-0.4907084 0.3446793 1.619589 0.6432844 -0.1254144 0.7552859 13537148 male
-0.5187347 0.05290921 1.450266 0.9161837 -0.1371431 0.376563 12172211 male
-0.6232064 0.2269716 1.31423 -0.1767016 0.03076726 -0.9837836 12629682 male
-0.6034133 -0.352989 1.46081 0.9320918 -0.04780065 0.3590547 10975338 male
-0.6313203 0.4665961 1.2251 -0.9268052 0.3480687 -0.1409982 11695981 male
-0.6175224 0.2609236 1.179893 -0.6612797 -0.1633746 -0.7321324 12421755 male
-0.4530259 0.191135 1.865978 0.9036353 0.2372273 0.3566045 12613754 male
-0.7146171 -0.3387682 1.444265 -0.9908545 0.1168217 -0.06753039 13868683 male
-0.5919899 0.1253707 1.178475 -0.5604024 -0.002894668 -0.8282157 9332833 male
-0.6609599 -0.40466 1.399404 -0.05365385 -0.2197281 -0.9740847 12888721 male
-0.4572283 0.3852608 1.598018 0.6748198 -0.1991172 0.710613 13537915 male
-0.5964051 -0.1299947 1.498922 0.3478169 -0.02447328 0.9372432 9789279 male
-0.4561446 0.2407125 1.484619 0.8718577 -0.4856866 -0.06303173 13092547 male
-0.6024469 -0.1583173 1.511832 0.1974436 -0.08862486 -0.9763001 10315877 male
-0.4705218 0.3385746 1.597696 0.7170294 -0.1585487 0.678772 13471355 male
-0.682107 -0.5986053 1.465985 -0.7353253 -0.2335437 -0.6362031 12818063 male
-0.5143291 0.1179516 1.213073 0.7792365 0.3188866 -0.5395388 13533060 male
-0.6052849 0.3259044 1.323987 -0.1455042 -0.04023758 -0.9885392 14067593 male
-0.6042996 0.03286057 1.184678 -0.8562062 0.1128833 -0.5041514 9461334 male
-0.4822949 0.332682 1.609505 0.6895008 -0.1673585 0.7046843 13669499 male
-0.3624334 0.863905 1.358834 0.925194 -0.3579671 -0.1259999 11888233 male
-0.6547273 0.03899826 1.651373 -0.5906733 -0.1635251 0.7901676 9604236 male
-0.5463649 0.3581104 1.326328 0.2712917 -0.03674946 -0.9617955 12417387 male
-0.5891021 -0.3528126 1.607429 0.8963836 -0.1603301 0.4132686 10909548 male
-0.4996494 0.08763441 1.543037 0.9141346 -0.1749556 -0.3657168 13618633 male
-0.6173047 0.5856225 1.543329 -0.9589252 0.2293005 0.1669852 14129276 male
-0.5530977 0.7163466 1.489379 -0.7592933 0.5946554 -0.2643079 14325376 male
-0.7012456 -0.4738246 1.479555 -0.9533187 -0.09149169 0.2877723 12157556 male
-0.6213853 0.5273693 1.573229 -0.8966801 0.1822245 0.4034342 13668469 male
-0.5930511 0.6679093 1.375442 -0.8805274 0.4468631 -0.1580667 15378055 male
-0.6664732 -0.1307757 1.595673 -0.9581072 -0.09407401 0.2705197 13539979 male
-0.6067842 0.4784796 1.607119 -0.6891691 0.1225239 0.7141667 12813944 male
-0.6925076 0.06084611 1.477365 -0.7604926 -0.1357455 0.6349995 10853021 male
-0.6422819 0.3908086 1.347449 -0.6386698 0.2652186 -0.7223296 13272687 male
-0.6706184 -0.03602578 1.369573 -0.6507046 -0.177404 -0.7383166 11705486 male
-0.6856849 -0.6021535 1.471683 -0.8245284 -0.2212347 -0.5207766 11566191 male
-0.4197965 0.3373854 1.451879 0.9378217 -0.2783286 -0.2074216 13865840 male
-0.6605849 -0.07179087 1.622309 -0.7538522 -0.1364317 0.6427235 13014668 male
-0.3279209 0.9999087 1.402994 0.08229575 0.9046928 -0.4180411 9991027 male
-0.6717961 -0.4709554 1.509848 -0.2360885 -0.05392697 0.9702342 10253675 male
-0.5397544 0.0309375 1.477692 0.7346207 -0.1518354 0.6612704 11249059 male
-0.6556171 0.3160722 1.639921 -0.4953538 0.3884011 0.7770261 10262938 male
-0.6930752 -0.5238156 1.454171 -0.8525055 -0.2376404 -0.4655769 11699324 male
-0.5378911 0.1443785 1.196897 0.8733625 0.2697548 -0.4055498 12022633 male
-0.5904201 0.1494227 1.318974 0.2632839 -0.07120928 -0.9620869 11907757 male
-0.6386939 0.4962181 1.54741 -0.9553137 0.1973817 0.2200372 14195326 male
-0.6860871 -0.3984149 1.624228 -0.5985328 -0.1343549 0.7897515 11236981 male
-0.6095058 -0.3302455 1.406004 0.6908728 -0.07579902 -0.718992 9529437 male
-0.6768774 -0.5402707 1.534986 -0.2242361 -0.01812387 -0.9743664 11170672 male
-0.645917 -0.4799572 1.421022 0.2430034 -0.2682 -0.9322116 13020056 male
-0.6626982 0.3466677 1.359153 -0.7594857 0.1934078 -0.6211079 13800316 male
-0.634762 -0.5311188 1.544614 0.6296726 0.0005911126 -0.7768605 11828338 male
-0.4345647 0.2863448 1.522812 0.9081847 -0.3844058 0.1656286 14061945 male
-0.5813447 -0.6867085 1.446877 -0.07832537 0.4807466 -0.8733544 10058614 male
-0.3805886 0.5984704 1.582063 0.9618349 0.01083183 0.2734163 13535859 male
-0.5349439 -0.01970185 1.526818 0.6382341 -0.1611438 -0.7527882 9930625 male
-0.3631036 0.9572824 1.503005 -0.3027515 0.4243558 0.8533839 8086371 male
-0.5535992 0.7266395 1.547656 -0.7216393 0.6816542 0.1207658 14984833 male
-0.7086815 0.0927418 1.463657 -0.8286262 -0.2721404 0.4892018 11511717 male
-0.5469421 -0.7170007 1.479952 0.002626832 -0.9746702 0.2236315 10447470 male
-0.4650883 0.7670128 1.363502 -0.122857 0.8830655 -0.4528814 11633277 male
-0.5915969 0.5553093 1.756761 -0.7401123 0.5318016 0.4116077 12680049 male
-0.5345578 0.6077929 1.209944 -0.3601872 0.3129958 -0.8788054 11697000 male
-0.5622517 0.07464025 1.173997 0.05026949 -0.1303895 -0.9901878 12102814 male
-0.4571512 0.07353844 1.895302 -0.4319211 -0.2587762 -0.8639903 11629952 male
-0.5214313 -0.008610683 1.435369 0.9522842 -0.1490798 0.2663276 13091775 male
-0.6009778 0.1128543 1.318399 0.1698786 -0.08380008 -0.9818956 12894652 male
-0.5830135 0.6893939 1.542857 -0.8585896 0.5061315 0.08157796 15180677 male
-0.5006821 0.4329744 1.328614 0.3302368 -0.2383736 -0.9133028 12683374 male
-0.2613851 0.7713545 1.439769 0.7528932 -0.6579348 -0.01654857 13534852 male
-0.6420974 -0.1041391 1.631379 -0.5333409 -0.1642742 0.8297962 11894397 male
-0.5439536 0.2575416 1.870146 -0.8327861 -0.175978 0.5248802 11302520 male
-0.4259214 0.3150267 1.463504 0.9406356 -0.3268279 -0.0915882 13340787 male
-0.4254259 0.4353639 1.382176 0.7702224 -0.2636 -0.5807519 13339504 male
-0.6575229 -0.00619984 1.519713 -0.6397766 -0.1206208 -0.7590367 8616571 male
-0.6608118 0.1162482 1.665415 -0.4694022 -0.1172816 0.8751611 9868178 male
-0.5713477 0.2779719 1.177171 0.6212783 -0.006139643 -0.783566 9071191 male
-0.5441765 0.009675741 1.200023 -0.9033256 -0.1254371 0.4102057 11638416 male
-0.302286 0.7483569 1.462251 -0.01527261 -0.8650102 0.5015219 10580071 male
-0.7422637 0.2318769 1.410882 -0.928696 0.1967541 -0.3143431 11578792 male
-0.631754 0.3846608 1.182767 -0.4720255 0.1572364 -0.8674496 12087907 male
-0.48147 0.1855498 1.838646 -0.4517508 -0.7219038 -0.5241911 13008766 male
-0.5445374 0.3017623 1.337835 0.3899012 -0.2228824 -0.8934768 11694685 male
-0.5471472 0.3364251 1.865931 -0.1481117 0.1515758 0.977286 9658718 male
-0.6851267 0.3247448 1.378813 -0.764711 0.4366107 -0.4739077 12236207 male
-0.6248239 0.06244371 1.507416 -0.07684048 0.002358285 0.9970407 9670034 male
-0.5020497 0.517421 1.303421 0.1558952 -0.2572685 -0.9536822 12219232 male
-0.4489421 0.6841719 1.253218 0.384024 0.688521 -0.6151948 9593424 male
-0.699553 -0.3805276 1.545735 -0.8465891 0.02488525 -0.5316651 12224384 male
-0.2718485 0.9853598 1.426732 0.5347525 0.8398135 -0.0935584 7101786 male
-0.5449887 0.4422853 1.237309 0.8509544 -0.5248024 0.02143037 14195587 male
-0.6433431 -0.1661939 1.382011 -0.3347584 -0.1131062 -0.9354913 10448230 male
-0.5499778 -0.2450853 1.571962 0.8386077 -0.4612752 -0.2897629 10776176 male
-0.405196 0.3780052 1.471868 0.9796072 -0.1818175 -0.08551306 13536883 male
-0.6517859 0.0148481 1.342398 -0.4310053 -0.2218419 -0.8746547 11052453 male
-0.39918 0.9106672 1.379686 -0.6541494 0.01807787 -0.7561496 7759452 male
-0.5409745 0.7021573 1.629547 -0.7993314 0.4752631 0.367688 12683889 male
-0.5498722 0.5093942 1.304233 -0.1998242 -0.2625095 -0.9440123 11567207 male
-0.6430216 -0.188751 1.383287 -0.2891781 -0.0844033 -0.9535472 10382948 male
-0.6557279 -0.4576373 1.412476 0.03032132 -0.2701799 -0.9623324 14206887 male
-0.5332479 -0.1331261 1.550021 0.8547773 -0.1456931 -0.4981261 12222323 male
-0.5937552 0.1768551 1.217648 -0.4870687 -0.3092472 0.8167805 11565429 male
-0.4965942 0.07310458 1.553025 0.9338801 -0.133148 -0.3318733 13355976 male
-0.476676 0.7452574 1.625318 -0.1360432 0.8709133 0.4722313 12751232 male
-0.559842 0.3392135 1.195395 0.9808009 -0.01438317 -0.1944814 9394503 male
-0.3911703 0.7830462 1.387844 -0.08761637 -0.0948735 -0.9916262 13738383 male
-0.599067 -0.3293879 1.45551 0.940631 -0.1126923 0.3201779 11368555 male
-0.6961262 0.3079886 1.602146 -0.7541978 0.4812416 0.4467576 10853020 male
-0.4669117 -0.6954319 1.464556 0.08978602 0.9779424 -0.1885923 8610141 male
-0.5667093 0.4412457 1.757009 0.5935413 -0.2877356 -0.7516097 13998211 male
-0.5065624 0.6238275 1.641816 -0.08616105 -0.9101515 0.4052166 10837856 male
-0.5428792 0.4135871 1.845491 0.3307042 0.3116859 0.8907789 8937039 male
-0.4736309 -0.7007483 1.515841 0.242645 0.5283574 -0.8136105 5592916 male
-0.5877731 0.5536556 1.701841 -0.8664654 -0.1192954 -0.4847747 10051927 male
