# .PCD v0.7 - Point Cloud Data file format
VERSION 0.7
FIELDS x y z normal_x normal_y normal_z rgb label
SIZE 4 4 4 4 4 4 4 4
TYPE F F F F F F U U
COUNT 1 1 1 1 1 1 1 1
WIDTH 191
HEIGHT 1
VIEWPOINT 0 0 0 1 0 0 0
POINTS 191
DATA ascii
-0.6677307 -0.6829828 1.554675 -0.3061324 0.2310444 0.9235268 9001565 male
-0.4148379 0.2921363 1.354932 -0.4093589 0.4378374 0.8004524 12877417 male
-0.7155312 -0.2653112 1.630492 -0.9710912 0.2294665 0.06578189 12157551 male
-0.7298283 -0.3195552 1.482007 -0.9914942 0.1280538 -0.02327377 12092020 male
-0.20438 0.1493089 1.662561 0.2154215 -0.2760112 0.9367025 10512734 male
-0.6453142 -0.572733 1.531675 0.3329023 0.2724228 0.9027526 10774625 male
-0.6328628 -0.5722721 1.493386 0.8428248 -0.1209185 -0.5244286 9723475 male
-0.4580372 -0.707455 1.592704 0.3535188 -0.8079875 -0.4713605 8213840 male
-0.6715225 -0.1592131 1.421673 -0.1515171 -0.140956 -0.9783528 12289145 male
-0.8071544 0.2378888 1.561003 -0.9437776 0.2485694 -0.2179385 13093063 male
-0.7053465 0.3302017 1.464375 -0.4182865 0.8750584 -0.2435349 12827584 male
-0.6916571 -0.6119388 1.530062 -0.3919871 0.0523313 0.9184812 9922658 male
-0.5815892 -0.1541523 1.603904 0.8238835 -0.07425221 -0.5618745 11237229 male
-0.493086 -0.67791 1.581093 0.415794 0.6486778 -0.6374422 5524040 male
-0.7825481 0.2262819 1.212495 -0.69692 0.5737663 0.4302265 13599108 male
0.01952286 0.07005303 1.563353 0.7426946 0.1797613 -0.6450509 8154733 male
-0.5559455 0.4523194 1.862341 0.2717309 0.289566 0.9177767 10250589 male
-0.6094463 0.3774328 1.680766 -0.2307817 0.6135908 0.7551465 12420467 male
-0.4435372 0.2021565 1.410919 -0.2445796 -0.4361629 -0.8659925 11759702 male
-0.70855 -0.07986872 1.416062 -0.5121933 -0.2359051 -0.8258373 12424075 male
-0.277608 0.3278439 1.692483 0.4274863 0.8211297 0.3781555 13340277 male
-0.8035638 0.1644635 1.473154 -0.9411189 -0.3069556 0.1416822 11644593 male
-0.674769 -0.1326659 1.562905 -0.3340296 -0.05143948 -0.9411581 8870490 male
0.006462677 -0.01977074 1.606863 0.765915 -0.6366334 -0.08984542 8022370 male
-0.6380885 0.279199 1.186244 0.08278818 0.1833734 -0.9795511 8675925 male
-0.3534342 0.1520946 1.413028 -0.6955928 -0.3883508 -0.6044291 11365980 male
-0.5043993 0.4627416 1.836179 0.4290121 0.6388296 0.6386278 11101791 male
-0.7060395 -0.4309664 1.585911 -0.8259892 -0.1791266 -0.5344676 11368819 male
-0.6725633 0.03855041 1.540758 0.08481047 -0.1255487 -0.9884559 9800589 male
-0.7196774 -0.3504096 1.58881 -0.8604423 0.02557518 -0.5089058 11962245 male
-0.6626018 0.2452986 1.234281 -0.0677827 -0.6261594 0.7767432 11432287 male
-0.7590375 0.2838162 1.447888 -0.6635902 0.6635086 -0.3455496 13289410 male
-0.6611239 -0.2158793 1.42418 0.03072479 -0.06562622 -0.9973713 10644580 male
-0.7043616 0.07716107 1.546505 -0.284859 -0.005947645 0.958551 10261148 male
-0.5966919 0.2124957 1.682642 0.5281715 -0.3235453 0.785082 12235690 male
-0.7715766 0.4682378 1.835684 0.1105046 -0.8410328 -0.5295777 13207957 male
-0.1758551 0.2151326 1.551964 0.9115484 0.4109139 0.01514786 11565682 male
-0.009911599 0.1127156 1.566175 0.4782994 0.6391943 -0.602213 7497826 male
-0.6207902 0.2264557 1.707524 0.4542854 -0.07872946 0.8873706 11118245 male
-0.4640528 0.2617311 1.395171 -0.07239151 -0.1457435 -0.9866704 14064756 male
-0.3935207 0.2184111 1.398257 -0.1200983 -0.3126031 -0.942261 11825506 male
-0.1981106 0.1560184 1.460663 0.642979 -0.6083423 -0.4652932 9919826 male
-0.6328747 0.3686455 1.475926 -0.3731498 0.9119575 -0.1705662 12617580 male
-0.8731889 0.1778713 1.168825 0.2452164 -0.9550646 -0.1664951 14594733 male
-0.734026 -0.09904351 1.459501 -0.9491975 -0.2066658 -0.2373047 12486780 male
-0.2751063 0.3375852 1.662792 0.4855393 0.8593383 0.1605903 15182476 male
-0.6581659 -0.07082129 1.546709 -0.01054076 0.004345191 0.9999351 9591636 male
-0.7163819 -0.3027296 1.653228 -0.8542345 0.1062068 0.5089241 11566454 male
-0.7875709 0.227511 1.427673 -0.7967399 0.378466 -0.4711361 13814722 male
-0.637265 -0.3349836 1.43548 0.5899384 -0.002515494 -0.8074445 10255209 male
-0.718217 -0.2691179 1.504066 -0.9249233 0.1392828 0.3537196 9134427 male
-0.5442559 0.160652 1.491178 -0.09961984 -0.8903158 -0.4443126 13273192 male
-0.5129403 0.3687148 1.427179 0.1012139 0.6517681 -0.7516343 13997178 male
-0.6824204 -0.355623 1.540905 0.06474698 0.1256803 0.9899558 9791585 male
-0.5618033 -0.7070912 1.619101 -0.004798824 -0.9825096 -0.18615 6706776 male
-0.2879368 0.1958613 1.790932 0.4778297 -0.4972104 0.7241967 10515818 male
-0.3172764 0.3476603 1.53848 0.3875999 0.9123281 0.1319995 14456953 male
-0.340436 0.2843776 1.328152 0.5870427 0.6810842 -0.437613 11893099 male
-0.139904 -0.009979063 1.655366 -0.2343765 -0.757788 0.608954 14322816 male
-0.7109132 -0.4540254 1.610348 -0.9810252 -0.1789116 -0.07470191 12882818 male
-0.6863 0.1170594 1.360593 0.07182715 -0.0788528 -0.9942954 12105136 male
-0.1192286 0.1094789 1.665146 -0.1638528 0.4765684 0.8637332 11107187 male
-0.1977892 0.02740108 1.560907 -0.5334726 -0.2568268 -0.805883 12355962 male
-0.5293585 0.4062566 1.798465 -0.5061972 -0.7701467 -0.3881219 13077885 male
-0.7200377 -0.2867198 1.637923 -0.9592748 0.1830564 0.2151335 11368803 male
-0.09582978 0.03867821 1.533995 0.02454809 -0.04215981 -0.9988094 10909808 male
-0.4786074 -0.7095423 1.584104 0.08764429 -0.9873954 0.1317908 7231831 male
-0.7131159 -0.3239892 1.66389 -0.7184911 0.01474514 0.6953799 10776429 male
-0.8337085 0.4640143 1.820281 -0.5822349 0.5520869 -0.5968273 12416118 male
-0.6874859 -0.1655958 1.428836 -0.3885028 -0.1372962 -0.9111617 12619398 male
-0.5714783 0.1850033 1.426257 0.740758 -0.5022799 -0.446086 11514026 male
-0.3125888 0.3447338 1.544354 0.4068993 0.9042941 0.1291713 14260861 male
-0.204576 0.2145882 1.709258 0.803957 0.1494408 0.5756047 10712688 male
-0.2536888 0.3228166 1.66074 0.6081986 0.7808471 0.1427314 15313806 male
-0.7667832 0.2490186 1.670551 -0.5578647 0.378743 0.738472 10459030 male
-0.5935867 0.1290063 1.489534 0.9947361 0.004959229 0.1023513 13027523 male
-0.6609985 0.235171 1.719982 0.03596535 0.09330802 0.9949876 12763066 male
-0.158421 0.02606502 1.542701 -0.2662542 -0.2320583 -0.9355522 13865604 male
-0.5055946 -0.7051553 1.497388 0.3179119 0.1747236 -0.931882 8019025 male
-0.5972107 0.2294959 1.689582 0.454521 -0.2552347 0.8533851 11445670 male
-0.4856789 0.3737488 1.676231 -0.08281004 0.7793797 0.6210554 12945012 male
-0.6710494 -0.05317411 1.545731 -0.1076957 -0.04733527 0.9930566 7291715 male
-0.632055 0.2866067 1.376191 -0.04889364 0.3415895 -0.9385767 11512999 male
-0.6184745 -0.2933808 1.456167 0.8314198 -0.06825364 -0.5514371 9791320 male
-0.5895541 0.3232658 1.217825 -0.1066594 0.8822094 -0.4586179 12089710 male
-0.5862886 0.3147328 1.205597 -0.004505561 0.7017766 -0.7123829 13010555 male
-0.8553962 0.5275151 1.856117 -0.276882 0.2160826 -0.9362932 10909556 male
-0.6786795 -0.3784818 1.425122 -0.04332197 -0.1330087 -0.9901677 9200218 male
-0.8150092 0.2279118 1.182859 -0.3953737 0.325425 0.8589403 12425876 male
-0.6325542 -0.3603519 1.439496 0.6562507 -0.070423 -0.7512496 10518126 male
-0.4718051 0.3566726 1.69465 -0.1035969 0.6519874 0.7511193 12352621 male
-0.6315008 -0.1818599 1.541685 0.1957881 -0.121254 0.9731212 9196885 male
-0.5505538 0.1675616 1.56526 0.2925957 -0.9504519 0.1050191 9920589 male
-0.6624515 -0.2003516 1.565248 -0.1879232 -0.1790249 -0.9657304 10251621 male
-0.5272238 0.3172382 1.708374 -0.1210587 0.2181167 0.9683853 13013636 male
-0.6865382 -0.597922 1.486644 -0.4751492 -0.2655219 -0.8388871 12027773 male
-0.7619811 0.1928576 1.206475 0.5202978 -0.7925455 -0.3180598 13335165 male
-0.7666466 0.2829531 1.46827 -0.7316464 0.6518547 -0.199447 13355975 male
-0.8293888 0.2413168 1.162259 0.1393128 -0.8166311 0.5600944 10582645 male
-0.5365539 0.3723637 1.681093 0.07044934 0.6059715 0.7923608 12418669 male
-0.08447944 0.08557323 1.522258 -0.1254555 -0.3171301 -0.9400476 14391700 male
-0.6933147 -0.02679394 1.696921 -0.3979319 -0.203937 0.8944609 9200991 male
-0.7220122 0.3143739 1.447726 -0.4783899 0.8018185 -0.3580925 12894651 male
-0.6582028 -0.4562079 1.65778 0.07914404 -0.2322477 0.9694315 14205103 male
-0.5800331 0.1046204 1.64234 0.988237 0.0514451 0.1440186 14013645 male
-0.2011041 0.254839 1.66051 0.8461573 0.5031368 0.1757022 12682094 male
-0.6135976 0.3877367 1.539272 -0.1559451 0.9614932 -0.2263005 13538163 male
-0.7242436 -0.322204 1.510786 -0.8867059 0.1621683 0.4329602 10317419 male
-0.2998762 0.3397779 1.689826 0.3130649 0.8805661 0.3558001 13667965 male
-0.4640873 0.3907472 1.515808 0.0909394 0.9880901 0.124129 14458493 male
-0.7140202 -0.1243074 1.605439 -0.9252102 -0.2295726 -0.3021301 12091502 male
-0.6238021 0.2210927 1.70832 0.4557586 -0.1027399 0.8841543 11380906 male
-0.7440706 -0.04759228 1.495561 -0.9303297 -0.1509956 0.3341963 10776939 male
-0.4676637 0.3091309 1.396273 0.00548435 0.2551759 -0.9668792 13009515 male
-0.7141762 -0.06577025 1.416117 -0.5717151 -0.2181773 -0.7909113 11305334 male
-0.6969537 -0.5887807 1.491517 -0.7010149 -0.2531667 -0.666697 11372415 male
-0.7602211 0.168615 1.383331 -0.5008606 0.07637732 -0.8621516 11578799 male
-0.6909673 -0.1040165 1.567675 -0.4974079 -0.1023457 -0.8614587 11566455 male
-0.003634209 -0.02568971 1.587807 0.6766919 -0.6514463 -0.3430831 7234396 male
-0.7288637 -0.4105012 1.47362 -0.9470596 -0.1719793 -0.2711113 12683647 male
-0.5689163 -0.01989395 1.490648 0.9659581 -0.05723849 0.2522877 12497320 male
-0.7114006 0.3464334 1.59 -0.4190791 0.907941 -0.003975391 12104116 male
-0.7020925 -0.4861838 1.531076 -0.6144667 -0.09103835 0.7836727 9726818 male
-0.7576621 0.1922621 1.224587 0.7509525 -0.6497723 0.1177557 13533819 male
-0.5997914 0.1215225 1.512481 0.9595897 -0.1857957 0.2113472 12632511 male
-0.332078 0.3554753 1.670937 0.1652271 0.9508083 0.2620375 14129524 male
-0.6520843 -0.5763932 1.627137 0.005643752 -0.1814729 0.9833799 11701895 male
-0.6422967 -0.2928822 1.525165 0.4446894 -0.09944723 0.8901471 10512992 male
-0.7034288 -0.1996382 1.637652 -0.9784293 0.04233967 0.2021973 13407370 male
-0.6927162 -0.5146471 1.534285 -0.3684944 -0.03895962 0.9288133 10975606 male
-0.2151444 0.2748512 1.529865 0.7290895 0.6791849 0.0844779 13536883 male
-0.6230472 -0.5247499 1.624312 0.8445999 -0.08727658 0.5282367 11499381 male
-0.5794492 0.1791786 1.620039 -0.1347383 -0.8297015 0.541702 13010539 male
-0.5895998 -0.6479413 1.542094 0.4356078 0.8885335 0.1440631 8279125 male
-0.2841642 0.1195688 1.627123 0.06167354 -0.9613746 0.2682447 11890015 male
-0.5769458 0.01883062 1.610028 0.9289272 -0.03613023 -0.3684959 12433853 male
-0.0390911 0.1034738 1.681569 0.17947 0.4760956 0.8608855 7493717 male
-0.3645183 0.3669501 1.576234 0.3005815 0.9204372 -0.2498923 14393217 male
-0.7266393 0.08791308 1.371933 -0.3467638 -0.1664388 -0.9230672 10857125 male
-0.6845926 -0.701053 1.558023 -0.280007 0.139404 0.9498225 5323841 male
-0.1832021 0.1540179 1.510274 0.6826841 -0.5985534 -0.4191377 10906713 male
-0.5631621 0.4398398 1.866532 0.1775562 0.09212442 0.9797893 9263947 male
-0.3217976 0.1835189 1.317883 0.03833118 -0.5069838 -0.861103 12358009 male
-0.7593328 0.2324911 1.166463 0.2207829 -0.3156209 -0.9228427 11312527 male
-0.8460389 0.444632 1.810361 0.2309024 -0.04340709 -0.9720083 12549751 male
-0.6224994 -0.07147364 1.54203 0.3193209 0.01431965 0.9475385 11168616 male
-0.5973466 0.0945518 1.41367 0.8052557 0.005880052 -0.5928988 10527136 male
-0.26495 0.3142002 1.590883 0.5911592 0.7529567 -0.2891142 14589563 male
-0.4159626 0.1274892 1.599968 -0.1855109 -0.9739996 -0.1300398 12944743 male
-0.2038244 0.00543267 1.623459 -0.4246169 -0.7607591 0.4908627 12813686 male
-0.7255453 -0.1004043 1.629858 -0.9616255 -0.2679063 0.05918604 12750472 male
-0.4376352 0.4240451 1.795261 0.5857207 0.8069468 -0.07594818 12416363 male
-0.5767323 0.1740989 1.545257 0.01919757 -0.9980377 0.05960103 13340787 male
-0.4898218 0.150974 1.487482 -0.2539012 -0.9028684 -0.3469335 13205866 male
-0.7971308 0.1740774 1.530055 -0.5641685 -0.5620852 -0.6047929 11447214 male
-0.771926 0.1558138 1.688568 -0.6221146 0.02686597 0.7824652 9736084 male
-0.5892243 0.3018104 1.196058 0.0811192 0.4206454 -0.9035914 12353654 male
-0.8479365 0.1859618 1.170785 0.3242133 -0.9384554 0.1191104 11175808 male
-0.1636531 0.01007042 1.659904 -0.4104927 -0.4442001 0.7963557 14061444 male
-0.5946447 0.3897324 1.500926 -0.2889439 0.9554095 -0.0608629 14065275 male
-0.4655301 0.345007 1.264393 0.4352474 0.87211 -0.2235708 11696495 male
-0.3991571 0.3854415 1.807342 0.6314288 0.6169176 0.4697984 13536127 male
-0.463539 0.245158 1.722402 -0.3427652 -0.1457523 0.9280455 11758428 male
-0.6087389 0.4667384 1.791484 -0.2434994 0.1224908 -0.9621353 11105901 male
-0.2665998 0.3147651 1.545965 0.5597216 0.8108268 0.1710899 13669493 male
-0.7921274 0.1236912 1.437411 -0.9266936 -0.2968402 -0.2304889 13025987 male
-0.3848469 0.2059986 1.402664 -0.1618821 -0.344321 -0.9247906 11498336 male
-0.2993609 0.1186495 1.404477 -0.1708918 -0.9819854 -0.08062774 14062451 male
-0.7045833 -0.1974237 1.624564 -0.9899232 0.02256634 -0.1397964 13145221 male
-0.1227777 0.1553036 1.62064 0.2797533 0.8974968 0.3409365 13339512 male
-0.3697129 0.2314681 1.29566 0.1881727 -0.4255258 -0.8851662 9791316 male
-0.7155273 -0.2401636 1.500501 -0.9770833 -0.01176992 0.2125317 10843248 male
-0.6689263 -0.3539885 1.560612 0.0507387 0.07966165 -0.9955299 11501941 male
-0.7968214 0.1703465 1.424657 -0.898578 -0.0631227 -0.4342502 12893884 male
-0.6889145 -0.0480585 1.399582 -0.2566688 -0.2360522 -0.9372303 10449519 male
-0.001611697 0.09840722 1.56003 0.5216759 0.5000557 -0.6912298 7300197 male
-0.4294659 0.1269139 1.637266 -0.1931193 -0.9789761 0.06565598 13667951 male
-0.3970238 0.2491651 1.390816 -0.1260424 -0.1093177 -0.9859834 11106401 male
-0.7179667 -0.2333336 1.465781 -0.9719332 0.03630367 -0.2324395 12882058 male
-0.6535027 -0.3842988 1.428896 0.3649812 -0.1467805 -0.9193717 12624014 male
-0.575127 -0.0775754 1.644934 0.978051 -0.09376264 0.1860781 11696749 male
-0.6330416 0.3129112 1.238539 -0.4529388 0.8242708 0.3397411 9144933 male
-0.5779119 0.09596359 1.627238 0.9995754 0.01110882 -0.02694315 13552582 male
-0.4003837 0.1244739 1.643653 -0.04139904 -0.9865728 0.1579879 13339498 male
-0.5424761 0.2571549 1.255467 -0.0008654103 -0.901405 0.432976 12417641 male
-0.1518138 0.1193573 1.54512 0.1815918 0.2800989 -0.9426395 12748668 male
-0.604978 -0.2778391 1.477427 0.944927 -0.2589646 -0.2001265 9855836 male
-0.4340748 0.3891652 1.635466 0.1293493 0.9643699 0.2307803 14062203 male
-0.5044505 -0.6820666 1.58234 0.3170568 0.544943 -0.7762167 11097174 male
-0.5783542 0.4155119 1.809952 -0.3307191 -0.8085589 -0.4866801 13011571 male
-0.6533954 -0.1793934 1.68398 -0.05139486 -0.07588069 0.9957916 10711413 male
