# .PCD v0.7 - Point Cloud Data file format
VERSION 0.7
FIELDS x y z normal_x normal_y normal_z rgb label
SIZE 4 4 4 4 4 4 4 4
TYPE F F F F F F U U
COUNT 1 1 1 1 1 1 1 1
WIDTH 194
HEIGHT 1
VIEWPOINT 0 0 0 1 0 0 0
POINTS 194
DATA ascii
0.3290727 -0.6419677 1.288743 0.4335546 0.2457114 0.8669813 9659490 male
-0.01848778 0.5653277 1.252982 -0.2202473 -0.2086301 0.9528719 11890272 male
0.02420903 -0.2001051 1.575767 -0.1168354 0.1579388 0.9805126 9264724 male
0.1712227 -0.4070041 1.280761 -0.9396666 -0.2756503 0.2025924 12947587 male
0.158159 0.8312317 1.415233 -0.007519816 -0.003894487 0.9999642 11498347 male
0.2649318 -0.4541383 1.3083 0.6606971 -0.02200928 0.7503301 10251619 male
0.3024302 -0.6126409 1.293418 0.2447302 0.2538685 0.9357661 10247514 male
0.4026965 -0.6545126 1.254663 0.2848096 0.812238 0.5090708 10052196 male
0.2099499 -0.1422887 1.219268 0.1645227 -0.03561483 -0.9857303 10912364 male
0.006770295 0.3662891 1.4241 -0.9917631 0.04345398 0.1204908 14063221 male
-0.008885761 0.1302687 1.259434 -0.6722421 -0.02020229 -0.7400558 10592670 male
0.2605474 -0.499729 1.224348 0.1920849 -0.1088698 -0.9753209 10649964 male
0.1115423 -0.1786261 1.537366 0.78933 -0.3984775 0.467091 11038824 male
0.1251245 0.7630218 1.456785 0.09817516 0.9188248 0.38226 10845041 male
-0.07682323 0.1061562 1.181401 0.08358742 0.1262651 0.9884688 13010307 male
0.1130658 0.9855396 1.295779 -0.4804659 0.5893398 -0.6494853 8943479 male
0.1369341 0.4574128 1.678234 0.07111941 0.3717771 0.9255939 10840672 male
0.1564305 0.3200481 1.54969 0.4482982 0.006620359 0.8938597 12878963 male
0.1422755 0.5373614 1.217451 0.2083788 -0.1996608 -0.9574518 11694947 male
0.1150676 -0.02521538 1.21618 -0.3287435 -0.1887784 -0.9253597 11185063 male
0.00826117 0.3523673 1.460344 -0.9873539 0.03708334 0.154134 14392449 male
0.07084185 0.06129836 1.400097 -0.03949189 -0.2202286 0.9746487 9210515 male
0.01615298 -0.1116842 1.562832 -0.5173081 0.06265573 0.8535027 11632255 male
0.2236704 0.9958459 1.30852 0.4688246 0.7922205 -0.3906281 9269604 male
-0.1214122 0.2075508 1.145792 -0.4494696 0.07176565 -0.8904084 11701888 male
0.09121542 0.502802 1.217623 0.01585644 -0.1516439 -0.9883081 11892067 male
0.1485113 0.4530356 1.678597 0.3109926 0.4142796 0.8553691 10906463 male
-0.1821336 -0.4029237 1.570654 -0.9000624 0.4356062 -0.01162124 11831675 male
0.0194308 0.08341206 1.410896 -0.324231 -0.3532688 -0.8775396 9737108 male
-0.1251621 -0.3041204 1.566265 -0.7836968 0.6082967 0.1256764 12883336 male
-0.1182814 0.3120968 1.231382 -0.4801566 -0.1228379 0.8685395 7820114 male
0.2012784 0.6887801 1.392236 0.8817458 0.4568222 -0.1176355 12021343 male
0.2448162 -0.2198278 1.225215 0.2646987 0.06676476 -0.9620173 9330516 male
-0.3185943 -0.594799 1.601976 -0.9539814 0.2983049 0.030559 8279381 male
0.121606 0.4741394 1.550763 0.05612676 -0.1264482 0.9903842 11630705 male
-0.03722713 0.1430435 1.467155 -0.9792027 -0.1584451 0.1267177 13355206 male
0.05489871 0.7476445 1.355147 -0.6732744 0.721679 0.1608763 11040364 male
0.1239278 0.9909878 1.29309 -0.3445675 0.6543006 -0.6731745 8811629 male
0.119172 0.4345984 1.54849 0.004726609 -0.08513748 0.9963581 10579290 male
0.03547205 0.3869494 1.248822 -0.5096524 0.02179765 -0.8601044 13009515 male
0.06207928 0.5159079 1.218688 -0.06840658 -0.1791705 -0.981437 11826266 male
0.1036416 0.7259026 1.269084 0.4091248 0.4870925 -0.7715945 12353646 male
-0.05475472 0.160191 1.346075 -0.9988535 -0.0186021 -0.04411143 13552582 male
-0.09869626 0.0172461 1.129694 0.5424574 0.05697051 -0.8381495 9197392 male
0.152494 -0.1851734 1.324784 -0.7508657 -0.3361962 0.5684831 12025464 male
0.008774879 0.3610459 1.457632 -0.989607 0.01753219 0.1427265 14326912 male
0.2276509 0.03831771 1.306799 0.9566628 0.207531 0.204273 13289926 male
0.0112667 -0.206517 1.571521 -0.2829571 0.2682865 0.9208463 10711920 male
0.2313074 0.4468117 1.328346 0.9169537 0.190841 -0.350394 14061427 male
0.1969013 -0.3414406 1.213437 -0.3665357 0.02065437 -0.9301748 9727587 male
0.1856693 -0.3723897 1.316525 -0.6428303 -0.08893269 0.7608288 11368819 male
0.1540713 0.7255634 1.533105 0.1495086 0.883871 0.4431922 11502985 male
-0.01006185 0.4069272 1.38413 -0.8999125 -0.07886852 0.4288792 14589060 male
0.2323187 -0.3139076 1.320332 0.4222864 0.03864923 0.9056382 10775910 male
-0.1487276 -0.7056971 1.539298 -0.08016174 -0.03028506 -0.9963219 5591629 male
0.09819122 0.5246591 1.555975 -0.1886397 -0.1884544 0.9637947 11894123 male
-0.01604533 0.2478004 1.281659 -0.8187692 0.2429845 -0.5201689 10591896 male
-0.07381827 0.5262021 1.229734 -0.9035839 0.3385688 0.2625027 13207414 male
0.1904401 0.9027102 1.422817 0.2892516 -0.2779074 0.9160247 8671562 male
-0.2183352 -0.5451896 1.615298 0.2031241 0.006217501 0.9791333 11770762 male
0.04472155 0.05625795 1.228026 -0.5178722 -0.2027585 -0.8310823 11184291 male
0.1450161 0.7754866 1.427097 0.1893557 0.4551747 0.8700348 10974568 male
0.2692489 0.8476436 1.311403 0.6128765 -0.5229521 -0.5923713 12616317 male
0.1670759 0.4846765 1.587 0.5607399 -0.3615957 -0.744862 13867897 male
-0.0001242838 -0.2024517 1.564159 -0.4487629 0.3555181 0.8198896 10974320 male
0.150522 0.8636761 1.274893 -0.2231701 -0.1375316 -0.9650287 13866889 male
0.4540684 -0.6936465 1.224305 0.2560724 -0.9623566 -0.09108703 7296853 male
-0.05848337 -0.2473251 1.568425 -0.5119147 0.7230361 0.4638558 11236969 male
0.2703561 0.1704397 1.686208 -0.1770106 -0.1866632 0.9663458 10052197 male
0.1590991 -0.2349315 1.251911 -0.8785481 -0.1193616 -0.4624998 12750214 male
0.1886478 0.146327 1.323575 0.9055548 0.160485 -0.3927025 12764350 male
-0.03184558 0.2305044 1.302264 -0.8901414 0.2489316 -0.3816825 11316650 male
0.1395959 0.6555645 1.242063 0.7574942 0.3975994 -0.5178007 11892320 male
0.006898278 0.3794261 1.449687 -0.9954235 -0.03706432 0.08808315 14523771 male
0.2205542 0.1990878 1.454603 0.936643 -0.1806289 0.3001223 12829630 male
0.08190008 0.1384408 1.214747 -0.01711859 0.06246209 -0.9979007 13551558 male
0.05807092 0.4178247 1.528121 -0.5479136 -0.05325752 0.834838 12813431 male
0.1863715 0.8049766 1.287971 -0.1758608 -0.6007068 -0.7798875 12814200 male
0.409266 -0.6768168 1.172698 -0.1954983 0.8646689 -0.4627399 11045249 male
0.1254411 0.3499408 1.556059 0.167167 0.1899671 0.9674544 12618878 male
0.2040289 0.3837834 1.508592 0.7340131 -0.01752577 0.6789093 13206897 male
0.1838829 0.02161265 1.372923 0.5468 -0.0649776 0.8347383 10920862 male
0.0617136 0.1908214 1.219888 -0.2035489 0.0791147 -0.9758632 13156285 male
0.2639273 -0.3514206 1.294335 0.856826 0.1419131 0.4956914 11237231 male
-0.1365131 0.3268558 1.207258 -0.9559643 0.03955046 0.290806 12419699 male
-0.140223 0.2697619 1.174346 -0.9692273 0.02098092 -0.245272 13406338 male
0.3140574 0.1754922 1.665739 0.7393171 0.479322 0.472928 9594218 male
0.2189672 -0.4225947 1.213941 -0.2067375 -0.1682177 -0.9638271 11770754 male
-0.1283479 0.0373711 1.159837 0.2069717 -0.3845579 0.8995989 12161931 male
0.1595927 -0.3307656 1.262459 -0.9988181 -0.02569207 -0.04126137 11762799 male
0.2194766 0.3043672 1.484296 0.8308313 -0.04434232 0.5547552 13604219 male
0.2201472 -0.1104851 1.343248 0.4888735 0.003076494 0.8723494 10709606 male
0.2312917 0.2309269 1.358197 0.9079102 -0.3204419 -0.270215 13025465 male
0.05265417 -0.2158547 1.459447 0.1998113 -0.3787364 -0.9036784 9266267 male
0.2223909 0.2454018 1.467359 0.8542061 -0.2218197 0.4702428 11898495 male
0.2797815 -0.4162345 1.276544 0.956256 0.1077279 0.2719728 10318443 male
-0.1191113 0.03191044 1.135164 -0.349713 -0.3015625 -0.8869956 8811373 male
0.09252412 0.3181146 1.230002 0.07821073 -0.0128261 -0.9968544 12482916 male
-0.1699317 -0.00507099 1.166614 -0.9684013 0.1318986 -0.2116648 10515828 male
0.1953828 0.4084292 1.518001 0.6607167 -0.01056905 0.7505612 12877937 male
0.1160196 0.8754551 1.270187 0.05339921 -0.1281961 -0.9903103 14391700 male
0.01632463 0.0338769 1.543628 -0.8207768 -0.0006325046 0.5712489 12170169 male
0.0944822 0.3269197 1.230727 0.09897057 0.05260221 -0.9936992 12155231 male
-0.03785892 -0.3697101 1.592548 0.6609212 -0.422818 0.6200066 8871509 male
0.1968388 0.002371482 1.512533 0.9423618 -0.2513466 0.2208602 12828859 male
0.004734943 0.4519758 1.455563 -0.9858519 -0.08078454 0.1468676 14261119 male
0.05006997 0.7058708 1.474642 -0.7724178 0.5677025 0.2847542 14523774 male
0.1952206 -0.4612219 1.244942 -0.8323638 -0.3457079 -0.4331938 12423046 male
0.01567832 0.3759675 1.483109 -0.9333256 -0.002333587 0.3590238 13143149 male
-0.02140297 0.6426401 1.339767 -0.9183537 0.3268761 0.2231115 15180679 male
-0.07422729 -0.286975 1.504898 -0.4843477 0.3493562 -0.8020959 10907244 male
0.1174928 0.4414331 1.548873 -0.006684172 -0.0849414 0.9963637 11432805 male
0.08675747 -0.06599407 1.34541 -0.6758379 -0.4354658 0.5946534 9202531 male
0.04171961 0.3358673 1.23817 -0.3691973 0.1187147 -0.9217377 13143926 male
0.09946503 -0.03213332 1.224283 -0.4833924 -0.2495518 -0.8390803 11382184 male
0.2833198 -0.3992267 1.260886 0.9887086 0.1172948 0.09325957 11831419 male
0.2297897 0.3273154 1.31006 0.8141447 -0.02042601 -0.580303 13536365 male
-0.01550928 -0.2253254 1.470443 -0.6714705 0.03420479 -0.7402415 9068125 male
0.1637951 0.9991991 1.291358 -0.04585108 0.7611576 -0.6469443 7628123 male
0.2052619 -0.4972888 1.276991 -0.9140438 -0.3468301 0.2103165 12947075 male
0.2321463 0.0203486 1.305805 0.9531473 0.1917523 0.2339695 13552582 male
0.1940028 0.1564589 1.535966 0.8364779 0.02430571 0.5474617 10986910 male
0.2178339 -0.4849542 1.230861 -0.5402424 -0.2958428 -0.7877915 8804434 male
-0.06020337 0.10899 1.153314 0.6892472 0.5564267 -0.4640343 13138806 male
0.0985106 0.1265777 1.215195 0.1082252 0.09993821 -0.9890904 12170929 male
0.00769252 0.3362366 1.46553 -0.9803996 0.07882445 0.1805646 13867131 male
-0.1487609 -0.3954269 1.615466 -0.3987998 0.213941 0.8917332 10974579 male
0.2753496 -0.3575295 1.26859 0.9731942 0.133567 0.1872246 11041131 male
-0.244883 -0.5392936 1.568954 -0.5014774 0.1875917 -0.8445887 11103591 male
0.2211782 -0.5430743 1.267031 -0.9288173 -0.3639027 -0.06981051 9728355 male
-0.0009414586 0.3825628 1.399527 -0.9022915 -0.02464479 0.4304218 14063227 male
-0.1234222 -0.4480831 1.542385 0.4241391 -0.5458208 -0.7226243 10844523 male
0.2517636 0.3364264 1.368661 0.9799643 -0.08219283 -0.1814241 14062197 male
0.3430719 -0.6777529 1.212659 -0.4183687 0.4034531 -0.8137528 11637384 male
0.23419 0.6177922 1.470327 0.9639539 0.2660009 0.006048262 13338735 male
0.1723365 -0.06655939 1.497616 0.9004019 -0.4100479 -0.1453874 13948364 male
0.1266545 0.9324701 1.426732 -0.2422076 0.1022715 0.9648193 7493717 male
0.006863046 0.5584483 1.466504 -0.9647208 -0.03188304 0.261338 14786436 male
-0.01495314 0.07116754 1.286235 -0.7800032 -0.4368758 -0.4480342 12171691 male
0.3457015 -0.7034366 1.277574 0.4994966 -0.6919668 0.5212342 9591137 male
0.06156223 0.7496551 1.28895 -0.3750682 0.8498796 -0.3701738 10845563 male
0.1665268 0.4048859 1.693209 0.4011945 0.3413167 0.8500271 9856092 male
-0.01104291 0.5934218 1.152385 -0.4340015 0.1487345 -0.88855 12359548 male
-0.09222215 0.1102882 1.133523 0.2405457 0.1068038 -0.964744 9919058 male
0.2638035 0.1523293 1.653873 -0.771301 -0.293327 -0.5648488 12485244 male
0.2454114 -0.01643596 1.278793 0.9766045 0.2007237 -0.07716209 11375236 male
0.1055511 0.09894411 1.210955 0.07395285 0.0929353 -0.9929221 12894652 male
0.07650436 0.6977167 1.530794 -0.6106573 0.5643616 0.5555122 13998466 male
0.187705 0.3833209 1.269603 0.543366 -0.06975216 -0.8365933 13338480 male
0.2633203 0.8046988 1.331433 0.9967123 -0.03863179 0.07122153 12484215 male
-0.03613931 -0.2355857 1.499552 -0.8408076 0.3714292 -0.3938061 12222328 male
0.2907294 0.2130907 1.651195 0.7398007 0.5868735 -0.329051 11758699 male
0.2472667 0.3265186 1.354725 0.964298 -0.1052441 -0.243009 13011051 male
0.2278897 0.4685115 1.331506 0.943397 0.1470788 -0.2972709 13733230 male
0.01847324 -0.009721821 1.435561 -0.7446405 -0.04933939 -0.6656398 9932683 male
0.03846675 0.04230313 1.564368 -0.6004151 -0.02025927 0.7994319 10262168 male
-0.1111328 0.252869 1.14502 -0.1893201 0.03765726 -0.9811932 16767942 male
-0.1074471 -0.03715036 1.145087 -0.9239907 -0.06623508 0.3766357 11579056 male
0.240179 0.7950752 1.368374 0.465023 -0.6310436 0.6209168 10974053 male
-0.051185 0.190876 1.367976 -0.9855957 0.1526086 0.07288343 13420486 male
-0.07015423 0.2570546 1.170922 0.9615823 -0.1493105 -0.2303609 12481895 male
0.3645875 0.09334898 1.629696 -0.6983197 -0.5915395 -0.4030271 13926536 male
0.1531416 0.2991064 1.253219 0.4935621 -0.0967138 -0.8643166 13011563 male
0.1766895 0.3126501 1.699614 -0.1711032 -0.1258003 0.9771889 11893099 male
-0.006709861 0.3040404 1.401392 -0.9353286 0.3006124 0.1865281 13077619 male
0.1204973 0.009066004 1.388749 0.02636125 -0.1828414 0.9827892 9538188 male
0.07679626 0.5037828 1.218307 -0.0397174 -0.1611651 -0.986128 12219232 male
0.02246365 0.6772854 1.195897 -0.5130395 0.7190005 -0.4688591 10779756 male
-0.06980215 -0.2492271 1.540887 -0.6844296 0.7247023 -0.07976729 12026740 male
0.1867718 1.016505 1.336443 0.2139651 0.9746487 -0.06541333 7496026 male
-0.02890188 0.5083916 1.164542 0.01049573 -0.07538592 -0.9970993 9001287 male
0.1451893 -0.190805 1.25864 -0.8486186 -0.281555 -0.4478544 12488324 male
0.0542768 -0.2970972 1.517506 0.5251321 -0.8000598 -0.2900702 10776176 male
0.2531005 0.3891449 1.370796 0.9797443 0.07507221 -0.185649 13800567 male
0.1083312 -0.1298686 1.271411 -0.8631608 -0.4358855 -0.2548673 12422271 male
0.1048838 0.9879839 1.304085 -0.5696896 0.6118048 -0.5487703 8418159 male
0.0977383 0.6786816 1.568058 -0.5405651 0.5010947 0.6757911 13142134 male
0.03624787 0.4831626 1.228707 -0.3554062 -0.2712168 -0.8944988 11567207 male
0.1590474 -0.250934 1.262313 -0.9777662 -0.1194075 -0.1723809 11238000 male
0.1608099 -0.3575858 1.27766 -0.9779791 -0.0911551 0.1877444 12948099 male
0.07835321 -0.1983878 1.462406 0.3864467 -0.377328 -0.8415954 9856352 male
-0.1186954 0.214852 1.204844 -0.2960129 -0.3024385 0.9060395 10782075 male
0.1868469 -0.01819283 1.528905 0.8808987 -0.2526987 0.4002014 10462366 male
0.09320813 0.6970257 1.547469 -0.5021336 0.6111311 0.6118665 13208439 male
-0.06495606 0.3545003 1.161495 0.7994875 -0.03282242 -0.5997856 9392965 male
0.1286918 0.7624642 1.302348 -0.1808326 0.0267187 -0.9831511 12420722 male
0.2572957 -0.314003 1.298103 0.7991202 0.0432964 0.5996104 10316379 male
0.02076753 0.1330889 1.553357 -0.5434569 -0.001754904 0.8394354 10656669 male
0.4674036 -0.6717559 1.196593 -0.5387513 0.1654011 -0.8260689 9004127 male
0.1353623 0.4127969 1.610373 0.2706566 -0.2888094 -0.9183323 13537408 male
0.1110007 0.4878356 1.582813 -0.3092416 -0.4228245 -0.8518153 12088172 male
0.1114208 0.3795002 1.68821 -0.5282838 -0.1251087 0.8398001 10577756 male
-0.1085168 -0.7272246 1.537457 0.2728494 0.5276049 -0.8044791 5922138 male
0.09023625 0.3918295 1.63949 -0.8992105 -0.2901902 -0.3274299 9854292 male
