# .PCD v0.7 - Point Cloud Data file format
VERSION 0.7
FIELDS x y z normal_x normal_y normal_z rgb label
SIZE 4 4 4 4 4 4 4 4
TYPE F F F F F F U U
COUNT 1 1 1 1 1 1 1 1
WIDTH 194
HEIGHT 1
VIEWPOINT 0 0 0 1 0 0 0
POINTS 194
DATA ascii
-0.6591979 -0.6543403 1.523236 -0.1540989 0.1532137 0.9761041 10843500 male
-0.5024939 0.5584839 1.293792 -0.7276687 -0.1902777 0.659009 12350313 male
-0.692154 -0.2393491 1.608425 -0.8839905 0.2412643 0.4004405 11236456 male
-0.7313603 -0.3840397 1.455106 -0.991606 -0.09945221 -0.08262575 12881794 male
-0.3078536 0.6866711 1.520164 0.4173488 0.2321038 0.8786058 11039078 male
-0.5732622 -0.1353198 1.465162 0.9457736 -0.08093458 0.3145823 12286833 male
-0.6382288 -0.5800536 1.505127 0.4087068 0.3518673 0.8421094 10774369 male
-0.4884492 -0.7045596 1.512293 0.1506285 -0.9261346 0.3458117 7034967 male
-0.7136102 -0.2254135 1.439069 -0.9837853 0.09626892 -0.151324 11697009 male
-0.7622076 0.2781604 1.557938 -0.8967663 0.4356173 0.07776892 13090496 male
-0.7850619 0.1798039 1.455871 -0.9821808 -0.1580892 0.1016314 12829379 male
-0.7053281 -0.5409478 1.47426 -0.9576762 -0.1981017 -0.2088357 9992044 male
-0.5994868 -0.1833607 1.534114 0.4436978 -0.1712256 -0.8796672 8740179 male
-0.3845366 0.7250748 1.523708 -0.08368368 0.9942067 0.06745364 11895411 male
-0.6490364 0.08623017 1.202467 -0.4302556 -0.5923246 0.6811989 13007740 male
-0.2594089 0.8241066 1.381739 -0.6419235 0.2383105 -0.7287952 7233879 male
-0.620688 0.506734 1.784518 -0.8856086 0.4632545 -0.03306186 11499880 male
-0.5257047 0.4861844 1.645797 -0.1993552 0.07269382 0.9772274 11894139 male
-0.4655212 0.4379168 1.327695 0.1868486 -0.4674608 -0.8640418 11759702 male
-0.6689269 -0.002884958 1.352854 -0.2887508 -0.2273912 -0.9300089 11185063 male
-0.6163042 0.5076264 1.518227 -0.8792197 0.4515444 -0.1519226 14392193 male
-0.7083045 0.1005722 1.505944 -0.4354131 -0.1642029 0.8851289 9275021 male
-0.6962176 -0.06801145 1.619857 -0.8523668 -0.1668601 0.4956095 12355711 male
-0.1177332 0.8383532 1.393091 0.6793698 0.4910493 -0.5452773 7694696 male
-0.6664991 0.2317867 1.150316 -0.2193073 0.09271774 -0.9712404 7820622 male
-0.3859897 0.507741 1.310894 0.3254613 -0.7660217 -0.5543337 11957860 male
-0.5830362 0.5292448 1.795799 -0.3145744 0.6829822 0.6592256 11298652 male
-0.6883531 -0.5730767 1.537256 -0.4157932 0.0220022 -0.9091931 10314588 male
-0.6454489 0.01663731 1.507076 -0.1358229 -0.130247 -0.9821344 9142147 male
-0.7003084 -0.4444536 1.543704 -0.7693338 -0.1062139 -0.6299558 10383980 male
-0.6651166 0.3408527 1.223048 -0.8212098 0.131146 0.5553518 7820114 male
-0.7195885 0.2279322 1.353929 -0.5326899 0.1289825 -0.8364242 10922910 male
-0.5884877 -0.1966289 1.417229 0.692531 -0.1199819 -0.7113405 9330010 male
-0.6209238 -0.6915099 1.592907 -0.2827537 0.145131 0.9481496 5456194 male
-0.6147186 0.4502667 1.619248 -0.4982952 0.5014718 0.7072681 12484204 male
-0.6836725 0.1259489 1.958433 0.6110204 -0.131355 0.7806408 10383980 male
-0.3678154 0.7201605 1.426951 -0.1706296 0.9682855 -0.1825069 12288898 male
-0.188481 0.8567359 1.365529 0.03698284 0.5129426 -0.857626 9404022 male
-0.5985648 0.3667093 1.663272 -0.05523363 0.09289492 0.9941429 13147273 male
-0.5780896 0.4260761 1.336141 -0.3529333 0.000523963 -0.9356484 12943723 male
-0.4705241 0.4885056 1.308794 0.09687142 -0.3218235 -0.9418311 11825506 male
-0.3921463 0.6734352 1.308013 0.1363966 0.7766432 -0.6149971 11965829 male
-0.7386263 0.2773497 1.386101 -0.7220375 0.3472301 -0.5984089 10658722 male
-0.7006353 -0.02863435 1.168186 -0.1257894 -0.166617 0.9779652 12353656 male
-0.7046136 -0.1465828 1.485645 -0.8793256 -0.004490531 0.4762002 12025464 male
-0.5585335 0.5981147 1.547675 -0.8508973 0.510433 0.1242266 14325879 male
-0.5915529 0.02023855 1.502466 0.5428525 -0.1334574 0.8291566 10723232 male
-0.6803845 -0.2738992 1.633842 -0.4594487 0.1564582 0.8743157 10119526 male
-0.3157872 0.5905755 1.543165 0.9613469 -0.167062 0.2188674 12419182 male
-0.7159825 -0.2892322 1.419757 -0.8429911 0.1494974 -0.5167366 11763569 male
-0.729562 -0.3460827 1.478289 -0.9494628 0.07581545 0.304586 11764857 male
-0.3274659 0.610296 1.58744 0.985774 -0.05353155 0.1593242 12616557 male
-0.5836613 0.5447025 1.374429 -0.8205456 0.4347449 -0.3710823 13209707 male
-0.6350964 -0.2484731 1.49788 0.4892517 -0.171531 0.8551083 9789024 male
-0.501879 -0.7068776 1.531723 0.08839651 -0.9870061 -0.1341823 6313815 male
-0.411972 0.4341621 1.607158 0.4929165 -0.493656 0.7164757 12679786 male
-0.669993 0.4143254 1.486743 -0.8415315 0.535993 0.0673539 13077364 male
-0.5561674 0.5284322 1.232173 -0.6498951 0.6542094 -0.3868417 12222323 male
-0.1803759 0.7548978 1.511878 0.1788334 -0.01474218 0.9837691 11368560 male
-0.707051 -0.4886492 1.578046 -0.9805874 -0.1110884 0.1615795 12817031 male
-0.6840779 0.2231016 1.333549 -0.364053 0.04984333 -0.9300438 12301742 male
-0.2513579 0.7518545 1.506494 -0.2481118 0.1094792 0.9625254 11565170 male
-0.1423936 0.6695622 1.435429 -0.1563981 -0.7972254 -0.5830706 13009531 male
-0.5291229 0.5086798 1.708819 -0.1238892 -0.6247333 -0.7709474 12484467 male
-0.6978287 -0.2605463 1.610914 -0.8651757 0.2707717 0.4220827 11170920 male
-0.2028456 0.7208184 1.369871 -0.05606151 -0.2707575 -0.9610139 13340288 male
-0.5377836 -0.6956375 1.523137 -0.03416811 -0.4360915 0.8992535 9527393 male
-0.6909748 -0.2907722 1.631657 -0.5819495 0.1536236 0.798583 10710630 male
-0.6531636 0.1706295 1.913844 -0.5881605 -0.2576855 -0.7665936 13074564 male
-0.586524 -0.1045792 1.390699 0.6477594 -0.2918518 -0.7037262 10053207 male
-0.5621479 0.194751 1.389352 0.8890335 -0.1111702 -0.4441406 11381930 male
-0.6886031 0.383946 1.477351 -0.8115618 0.5821362 0.04985094 13538931 male
-0.3231859 0.6955522 1.532045 0.6901199 0.417845 0.5908809 11366501 male
-0.4770989 0.6600099 1.624804 -0.7005761 0.6067855 0.3755056 13339512 male
-0.533366 0.1757156 1.570237 0.9516339 -0.09180429 0.293198 13224385 male
-0.6322473 0.1373339 1.329929 0.2349497 -0.07169145 -0.9693602 12434101 male
-0.5336903 0.2636552 1.624542 0.7477313 -0.1484382 0.6471972 12301748 male
-0.2146469 0.6655074 1.395524 -0.1029829 -0.5893391 -0.8012953 12945019 male
-0.5740818 -0.6570165 1.516129 0.2638792 0.6440967 0.7179883 10512746 male
-0.5566189 0.4329188 1.646597 -0.1351711 0.1693212 0.9762475 11171429 male
-0.5846424 0.3496138 1.663325 0.06947835 -0.05796149 0.9958983 12486521 male
-0.5586498 0.03495409 1.469785 0.8602437 -0.1089375 0.4981101 12038831 male
-0.4780727 0.2676854 1.434116 0.7183674 -0.4854179 -0.498315 13207401 male
-0.6359784 -0.3429458 1.49074 0.7468424 0.05104628 0.663039 11237231 male
-0.6663007 0.3554471 1.192778 -0.9357971 0.3042659 -0.1780626 12419699 male
-0.6712252 0.2962363 1.163955 -0.7216468 0.2056926 -0.6609967 13406338 male
-0.6642658 0.1428255 1.948884 -0.5793399 0.310019 0.753826 8741470 male
-0.6603496 -0.4222409 1.410905 0.2138365 -0.2433145 -0.9460826 11704706 male
-0.7157221 0.103858 1.173553 -0.3647643 -0.2347155 0.9010305 12418427 male
-0.724763 -0.2929587 1.453839 -0.9816626 0.1875957 0.03386235 12618366 male
-0.5070691 0.3771259 1.640332 0.4068746 -0.1597916 0.8993998 13337713 male
-0.5987734 -0.06658062 1.497303 0.5090548 -0.02295612 0.8604281 11037288 male
-0.4835459 0.2356946 1.498422 0.7810155 -0.6240344 -0.02441269 9920589 male
-0.6372771 -0.2066436 1.520948 0.0783508 -0.1693955 -0.9824289 10909037 male
-0.4900124 0.3689696 1.62912 0.4995632 -0.2614408 0.8258847 13272691 male
-0.62665 -0.4900482 1.472403 0.981971 -0.0428035 0.1841227 11895670 male
-0.6627403 0.09101967 1.149236 0.5163419 -0.0438933 -0.8552571 12560020 male
-0.7108074 0.259703 1.354215 -0.5571381 0.1690805 -0.8130248 10921893 male
-0.7328045 0.07302354 1.14341 -0.3242906 0.2826879 -0.9027311 9794664 male
-0.535636 0.3684545 1.650857 0.3588234 -0.02862683 0.9329665 12877937 male
-0.2424622 0.7629532 1.354368 0.2585492 -0.4030531 -0.8778957 13140603 male
-0.6371513 -0.08804078 1.651778 -0.1623906 -0.2099703 0.9641276 9529189 male
-0.7637089 0.2193549 1.392897 -0.804023 0.1784737 -0.5671812 10856868 male
-0.6829033 -0.4072232 1.629653 -0.3260728 -0.2105935 0.9215895 9790048 male
-0.5748492 0.0894877 1.509295 0.4367755 -0.1258507 -0.8907239 12434109 male
-0.4437639 0.6914025 1.616661 -0.4205115 0.8356316 0.3533977 13011571 male
-0.5058105 0.6569982 1.494689 -0.6613655 0.6936188 -0.2854624 14655100 male
-0.7165152 -0.4174366 1.498675 -0.8356611 -0.1355684 0.5322518 11040878 male
-0.6120576 0.5172246 1.543286 -0.868946 0.4836332 0.1050336 14458242 male
-0.4754954 0.6654675 1.335809 -0.5596669 0.7279093 -0.3961326 14063227 male
-0.6679398 -0.09946409 1.638311 -0.5277735 -0.2010214 0.825255 11697533 male
-0.5807882 0.3280626 1.660271 0.2096632 -0.0480304 0.9765934 11894124 male
-0.7219701 -0.008177602 1.4809 -0.8345677 -0.07007729 0.5464305 9202531 male
-0.586229 0.3864346 1.333991 -0.05441691 0.1066162 -0.9928101 13537915 male
-0.6868433 -0.002687241 1.359376 -0.4644072 -0.2201837 -0.8578142 11382184 male
-0.6248919 -0.471661 1.466915 0.9928476 -0.07925064 0.08929336 11764599 male
-0.4391719 0.3121153 1.451576 0.8173637 -0.495956 -0.2931629 14391160 male
-0.6565568 -0.1808776 1.524126 -0.4064612 -0.07345758 -0.9107103 8541777 male
-0.1615993 0.8822541 1.399558 0.3610034 0.8178529 -0.4480997 9991027 male
-0.7093031 -0.4570222 1.498099 -0.8172886 -0.1237402 0.5627859 11303797 male
-0.5488728 -0.00188809 1.413489 0.9725077 -0.1479382 -0.1798426 12040375 male
-0.7143406 0.2635242 1.651284 -0.5182306 0.2532955 0.8168712 10262164 male
-0.7060179 -0.471853 1.439024 -0.7324647 -0.2685608 -0.6255963 10910577 male
-0.6424845 0.130491 1.172364 0.9220201 0.03757841 -0.3853142 13335667 male
-0.6301246 0.1194183 1.330395 0.2437388 -0.07903565 -0.9666152 12236722 male
-0.6181928 0.5079885 1.530808 -0.8842275 0.4652044 -0.04155499 14392449 male
-0.6746189 -0.5496408 1.594547 -0.1795498 -0.25048 0.9513264 9989233 male
-0.6325336 -0.3578046 1.487891 0.8004085 0.01988704 0.5991251 10843496 male
-0.7204427 -0.3636428 1.573289 -0.9917803 0.004996159 -0.1278552 11963268 male
-0.6865193 -0.4781852 1.427369 -0.3233319 -0.2920677 -0.9000851 8147532 male
-0.5407402 0.352418 1.343283 0.3072377 -0.2116768 -0.9277921 12416867 male
-0.6557535 -0.5700451 1.531298 0.07308481 0.1920076 -0.9786685 11960687 male
-0.4437228 0.2986779 1.521207 0.8488639 -0.5133667 0.1260354 14062972 male
-0.5831769 -0.6815441 1.45541 -0.03664942 0.4732375 -0.8801724 10058614 male
-0.3967847 0.3868103 1.516136 0.9270666 -0.3718879 0.04740399 13666413 male
-0.5408117 0.008960984 1.557014 0.8452624 -0.1195992 -0.5207953 12433853 male
-0.2080021 0.8564723 1.500824 -0.1513631 0.5294902 0.8347032 8086371 male
-0.4023345 0.7144774 1.460695 -0.3853488 0.912631 -0.1364219 13471355 male
-0.7462096 0.06758553 1.416874 -0.960413 -0.2337108 -0.1516125 13289922 male
-0.5501533 -0.7104812 1.490854 0.008641804 -0.972906 0.2310396 10447470 male
-0.3534436 0.7031657 1.370599 0.3220155 0.781515 -0.5343598 10714481 male
-0.5968026 0.5128409 1.807422 -0.2804763 0.6378315 0.7172894 10445399 male
-0.45554 0.5740833 1.210128 -0.03074599 0.3452272 -0.9380155 12290929 male
-0.6654611 0.1106377 1.148461 0.4820688 -0.02501355 -0.8757764 10189415 male
-0.6402015 0.09136903 1.925954 -0.2828124 -0.1410808 -0.9487432 13009540 male
-0.6427502 -0.1275559 1.511685 0.1245507 0.01879514 0.9920354 8999503 male
-0.5593182 0.1601421 1.398776 0.9351343 0.06159049 -0.3488993 12369080 male
-0.3900797 0.718582 1.456576 -0.3024033 0.9465467 -0.1122574 13011579 male
-0.4412168 0.3518804 1.401833 0.6530442 -0.4657218 -0.5971907 13273711 male
-0.1933388 0.6280519 1.457293 0.2890296 -0.9187255 0.2690823 12355198 male
-0.6784151 -0.181666 1.545875 -0.8934043 -0.07847203 -0.4423473 11959927 male
-0.6416716 0.3853373 1.865996 -0.660634 0.3735795 0.6511538 12024432 male
-0.4876879 0.2309012 1.484037 0.7527814 -0.6518651 -0.09160954 11895147 male
-0.3667223 0.4391635 1.509346 0.8006772 -0.5753687 -0.1669342 13732720 male
-0.6995707 0.03399774 1.52814 -0.6871469 -0.1358969 -0.7136955 9932683 male
-0.7094205 0.1107954 1.663239 -0.6182531 -0.166037 0.7682415 9934223 male
-0.6681222 0.2819117 1.157225 -0.5713937 0.1502225 -0.8068103 12091504 male
-0.6978262 0.002815838 1.166416 -0.3696896 0.1210467 0.921237 11243657 male
-0.1955777 0.6541476 1.486228 0.2493849 -0.5942991 0.7646018 11763057 male
-0.7420075 0.2895088 1.399675 -0.7630254 0.4418775 -0.471738 11185063 male
-0.6133675 0.2672954 1.19339 0.8830146 -0.4031112 0.2403892 12481895 male
-0.4812339 0.6322752 1.658821 -0.8390191 0.5152895 -0.1747111 9395021 male
-0.6828566 0.2733049 1.339366 -0.4252736 0.1607994 -0.8906662 11184801 male
-0.6255941 0.3254849 1.897063 0.1004352 0.2898399 0.9517909 7030329 male
-0.68285 0.3994436 1.443876 -0.8897581 0.4560595 0.01845294 14064507 male
-0.7418303 0.1492786 1.511455 -0.08448882 -0.170856 0.981667 11316396 male
-0.4453568 0.5009164 1.309665 0.08025702 -0.4438513 -0.8924993 11366746 male
-0.3537711 0.5608797 1.279008 0.8917967 -0.3892848 -0.2305562 14062451 male
-0.7045816 -0.3632446 1.539907 -0.7188488 0.06279878 -0.6923243 10647146 male
-0.1129861 0.8516276 1.424129 0.770394 0.6265239 -0.1181579 7101786 male
-0.5199678 0.4343524 1.219933 0.7135894 -0.5757893 -0.3990701 11761503 male
-0.6932979 -0.139337 1.402256 -0.6504445 -0.1761567 -0.7388442 12619143 male
-0.5819834 -0.2200578 1.551355 0.6016123 -0.2725306 -0.7508594 9462875 male
-0.5340471 0.2750551 1.379088 0.4980864 -0.4307379 -0.7525789 12880489 male
-0.7188494 -0.08817311 1.420546 -0.9309268 -0.1712748 -0.3225529 12422271 male
-0.1961248 0.872683 1.37675 -0.0477186 0.6944091 -0.7179965 7695979 male
-0.3292088 0.6299414 1.612975 0.9983324 -0.02567774 -0.05170304 11958368 male
-0.5020132 0.492625 1.306653 -0.1110145 -0.2886029 -0.9509913 11106401 male
-0.5788519 -0.08991286 1.394373 0.7308827 -0.2861828 -0.6196047 10185314 male
-0.7268358 -0.3047517 1.451665 -0.9849095 0.171725 -0.02154404 12487036 male
-0.5465733 -0.09699744 1.584305 0.985332 -0.1656293 -0.04108834 12025714 male
-0.6811873 0.2433469 1.202887 -0.7300141 -0.08086504 0.6786312 10782075 male
-0.5303383 0.08256356 1.564283 0.9442493 -0.09433057 -0.3154287 13355976 male
-0.3281446 0.6429987 1.584601 0.9920804 0.07674047 0.09943646 12286571 male
-0.5762648 0.3668026 1.178074 0.8968421 -0.2612884 -0.3569353 8539199 male
-0.2875921 0.7012913 1.390491 -0.1600096 -0.0747191 -0.9842836 13870228 male
-0.6374662 -0.2844462 1.493229 0.5709953 -0.08600796 0.8164358 9855835 male
-0.7278108 0.3302143 1.561024 -0.7438243 0.6637045 0.07887888 12235703 male
-0.4593484 -0.6895719 1.479329 0.1042485 0.9609956 -0.2561637 9200995 male
-0.623285 0.4581562 1.7666 -0.7098489 -0.1336872 -0.6915506 9460054 male
-0.6571224 -0.1311104 1.638014 -0.4361056 -0.1510424 0.8871293 11302262 male
-0.5880369 0.3954555 1.869616 0.4647067 0.1356525 0.8750123 9136989 male
-0.5861509 -0.6835155 1.515491 0.001779904 -0.2186235 -0.9758078 11171440 male
-0.5505326 0.5449753 1.6993 -0.6900693 -0.1438245 -0.7093089 12417387 male
