# .PCD v0.7 - Point Cloud Data file format
VERSION 0.7
FIELDS x y z normal_x normal_y normal_z rgb label
SIZE 4 4 4 4 4 4 4 4
TYPE F F F F F F U U
COUNT 1 1 1 1 1 1 1 1
WIDTH 194
HEIGHT 1
VIEWPOINT 0 0 0 1 0 0 0
POINTS 194
DATA ascii
-0.05855677 -0.5948041 1.114247 0.107089 -0.154169 0.9822241 9525081 male
0.1225206 0.5473997 1.034816 -0.6455016 -0.4544235 0.6138625 10182738 male
0.292998 -0.2239962 1.362617 0.2559508 -0.100102 0.9614931 10514542 male
0.06944104 -0.3243818 1.144125 -0.4293152 0.2674388 0.8626501 9988714 male
0.1930443 0.7659051 1.30342 0.2221214 0.2605108 0.9395725 11039078 male
0.03144312 -0.4076937 1.134649 -0.06291246 -0.1991111 0.9779555 12354685 male
0.03035393 -0.4341481 1.124339 0.2944344 -0.4846612 0.8236578 9724766 male
0.02895196 -0.6879127 1.066089 0.4230584 -0.1272267 0.8971261 7231576 male
0.1730908 -0.2201619 1.076216 -0.6548502 0.5494567 -0.5189112 11764345 male
0.06100189 0.1759967 1.331053 -0.8672583 -0.01904302 0.4974945 10657438 male
0.08464311 0.1140392 1.093485 -0.7544053 -0.2028015 -0.6242953 10986917 male
-0.04373274 -0.4603925 1.064386 -0.4949235 0.2192284 -0.840827 11040623 male
0.3139993 -0.2031546 1.257477 0.4673574 -0.1421962 -0.8725581 8740179 male
0.1954537 0.7444618 1.318291 0.5314605 0.568122 0.6283211 11497581 male
0.4860931 0.2420684 0.9827618 -0.1950534 -0.6035615 0.7730898 14059140 male
0.1416634 1.002518 1.210119 -0.5143867 0.6011977 -0.6115289 8418419 male
0.1291506 0.3832127 1.495677 -0.5202672 -0.01866834 0.8537996 10646118 male
0.1786888 0.340524 1.387094 0.04219413 0.06640296 0.9969004 14066316 male
0.2350586 0.5635259 1.064798 0.3428915 -0.07416369 -0.936443 11432287 male
0.1619369 -0.141011 1.100979 -0.9653742 -0.101067 -0.240496 13538956 male
0.08426298 0.5168215 1.348566 -0.7957447 -0.2034533 0.5704362 13668983 male
0.2470485 0.05148635 1.214835 0.2878419 -0.07987865 0.9543409 10261918 male
0.2340459 -0.1803706 1.261499 -0.7694358 -0.1335249 -0.6246118 11038828 male
0.2528805 1.016914 1.230202 0.4119869 0.8173358 -0.4027765 7561562 male
0.3240573 0.3412364 0.921452 0.3521517 0.2611523 -0.8987708 16439747 male
0.1084407 0.4987969 1.062154 -0.4954948 -0.2086838 -0.8431703 12551019 male
0.1366621 0.412462 1.496215 -0.4217283 0.1503005 0.8941786 11299945 male
0.1796194 -0.5544862 1.262299 -0.8406782 0.1117396 -0.5298818 11170928 male
0.2304034 -0.01803261 1.224608 -0.08859883 -0.1659208 -0.982151 9142147 male
0.1794223 -0.3788877 1.300347 -0.9969325 0.07074329 -0.03348398 12554632 male
0.2142099 0.3503506 0.977715 -0.4953348 -0.7162563 0.4915492 8279375 male
0.1291494 0.2930113 1.064861 -0.4334829 0.0474162 -0.8999136 12418923 male
0.2925733 -0.2188423 1.117483 0.9460967 -0.2742637 0.1722806 10513510 male
0.2365603 -0.6557425 1.292827 0.2489766 0.2589413 0.9332525 9989232 male
0.1425162 0.4464825 1.374303 -0.3121999 -0.1709257 0.9345137 11894123 male
0.07833087 0.08698703 1.299444 -0.7400441 -0.6701297 0.05710608 12434617 male
0.1411893 0.7804528 1.171246 -0.2948216 0.8782612 -0.3764806 10581613 male
0.1552439 1.003123 1.202517 -0.3654335 0.6162736 -0.697614 9404022 male
0.121453 0.4331755 1.36173 -0.5279253 -0.1869977 0.8284485 12222832 male
0.193404 0.391284 1.061813 0.1693932 0.05856712 -0.9838069 12156767 male
0.1598732 0.5401945 1.046455 0.1194163 -0.1039262 -0.9873901 11367773 male
0.09247372 0.7186095 1.09361 -0.7256363 0.5665522 -0.390475 13012343 male
0.04401351 0.1741074 1.169112 -0.9982474 -0.03451388 -0.04807448 13158851 male
0.5851405 0.1853796 0.9766736 0.8536115 0.518649 0.0484857 12615806 male
0.2081769 -0.1883431 1.176928 -0.283563 -0.04012261 0.958114 9790307 male
0.06122101 0.470506 1.263484 -0.9888928 -0.1414725 -0.04557228 14589566 male
0.2934449 0.03822089 1.176543 0.8525007 -0.138417 0.5040671 11579824 male
0.2824045 -0.2469431 1.360924 0.1597783 -0.07143912 0.9845647 12554662 male
0.2863005 0.6158982 1.301245 0.9014335 0.417941 0.1128853 13536625 male
0.1154618 -0.3738809 1.043668 0.3594136 -0.43343 -0.8264142 9465189 male
0.02229555 -0.3633131 1.058959 -0.6853526 0.4137569 -0.5992473 11634044 male
0.1301796 0.7187269 1.381149 -0.4748251 0.6662364 0.5750394 11633790 male
0.06704927 0.41283 1.188491 -0.9637691 -0.1555165 0.216712 14589060 male
0.2801734 -0.08008226 1.165219 0.6907973 -0.1594422 0.7052498 11366252 male
0.4091338 -0.7107878 1.280202 0.8434042 -0.06945189 0.532772 8021081 male
0.1483175 0.5110096 1.388147 -0.1565649 -0.2807464 0.9469262 11038304 male
0.08827176 0.2731704 1.096592 -0.7822429 0.2115647 -0.5859494 10986145 male
0.1069756 0.5748526 1.020107 -0.9719083 -0.231887 0.04028618 12814716 male
0.2057651 0.8983039 1.330227 -0.2682735 0.1213274 0.9556721 9723218 male
0.1765417 -0.5896881 1.281788 -0.8567566 -0.06864486 0.5111323 11303026 male
0.1271673 0.1145377 1.060135 -0.5355536 -0.06670642 -0.8418626 10856092 male
0.1862024 0.8520591 1.306895 -0.1839892 -0.3090784 0.9330695 11565170 male
0.3110901 0.8550997 1.230403 0.9579632 0.009279849 -0.2867412 10838371 male
0.1609605 0.5081284 1.396545 0.2163357 -0.2749488 -0.9368042 11497316 male
0.271931 -0.236929 1.363606 -0.06796753 -0.05328225 0.9962638 11633554 male
0.2339468 0.895107 1.174056 0.09465355 0.0155189 -0.9953894 13340288 male
0.03480098 -0.6889765 1.048656 -0.367431 -0.9257913 0.08891103 7691096 male
0.2247403 -0.244022 1.327602 -0.9201801 0.2196654 0.3240615 10512734 male
0.402176 0.07652289 1.500291 0.6023994 0.4111332 -0.6841671 12613244 male
0.2770253 -0.1231803 1.062662 0.639739 -0.1688633 -0.7498129 10053207 male
0.2906765 0.1685212 1.145755 0.9326633 0.1190026 -0.3405551 12697789 male
0.09534099 0.2599908 1.083617 -0.6911596 0.1846165 -0.698724 11776171 male
0.242289 0.7105514 1.196122 0.8549559 0.4925954 -0.1624814 9790043 male
0.05858618 0.5028665 1.273164 -0.9909497 -0.1272556 0.0427193 14786436 male
0.274366 0.2431512 1.339111 0.8558053 0.09413573 0.5086611 12763065 male
0.1596694 0.08249695 1.045768 -0.3843893 -0.08118565 -0.9195944 11315876 male
0.1275243 0.3489679 1.375134 -0.4600328 0.1122502 0.8807781 12089704 male
0.2623409 0.841781 1.184548 0.2707976 -0.2825365 -0.9202402 12945019 male
-0.0335606 -0.628746 1.01633 0.2772788 0.6995233 -0.6586225 7164494 male
0.1972055 0.4460593 1.378943 0.1580742 -0.1090529 0.981387 14261394 male
0.2362202 0.4331038 1.363816 0.4712504 -0.04063692 0.881063 12877937 male
0.3014525 0.0511448 1.162335 0.9355209 -0.08211195 0.3435964 12565945 male
0.2215608 0.2475239 1.056952 0.4379698 0.2781482 -0.8548779 11052959 male
0.1739372 -0.2937015 1.041122 0.2637236 -0.05168306 -0.9632128 9202268 male
0.3088883 0.293345 0.9421578 -0.3892245 -0.8344295 -0.390169 12879236 male
0.2729701 0.3424918 0.9153765 -0.1420984 -0.2998792 -0.9433349 11895411 male
0.386769 0.1489978 1.493873 0.6488656 0.4737789 0.595405 13532546 male
0.04864384 -0.3281356 1.055672 -0.6529077 0.4392813 -0.6170442 12093054 male
0.4432905 0.248341 0.9846698 -0.1305318 -0.8029934 0.581518 13337732 male
0.07113364 -0.3465481 1.036676 -0.2494449 0.1012196 -0.9630847 9134169 male
0.2771606 0.3526452 1.329841 0.7356374 0.04511811 0.6758715 13472116 male
0.2229007 -0.1876657 1.179334 0.007818637 -0.1087142 0.9940425 10777450 male
0.3157569 0.2338554 1.232698 0.9900773 -0.1106126 0.08667177 12828606 male
0.2788368 -0.2278733 1.244611 0.07871557 -0.1599934 -0.9839747 10909037 male
0.2929426 0.2791944 1.31097 0.7843801 -0.1335019 0.6057436 12552045 male
-0.01620203 -0.4969459 1.060598 0.2800119 -0.3375745 -0.8986863 10844521 male
0.4530816 0.2819052 0.9597629 0.4372778 0.7602325 -0.4804527 11365731 male
0.1582968 0.3024928 1.055772 -0.1202 -0.0288284 -0.9923311 14067593 male
0.4564799 0.1977297 0.9420519 -0.514339 -0.6129907 -0.5997483 10447206 male
0.2397298 0.4000427 1.362042 0.4972633 0.004095635 0.8675902 13207406 male
0.180074 0.905571 1.169169 0.9845365 0.07501794 -0.1583051 11888233 male
0.2550218 -0.1144856 1.37336 -0.1363773 -0.2130966 0.9674665 9529189 male
0.2025349 0.354021 1.059997 0.2793523 0.113596 -0.9534456 12417387 male
0.2974879 -0.368532 1.332853 0.868197 -0.2161597 0.4466645 10909548 male
0.3229089 0.09834037 1.285955 0.9730886 0.1570438 -0.1686301 14013134 male
0.05567333 0.5315322 1.266902 -0.994874 -0.0992331 -0.01946032 14852999 male
0.05270436 0.5800573 1.29669 -0.9914971 -0.09185617 0.09217489 14786692 male
0.01902039 -0.4008872 1.132433 -0.3245254 0.02876385 0.9454396 10253675 male
0.07446767 0.3493724 1.258241 -0.9975522 -0.009305232 -0.06930476 14261119 male
0.04656483 0.5934769 1.141306 -0.9896041 -0.09862495 -0.1046757 14590596 male
0.2164574 -0.1681436 1.31479 -0.962136 -0.2500604 0.1084644 13079679 male
0.1066707 0.4559912 1.356126 -0.6278276 -0.228089 0.7441828 12814192 male
0.1318291 -0.02079474 1.167451 -0.8664857 -0.2337509 0.4410934 9801621 male
0.1097942 0.3519979 1.073271 -0.6010684 0.1068672 -0.7920205 13470834 male
0.1634938 -0.1344415 1.087237 -0.8650891 -0.09709973 -0.4921309 12554628 male
0.07301353 -0.4073111 1.121869 0.4530934 -0.5971224 0.66193 10054241 male
0.3038022 0.3097444 1.134764 0.7565555 -0.06587378 -0.6506034 13340017 male
0.1984013 -0.1291912 1.306111 -0.941491 -0.3360077 -0.02633905 12093302 male
0.1604347 1.030347 1.244694 -0.2957503 0.9333386 -0.2034963 9991027 male
-0.06828585 -0.5146368 1.114464 -0.1250139 0.1437279 0.9816895 11171440 male
0.3043766 0.02640578 1.148559 0.9512634 -0.07148524 0.2999799 12895681 male
0.1484635 0.254214 1.392496 -0.2498992 0.1454472 0.9572856 11248541 male
-0.04142455 -0.4399917 1.07364 -0.7397268 0.4349169 -0.5134702 11501941 male
0.4903606 0.290283 1.005926 0.3171286 0.8459265 -0.4287632 13270135 male
0.1808552 0.0673907 1.039476 -0.2424793 -0.06967311 -0.9676516 11380389 male
0.07381539 0.3355553 1.265749 -0.9994943 0.02073224 -0.02411509 13998203 male
0.2374646 -0.6008937 1.294875 0.5180525 -0.1680378 0.8386807 10842224 male
0.1557087 -0.3233167 1.039721 0.3514174 -0.2211281 -0.9097298 9729379 male
0.1851847 -0.3396048 1.308403 -0.9783633 0.2062028 0.01690853 12684417 male
-0.004455413 -0.47182 1.055806 0.1148111 -0.2954414 -0.9484372 13677726 male
0.07117064 0.3642689 1.172864 -0.9926347 -0.1037662 0.06252432 14392449 male
0.2536496 -0.5379025 1.273864 0.9127631 -0.08413973 -0.3997303 12617344 male
0.324419 0.2873161 1.258327 0.9520119 -0.2135902 0.2192091 13536372 male
-0.03621828 -0.5825616 1.056514 0.5328194 0.4674556 -0.7053998 8345935 male
0.2606054 0.6602982 1.320723 0.8795478 0.4490131 0.1574262 13142643 male
0.3305967 -0.002625763 1.27746 0.8627514 0.03776165 -0.5042166 12433853 male
0.1566807 0.9620244 1.332642 -0.3371443 0.1183056 0.9339902 8020578 male
0.06473325 0.6616966 1.3239 -0.9311261 0.2793464 0.2344566 15182473 male
0.1064776 0.07278566 1.193306 -0.5446998 -0.6592115 0.5184038 10919838 male
-0.1373792 -0.5700071 1.116729 -0.3587808 0.01849366 0.9332387 4535607 male
0.133116 0.759758 1.113925 -0.2311783 0.8277782 -0.5112143 9993333 male
0.1133755 0.4688533 1.463325 -0.892572 0.04696674 0.4484525 13601404 male
0.1538923 0.5926052 0.9612105 -0.1860993 0.1232521 -0.9747698 11368807 male
0.4631997 0.2030298 0.9366995 -0.1583177 -0.2197167 -0.9626319 9266271 male
0.4279737 0.0379995 1.49411 0.2010151 0.2634169 -0.9435066 11957884 male
0.2279544 -0.06516588 1.196479 0.171051 -0.230554 0.9579074 6767434 male
0.2229389 0.1370595 1.042938 0.2502403 0.07372238 -0.965373 12039343 male
0.05571459 0.603321 1.323838 -0.9658846 -0.02131529 0.2580949 14918531 male
0.2155005 0.4230132 1.067207 0.3635877 -0.01161177 -0.9314877 12549228 male
0.3096592 0.8399155 1.242092 0.9453382 -0.2064898 0.2523842 13536900 male
0.2101534 -0.1310199 1.342957 -0.7599283 -0.3166483 0.5676646 12091518 male
0.2904764 0.1598218 1.516356 -0.654202 -0.4142343 0.6327953 12286071 male
0.3127452 0.2026948 1.246994 0.9661208 0.07029971 0.2483321 12763842 male
0.3022162 0.4699963 1.152918 0.9178075 0.1865342 -0.3504778 12813152 male
0.174358 -0.01288834 1.244248 -0.633961 -0.2937945 -0.7153869 9932683 male
0.1550728 0.07405084 1.388912 -0.4503033 -0.2441403 0.8588496 9868178 male
0.3152722 0.3583198 0.9245399 0.4752531 0.424675 -0.7705749 15324348 male
0.5610266 0.2004933 0.9677344 0.5382268 0.442281 -0.7174256 14203316 male
0.2783125 0.8122376 1.268925 0.3558898 -0.7541153 0.5519534 10842724 male
0.05585981 0.2477625 1.222383 -0.9560109 0.2930329 0.01322997 12762810 male
0.213746 0.4032615 0.9141236 -0.1567614 0.004434477 -0.9876268 11038818 male
0.3640867 0.1373327 1.464567 -0.1149956 -0.6600264 -0.742389 13008766 male
0.2561692 0.2993855 1.092696 0.6342359 -0.08455886 -0.7685017 12617833 male
0.248955 0.2675922 1.519495 0.3390477 0.2082092 0.9174398 10785140 male
0.07256602 0.2916535 1.141228 -0.9641527 0.1959071 -0.1789695 13935252 male
0.2007731 0.07984134 1.222235 0.03666915 0.06224696 0.9973871 12761794 male
0.1661623 0.5147723 1.047896 0.08501136 -0.127182 -0.9882298 11564378 male
0.08311681 0.6421268 1.05232 -0.9267519 -0.06396747 -0.3701883 14591892 male
0.1923252 -0.410468 1.259072 -0.742192 0.01320995 -0.6700571 10842475 male
0.2140481 1.033469 1.272926 0.1419792 0.9720623 0.1869136 7496026 male
0.2194631 0.4867023 0.9627499 0.8639014 0.2993564 -0.4050437 11695453 male
0.189323 -0.1827718 1.073842 -0.6918877 0.1371044 -0.7088681 12159103 male
0.3157948 -0.2474755 1.268629 0.534193 -0.232168 -0.8128567 9659997 male
0.3281538 0.3927546 1.217796 0.995615 0.09001876 -0.02544844 13733235 male
0.1555663 -0.1043698 1.084254 -0.8386102 -0.1234404 -0.5305614 11437177 male
0.1394581 1.006606 1.216071 -0.537665 0.6493024 -0.5378873 7695979 male
0.1079034 0.6731197 1.401374 -0.6928931 0.4131289 0.5909516 13339509 male
0.1808943 0.5852066 1.05237 0.3663937 -0.3080537 -0.8779856 11038301 male
0.2826493 -0.1388372 1.073486 0.7458923 -0.1769125 -0.6421424 10119004 male
0.03877706 -0.3763188 1.042512 -0.3465962 0.1301714 -0.9289384 8345678 male
0.3432713 -0.1376749 1.281484 0.8834801 0.03734016 -0.4669785 12222323 male
0.3268569 0.2985733 0.979622 -0.1572832 -0.5267953 0.8353137 11900046 male
0.3113565 0.06768804 1.256091 0.8381894 -0.01432592 -0.5451913 12369082 male
0.1303035 0.7030526 1.397646 -0.4753488 0.6334583 0.6105523 12093048 male
0.2454674 0.4290604 0.9548312 0.6041135 0.7209393 0.3395489 11431517 male
0.1954199 0.7887065 1.176191 0.1114227 0.1377171 -0.9841845 13077101 male
0.1624279 -0.3531113 1.097565 0.6498487 -0.6985341 0.299578 11828595 male
0.08768483 0.326928 1.33464 -0.8852205 0.03425295 0.4639092 13273461 male
0.00956066 -0.6336735 1.079819 0.719434 0.6598182 0.216921 8938843 male
0.1385708 0.372512 1.422779 -0.218795 -0.1820937 -0.9586297 11759463 male
0.1539984 0.5356118 1.394232 0.1178616 -0.3103145 -0.9432994 12285801 male
0.1711515 0.3113092 1.511573 -0.4734648 -0.1786884 0.8624974 12419691 male
0.4132289 -0.7035881 1.254698 -0.3068609 0.8143685 -0.4925855 5921114 male
0.1098469 0.4847102 1.419509 -0.9113666 -0.1914256 -0.3643727 10643295 male
