# .PCD v0.7 - Point Cloud Data file format
VERSION 0.7
FIELDS x y z normal_x normal_y normal_z rgb label
SIZE 4 4 4 4 4 4 4 4
TYPE F F F F F F U U
COUNT 1 1 1 1 1 1 1 1
WIDTH 191
HEIGHT 1
VIEWPOINT 0 0 0 1 0 0 0
POINTS 191
DATA ascii
-0.6394232 -0.6483144 1.553265 -0.2380273 0.1683567 0.956556 10381926 male
-0.3842375 0.3254654 1.346908 -0.2598248 0.794093 0.5494611 10051156 male
-0.7136261 -0.2893305 1.636292 -0.8684998 0.1259919 0.4794106 11565680 male
-0.7207321 -0.2997891 1.498835 -0.921347 0.165309 0.3518421 10251627 male
-0.1096275 0.2006892 1.636922 -0.05335855 0.4991594 0.8648658 11894643 male
-0.6410606 -0.5378804 1.52735 0.424648 0.1302113 0.895946 10973027 male
-0.6268573 -0.5982252 1.490579 0.5760733 -0.096551 -0.8116758 11765620 male
-0.457065 -0.7001306 1.587907 -0.003536653 -0.9916091 0.1292246 6903374 male
-0.7166722 -0.2231965 1.459573 -0.9755231 -0.0108861 -0.219628 12223868 male
-0.8173094 0.2161546 1.591029 -0.9929128 0.1055402 0.05464274 12434874 male
-0.7088788 0.3156978 1.41249 -0.4380048 0.7044893 -0.5584325 11381409 male
-0.6686634 -0.6079281 1.532375 -0.3672011 0.1167087 0.9227907 10447974 male
-0.5791329 -0.1395669 1.595313 0.8877807 -0.01721866 -0.4599448 11696241 male
-0.4499687 -0.6804606 1.577101 0.2622465 -0.2367701 -0.9355036 5394762 male
-0.7932447 0.1789572 1.162293 -0.8273088 0.180121 0.5320873 13533819 male
0.04401741 0.180474 1.533707 0.6775582 0.2779745 -0.6809151 8154733 male
-0.5659055 0.4993079 1.836604 0.2538632 0.8914453 0.3753383 11695211 male
-0.6213965 0.3868024 1.669337 -0.2775351 0.6085535 0.7433957 12420467 male
-0.3761662 0.1773595 1.420135 -0.1834433 -0.718527 -0.6708708 12483940 male
-0.703563 -0.1056648 1.414911 -0.4984415 -0.2566284 -0.8280689 12948876 male
-0.2863307 0.3892892 1.665483 0.3106084 0.8965254 0.3158555 13931898 male
-0.8009529 0.1520806 1.432886 -0.9432702 -0.2615594 -0.2045199 12630714 male
-0.6821907 -0.127405 1.552383 -0.4468252 -0.06244592 -0.8924393 9987942 male
0.04820941 0.09157312 1.580745 0.8601862 -0.500046 -0.1001694 8022370 male
-0.6208802 0.2625245 1.152807 0.2950025 -0.2722892 -0.9158779 16439747 male
-0.4312485 0.3131979 1.376636 -0.13556 0.1380102 -0.98111 10840411 male
-0.5503194 0.4752173 1.854912 0.3677598 0.43084 0.8240934 10710369 male
-0.7109824 -0.4089669 1.57747 -0.9064956 -0.1817943 -0.3810733 11107445 male
-0.6727082 0.04103198 1.529959 0.0867087 -0.1120831 -0.9899086 9800589 male
-0.7150428 -0.295671 1.582763 -0.8586277 0.1711254 -0.4831923 11895419 male
-0.5617102 0.3363752 1.248475 -0.4473501 0.7240205 0.525045 8409935 male
-0.7674685 0.2967497 1.492799 -0.7363603 0.6619343 -0.140059 13486797 male
-0.635462 -0.1919093 1.421279 0.4020458 -0.1195406 -0.9077827 11699061 male
-0.6664019 0.0196186 1.544957 -0.04810279 -0.0908452 0.9947027 11442088 male
-0.5918261 0.2120388 1.661686 0.5598472 -0.3904503 0.7308349 11972525 male
-0.7968106 0.4669852 1.896269 0.09980293 -0.5833723 0.8060498 9792111 male
-0.1619586 0.2689317 1.525342 0.8876948 0.4342447 -0.1530674 12353662 male
0.007905051 0.2176415 1.536338 0.34011 0.6867501 -0.6424171 7497826 male
-0.6325871 0.240656 1.703683 0.3578607 0.02386406 0.9334701 11446950 male
-0.437779 0.320531 1.378368 -0.1167024 0.1968983 -0.9734535 10906202 male
-0.424525 0.2849413 1.376637 -0.1619266 -0.1237006 -0.9790189 13407607 male
-0.1804585 0.2301139 1.451424 0.7530786 -0.442353 -0.4870284 11435121 male
-0.6559263 0.3656975 1.452769 -0.4267787 0.871277 -0.2423556 12683895 male
-0.8504007 0.1733802 1.103452 -0.175512 0.6094688 -0.7731387 9662571 male
-0.6913055 -0.09827372 1.530896 -0.4064523 0.008370654 0.9136337 9592670 male
-0.2686143 0.3838429 1.660884 0.4049343 0.8707777 0.2788807 14391934 male
-0.5860981 0.005008861 1.510265 0.7293199 -0.01396369 0.6840305 12368054 male
-0.7200541 -0.304169 1.628564 -0.9410224 0.08881331 0.3264803 11961459 male
-0.7256573 0.2599877 1.380728 -0.3872208 0.3587829 -0.8493145 10593948 male
-0.6550853 -0.3041196 1.419904 0.2671059 0.03929405 -0.9628659 10517870 male
-0.720964 -0.2765712 1.486762 -0.9613453 0.1720192 0.2149999 10712177 male
-0.3665785 0.1650368 1.621835 0.135807 -0.9798399 0.1465272 13667438 male
-0.5891791 0.3588852 1.38103 -0.1272293 0.4456566 -0.8861169 13142125 male
-0.6733346 -0.3837731 1.539349 0.1365003 0.07729979 0.9876196 9725018 male
-0.5251179 -0.7051287 1.619764 0.08983718 -0.9954974 -0.03023557 8284773 male
-0.3173564 0.2217291 1.725618 -0.06542077 -0.9549871 0.2893438 14064002 male
-0.290903 0.3788674 1.521166 0.3821613 0.9160653 0.1215615 13866872 male
-0.3608305 0.3296072 1.337742 0.1143328 0.9860936 0.1206124 12156530 male
-0.1013415 0.08216708 1.63773 -0.1661684 -0.6776192 0.7163941 14585476 male
-0.7139997 -0.4150617 1.596586 -0.9747484 -0.2115012 -0.07164586 12159095 male
-0.6270502 0.1657897 1.366585 0.5794285 -0.1744909 -0.7961255 11249826 male
-0.1390953 0.2336427 1.619487 0.4048594 0.5656583 0.7184147 11892075 male
-0.1626368 0.09966392 1.542712 -0.5103076 -0.4126091 -0.7545464 12421499 male
-0.5422553 0.4328835 1.783571 -0.4703923 -0.735699 -0.4873173 14130822 male
-0.7134784 -0.3149092 1.642686 -0.8023751 0.03178956 0.595973 11302768 male
-0.0651722 0.128748 1.510237 -0.004324033 -0.07805432 -0.9969398 10909808 male
-0.5624229 -0.6769624 1.573413 -0.2006881 0.1822971 0.9625447 10841459 male
-0.7226281 -0.3220207 1.628459 -0.9440814 0.02458286 0.328795 12421755 male
-0.8658672 0.4227627 1.847144 -0.3272677 0.4200013 -0.8464603 12352627 male
-0.667145 -0.1427054 1.410675 -0.08397515 -0.1847446 -0.9791924 11303795 male
-0.5600857 0.1826844 1.466021 0.6094359 -0.691655 -0.3875581 11579824 male
-0.3647025 0.4042647 1.518866 0.1494062 0.9860146 0.07384478 14392443 male
-0.2034832 0.2955467 1.696529 0.7875246 0.3033226 0.5364706 11831425 male
-0.2641477 0.3860841 1.636384 0.4724786 0.8763744 0.09344521 15313806 male
-0.7712801 0.2192047 1.67383 -0.5203763 0.2371279 0.820353 10789284 male
-0.5855446 0.1236335 1.439816 0.9747518 0.1162608 -0.1906371 11382449 male
-0.6678696 0.2129942 1.711994 0.1100308 -0.01541544 0.9938087 11710383 male
-0.1250731 0.1362796 1.516857 -0.2674992 -0.05541604 -0.9619633 13538441 male
-0.4847276 -0.6923997 1.501968 -0.02000304 0.4058896 -0.9137033 5586748 male
-0.6760672 0.3518984 1.659526 -0.4231599 0.6198934 0.6608087 10654095 male
-0.5076232 0.3966871 1.662331 -0.1667769 0.7519852 0.6377333 12420208 male
-0.6008953 -0.00693804 1.521206 0.5958214 -0.02525807 0.8027199 11116183 male
-0.646753 0.2515862 1.35497 -0.01645942 0.1401853 -0.9899886 11381413 male
-0.6140762 -0.2603277 1.510241 0.5742038 -0.2832602 0.7681496 9725277 male
-0.6242962 0.3087778 1.170537 -0.1636459 0.7993964 -0.5780877 13076604 male
-0.5911092 0.3025463 1.163628 0.1294069 0.4505662 -0.8833143 11895411 male
-0.8305974 0.5291815 1.878091 -0.2027423 0.6406879 -0.7405503 12419716 male
-0.6246865 -0.3921988 1.441771 0.703635 -0.1409679 -0.6964381 10516840 male
-0.8070699 0.2223055 1.129245 -0.5344501 0.09370174 0.83999 12224386 male
-0.6697314 -0.3436029 1.418057 0.01229376 -0.0460826 -0.9988621 9726819 male
-0.5127356 0.3632629 1.68911 -0.1739847 0.4535566 0.87408 12418419 male
-0.6290005 -0.1596732 1.535802 0.2227437 -0.07661156 0.9718621 9196882 male
-0.5543563 0.1828763 1.537276 0.2820311 -0.9558405 0.08262795 12486250 male
-0.6562702 -0.1410128 1.545582 0.02862706 -0.0004434008 -0.9995902 11302509 male
-0.5310773 0.3364925 1.696142 -0.1269467 0.2143624 0.9684697 13013636 male
-0.6920793 -0.5932999 1.499393 -0.8578635 -0.1896577 -0.4775988 12293521 male
-0.7857962 0.1931166 1.110177 0.3403579 -0.3263697 -0.8818387 11186861 male
-0.7753443 0.2837299 1.478161 -0.7948498 0.5965849 -0.1109074 13025725 male
-0.854845 0.2239826 1.101482 -0.2356091 -0.3232685 0.9165076 10645868 male
-0.5484423 0.389751 1.668323 0.005500278 0.6270479 0.7789614 12418669 male
-0.06123807 0.1732709 1.49651 -0.1415011 -0.354232 -0.9243903 12152687 male
-0.6936812 -0.02558589 1.684989 -0.3982018 -0.2171459 0.8912257 9200991 male
-0.735549 0.2896189 1.4061 -0.5017732 0.57719 -0.6442634 11841964 male
-0.6207656 -0.4304676 1.633547 0.6923822 -0.1874781 0.6967489 9594972 male
-0.6158248 0.09622897 1.544908 0.57599 -0.05191273 -0.8158069 12434109 male
-0.2039594 0.331593 1.645691 0.7573074 0.6279516 0.179339 12879471 male
-0.6505014 0.3843583 1.5222 -0.2498118 0.9513172 -0.1805264 13340533 male
-0.7267295 -0.3350592 1.490732 -0.9835108 0.08643662 0.1588569 11697269 male
-0.3091832 0.387646 1.682726 0.1723485 0.9050242 0.3888795 13207926 male
-0.4502715 0.4131206 1.470058 0.04606518 0.9748058 -0.2182471 14261119 male
-0.6984581 -0.09112994 1.665585 -0.536429 -0.2493427 0.8062707 10580080 male
-0.618255 0.2396662 1.69567 0.4790674 -0.03480916 0.8770879 11250088 male
-0.7448476 -0.05306384 1.477642 -0.9695286 -0.1618587 0.1838924 10908783 male
-0.4454496 0.3628017 1.395546 -0.05125042 0.5630617 -0.8248243 13075316 male
-0.6835878 -0.04332528 1.388929 -0.2034185 -0.249419 -0.94679 10120808 male
-0.6386639 -0.5104648 1.461762 0.5223042 -0.2344121 -0.8199083 12033927 male
-0.5276473 0.1662595 1.511829 0.05551568 -0.9864208 -0.1545702 13931633 male
-0.7325343 -0.07618561 1.604782 -0.9556451 -0.2625038 -0.1335454 12619648 male
0.03866502 0.08326517 1.562336 0.7660022 -0.5397939 -0.3490895 7234396 male
-0.7252793 -0.4033763 1.482222 -0.9830715 -0.1709669 -0.06588513 12486271 male
-0.5682933 -0.01646811 1.480481 0.97053 -0.0538317 0.2348911 12497320 male
-0.7709491 0.2980008 1.619579 -0.6856231 0.6134605 0.3919021 10525336 male
-0.6922979 -0.466148 1.532007 -0.5002578 -0.1204235 0.8574617 10252651 male
-0.754578 0.1873044 1.183206 0.5305793 -0.1676492 0.8308908 11894910 male
-0.5874032 0.1317842 1.450853 0.9899074 0.1151038 -0.08267134 13027270 male
-0.3272237 0.4047374 1.649554 0.1029454 0.9715852 0.2131302 14128759 male
-0.666472 -0.5437235 1.613773 -0.3522111 -0.2676215 0.8968424 9857390 male
-0.626291 -0.3049881 1.508102 0.6828243 -0.07441612 0.726783 11171181 male
-0.7064146 -0.2264818 1.608995 -0.979364 0.1579398 -0.1261009 10644832 male
-0.6952989 -0.5447888 1.520411 -0.8579904 -0.03625157 0.5123851 10976117 male
-0.2366983 0.3531021 1.492628 0.5744804 0.8184944 -0.006254494 14194814 male
-0.6050329 -0.5676367 1.576231 0.8796469 0.3427393 -0.3297747 12025464 male
-0.5632223 0.1779527 1.599725 0.4291799 -0.7650095 0.4801721 12631487 male
-0.5783888 -0.6841485 1.498093 0.09983477 0.3317591 -0.9380667 11637384 male
-0.256467 0.1882175 1.628344 0.332446 -0.8690408 0.3663984 12613997 male
-0.6463055 -0.0496525 1.546086 0.2286259 -0.0747323 -0.9706419 9791076 male
-0.01524654 0.20806 1.653109 0.1248311 0.5333691 0.836621 7493717 male
-0.3349228 0.3998511 1.568817 0.2330563 0.9265011 -0.2954329 14589821 male
-0.7216938 0.1174024 1.355612 -0.2394697 -0.09349366 -0.966392 11184805 male
-0.6113952 -0.7017533 1.556962 0.09141029 -0.6462268 0.7576512 9591137 male
-0.1765339 0.2792559 1.46482 0.8314996 0.4025059 -0.3828806 10975085 male
-0.5261198 0.496912 1.804658 0.144556 0.982807 -0.1148651 9854292 male
-0.3293259 0.3031818 1.301153 0.4284919 0.6304497 -0.6472466 13142648 male
-0.7513607 0.2075286 1.121746 0.3717177 -0.3991892 -0.8381373 10193532 male
-0.8798876 0.4072345 1.850445 -0.6697917 -0.0624526 -0.7399182 12089974 male
-0.5908795 -0.03302953 1.516895 0.658601 -0.007338889 0.7524568 11235436 male
-0.5823118 0.1186475 1.447554 0.9851722 0.1323215 -0.109211 12368568 male
-0.2728466 0.3693197 1.558496 0.4604782 0.8572371 -0.2304442 14589567 male
-0.4412324 0.1655019 1.540345 -0.134171 -0.9634228 0.2319802 13009516 male
-0.1575885 0.08068421 1.606479 -0.2971449 -0.7934392 0.5311866 13141880 male
-0.6831309 -0.1723182 1.558012 -0.6164208 -0.1151338 -0.7789543 10908272 male
-0.5237901 0.4957413 1.798064 0.1100111 0.9635404 -0.2439007 9394253 male
-0.5479679 0.1690942 1.545602 0.4251689 -0.9042533 0.039464 13486787 male
-0.3368452 0.1635062 1.568985 0.01588535 -0.9983549 0.05509245 13603183 male
-0.7984031 0.1744194 1.521585 -0.563669 -0.5860221 -0.582113 11447214 male
-0.7727034 0.1560056 1.679516 -0.6262922 0.005737695 0.7795674 9736084 male
-0.6037261 0.258589 1.161063 0.3211504 -0.4905551 -0.810073 15324348 male
-0.8278186 0.1671608 1.10846 0.4550823 -0.7352704 -0.5022725 10515564 male
-0.1390491 0.09742349 1.635402 -0.3356222 -0.4608938 0.8215442 13076092 male
-0.6165961 0.3911153 1.453343 -0.4578804 0.8579822 -0.2328349 14064251 male
-0.5120758 0.311255 1.190581 0.373314 0.2771316 -0.8853446 11038818 male
-0.3876344 0.3956783 1.80711 0.4546293 0.4482175 0.7696841 13010547 male
-0.4589172 0.2620081 1.705299 -0.3012298 -0.2454878 0.9214101 12284258 male
-0.6660488 0.4617436 1.820107 -0.3907643 -0.4842055 -0.7828464 12618878 male
-0.2682611 0.365747 1.543467 0.4643746 0.8856148 -0.006542772 13932665 male
-0.7849199 0.1292175 1.405359 -0.8174322 -0.2410248 -0.5231748 13749189 male
-0.4010329 0.240644 1.388253 -0.09827758 -0.3903799 -0.9153935 11891549 male
-0.2609078 0.1776335 1.375031 0.3487911 -0.9078221 -0.2328173 13273967 male
-0.7037475 -0.2084416 1.602255 -0.9458606 0.070994 -0.316714 11895418 male
-0.1082192 0.2422554 1.59468 0.1352601 0.943143 0.3036216 13339512 male
-0.3900393 0.2628131 1.269827 0.2489571 -0.5547265 -0.7939138 9198666 male
-0.7132888 -0.2252897 1.504806 -0.9584153 -0.140277 0.2485211 12749192 male
-0.6517308 -0.3408595 1.547919 0.3304448 0.11715 -0.9365268 10712939 male
-0.5021193 0.1688216 1.562355 0.0971161 -0.9887838 0.1134684 14061939 male
-0.6965959 -0.06185116 1.398697 -0.359483 -0.2454051 -0.9003047 12094598 male
0.01831638 0.2047083 1.530323 0.4038068 0.5536648 -0.7282826 7300197 male
-0.4757998 0.170286 1.566177 0.06385261 -0.9916571 0.111978 13009515 male
-0.4144838 0.2755301 1.377645 -0.1425378 -0.2009004 -0.9691864 11368286 male
-0.7084724 -0.1937184 1.44127 -0.7693077 -0.072372 -0.6347663 11371123 male
-0.6490387 -0.3819413 1.424178 0.3538622 -0.1498656 -0.9232129 12624014 male
-0.576001 -0.08353132 1.605614 0.9689293 -0.01761252 -0.2467104 12354426 male
-0.6793194 0.2697054 1.197981 -0.5585138 0.1857606 0.8084278 12095879 male
-0.5780255 0.09376197 1.606717 0.989376 -0.009616193 -0.1450618 13355976 male
-0.4891743 0.167586 1.542745 0.09282858 -0.9937988 0.0612112 13667187 male
-0.5055299 0.2678717 1.216081 0.2776465 -0.9591342 -0.05453612 9526096 male
-0.1229155 0.1959393 1.520357 0.06029082 0.3140838 -0.9474791 12289137 male
-0.6009555 -0.2042477 1.522156 0.5354475 -0.1630434 0.8286815 9592927 male
-0.4917681 0.4257865 1.596582 -0.06013396 0.9929971 0.1016886 14194814 male
-0.4825933 -0.6793293 1.569316 0.2114013 0.8256246 -0.5231191 12080468 male
-0.5492623 0.4200405 1.845842 -0.0892721 -0.9188575 0.3843586 9592404 male
-0.6657313 -0.1840342 1.667485 -0.2877755 -0.06932522 0.9551857 10579567 male
