# .PCD v0.7 - Point Cloud Data file format
VERSION 0.7
FIELDS x y z normal_x normal_y normal_z rgb label
SIZE 4 4 4 4 4 4 4 4
TYPE F F F F F F U U
COUNT 1 1 1 1 1 1 1 1
WIDTH 194
HEIGHT 1
VIEWPOINT 0 0 0 1 0 0 0
POINTS 194
DATA ascii
0.3136671 -0.6830766 1.297362 0.2642409 0.1533332 0.9521901 9330785 male
0.06929085 0.569592 1.206657 -0.25493 -0.2194152 0.9417366 11890272 male
0.2186516 -0.1725197 1.500503 -0.1954111 0.0423001 0.9798089 11894131 male
0.2318412 -0.4165038 1.302009 -0.6074439 -0.167046 0.7766001 10778224 male
0.2437059 0.8447677 1.367759 0.01507184 0.01781623 0.9997279 11498347 male
0.314885 -0.07750407 1.218252 0.9209989 0.02537438 -0.3887383 11959664 male
0.3104824 -0.5712544 1.278048 0.6730236 0.1738281 0.7189042 11103329 male
0.4675386 -0.7111002 1.217698 0.3109525 -0.9370238 0.1590438 7034967 male
0.2508952 -0.1669243 1.186356 -0.1207712 -0.09109012 -0.9884924 13148052 male
0.09689682 0.4317265 1.390657 -0.9742466 -0.09958275 0.2023044 14457218 male
0.0526972 0.1359022 1.25924 -0.8992633 -0.0911307 -0.4278095 11513516 male
0.2802657 -0.507303 1.213642 0.06622615 -0.199821 -0.9775919 10649964 male
0.288607 -0.1285823 1.487145 0.6511424 -0.2397707 0.7200859 9789531 male
0.1874923 0.7745046 1.406029 -0.380204 0.8453853 0.3751916 10646120 male
0.04607954 0.1129688 1.133244 0.2233391 0.3546333 0.9079401 13010563 male
0.1959597 0.9960245 1.245183 -0.4904532 0.5765976 -0.6534454 8943479 male
0.2390739 0.4634828 1.634598 0.4507559 0.4132039 0.7912533 10908005 male
0.2651415 0.3339116 1.501074 0.5463174 -0.003731952 0.83757 12878963 male
0.1687376 0.4862626 1.182111 -0.0152492 -0.2393103 -0.9708235 11232607 male
0.176541 -0.02357872 1.182806 -0.4829508 -0.2334331 -0.8439596 11185063 male
0.1483388 0.4859772 1.495188 -0.5554761 -0.1427143 0.8191942 13207923 male
0.1939691 0.04710466 1.353932 0.1064434 -0.1186791 0.9872108 9340296 male
0.1780256 -0.2052253 1.408838 -0.8494495 0.1652694 -0.5011206 10579563 male
0.3066529 1.006851 1.255767 0.4618962 0.7811199 -0.4201235 9269604 male
-0.007746049 0.2065681 1.095278 -0.408212 0.0383205 -0.9120827 11701888 male
0.1997719 0.5821565 1.164668 0.2108641 -0.5750263 -0.7904944 11169117 male
0.2930262 0.3701355 1.625374 0.9265612 0.3683522 0.07616472 9329747 male
0.01617583 -0.3244137 1.539447 -0.7091913 0.6367559 0.3026381 11764857 male
0.1229292 0.09374113 1.378729 -0.4547094 -0.4242324 -0.7831134 9737108 male
0.0430224 -0.2928827 1.531773 -0.6704684 0.6683509 0.3221478 12422012 male
-0.01480716 0.3117517 1.179685 -0.515247 -0.1424383 0.8451225 7820114 male
0.2815503 0.7143952 1.366286 0.8687448 0.4947677 0.02207857 12218733 male
0.3235853 -0.1832267 1.207635 0.7409059 0.1118343 -0.6622323 9592664 male
-0.1120061 -0.5062765 1.606238 0.2588523 0.2088806 0.9430614 10976121 male
0.2173163 0.4882766 1.510014 0.1102394 -0.1213734 0.9864664 11630705 male
0.09147736 0.1261496 1.468449 -0.8524626 -0.2881646 0.4361983 12566719 male
0.1443655 0.7627327 1.315203 -0.6801231 0.7197227 0.1393982 11761786 male
0.2068086 1.001411 1.242218 -0.3565038 0.6392061 -0.681411 8811629 male
0.2174843 0.4480121 1.507584 0.07349847 -0.08381318 0.9937674 10579290 male
0.07021332 0.4184134 1.270025 -0.9400437 -0.1227878 -0.3181842 14260096 male
0.1438709 0.5254868 1.179137 -0.09182595 -0.204298 -0.9745926 11826266 male
0.1550768 0.7483874 1.216866 -0.02244272 0.7313043 -0.6816819 11435121 male
0.04447391 0.171391 1.354032 -0.9553494 -0.06992089 0.2870865 13683657 male
0.02943558 -0.05571447 1.098649 0.117559 -0.5481052 0.8281068 12419707 male
0.2533703 -0.1766519 1.316268 -0.02194615 -0.05188192 0.9984121 9790307 male
0.1156048 0.4961232 1.463794 -0.8019246 -0.06750932 0.5935989 14062203 male
0.2899444 0.03180923 1.192142 0.7226411 0.1385339 -0.6771989 10986663 male
0.2374748 -0.1687891 1.502635 0.1237294 -0.04664935 0.9912189 11830411 male
0.3265864 0.6155177 1.381804 0.9232324 0.3465636 -0.1659392 13536625 male
0.2627229 -0.3741381 1.189983 0.009364517 -0.07003781 -0.9975005 10847851 male
0.2177001 -0.414494 1.287587 -0.8036806 -0.1878193 0.564643 12025717 male
0.2041129 0.745747 1.476139 -0.2593902 0.8050907 0.5334284 11633790 male
0.0769988 0.4009272 1.349658 -0.8810158 -0.1082428 0.4605376 14589572 male
0.2798616 -0.2700403 1.298068 0.3970552 -0.1261474 0.9090843 12550271 male
-0.07699717 -0.6048119 1.529695 0.1669886 0.3088506 -0.9363366 9200215 male
0.2750912 0.5334265 1.491242 0.5336446 -0.02492722 0.8453416 12021344 male
0.08432681 0.3045476 1.375975 -0.9004531 0.3268818 0.286937 12682349 male
0.01710151 0.5269871 1.167865 -0.9437616 0.3305695 -0.00616318 12222323 male
0.2773271 0.9103854 1.372387 0.7157768 -0.5588651 0.4187283 12875897 male
-0.04143412 -0.4258178 1.584702 -0.01991721 0.1212008 0.9924283 9922925 male
0.1072371 0.0361298 1.224638 -0.8147005 -0.3816489 -0.4365863 11514026 male
0.2354066 0.7783973 1.386033 0.4008179 0.5389274 0.7408794 10972005 male
0.3513362 0.8510257 1.261937 0.9133901 -0.03832831 -0.4052773 12156791 male
0.2521789 0.5659384 1.511449 0.2200083 -0.5080842 -0.8327347 10644312 male
0.2028987 -0.1572198 1.495435 -0.419313 0.003077715 0.9078367 12685962 male
0.2594198 0.869464 1.220665 -0.16817 -0.2249055 -0.9597586 13340288 male
0.4253229 -0.706182 1.248095 0.3259912 -0.5081736 0.797176 9527393 male
0.1840796 -0.2234622 1.504884 -0.1801765 0.6001889 0.7793009 9330523 male
0.3538387 0.1533366 1.634169 -0.2968892 -0.07888039 0.9516486 10577507 male
0.2811356 -0.0726441 1.178857 0.4435239 -0.06611373 -0.8938209 9725531 male
0.2639846 0.1985112 1.245886 0.7623343 0.01702974 -0.6469595 12500926 male
0.06520071 0.2480696 1.245523 -0.8618803 0.1486572 -0.4848338 11381413 male
0.2798079 0.7347103 1.30288 0.8645426 -0.4198367 -0.2762309 14059379 male
0.1203932 0.5154223 1.469748 -0.7880319 -0.08493702 0.6097473 13734774 male
0.3221815 0.2221037 1.39099 0.9825087 -0.1185323 0.1436213 12829630 male
0.1997611 0.1511386 1.176879 0.2542362 0.152311 -0.9550736 11053477 male
0.1565448 0.4295573 1.491671 -0.4782332 -0.06190738 0.8760484 12813431 male
0.2877541 0.8178293 1.236671 0.004421969 -0.5109069 -0.8596247 12945019 male
0.3894439 -0.6680833 1.258003 0.5001718 0.5990202 0.6253025 10512746 male
0.2325608 0.3790404 1.508519 0.2472884 0.1971869 0.9486653 11961972 male
0.2845556 0.4486662 1.478589 0.660375 -0.03125035 0.7502856 12812400 male
0.3053592 0.036511 1.233323 0.9777575 0.1490049 -0.1476077 12960445 male
0.1529191 0.241448 1.180821 -0.1230437 0.2051117 -0.9709736 13026237 male
0.3118573 -0.3571219 1.24608 0.9926627 0.04971169 0.1102258 11040619 male
-0.03268243 0.3253123 1.154493 -0.9696116 -0.01393724 0.2442525 12419699 male
-0.03151517 0.267828 1.122139 -0.9557328 -0.03721847 -0.2918729 13406338 male
0.3739206 0.1855532 1.567598 -0.4154572 0.4991676 -0.7604126 12942467 male
0.2602885 -0.462549 1.204747 -0.1767588 -0.2255632 -0.9580594 14007707 male
-0.01470424 0.04540804 1.115709 0.1772742 -0.3224249 0.9298475 12291720 male
0.3127799 -0.3999209 1.223141 0.9402404 -0.009295614 -0.3403848 11699318 male
0.3197943 0.3075971 1.429296 0.8827788 -0.07305451 0.4640743 13668983 male
0.2956087 -0.1277483 1.299349 0.6276783 0.01323688 0.7783604 10249570 male
0.3240599 0.2062302 1.344606 0.9974473 -0.06888081 -0.01882887 12828867 male
0.2153941 -0.196411 1.379914 -0.09839889 -0.1666744 -0.9810899 10315877 male
0.328422 0.3137406 1.411213 0.9065326 -0.03100902 0.4209957 13537907 male
0.3117562 -0.3945465 1.257376 0.9802482 0.05111781 0.1910514 10580584 male
0.01601011 0.06006024 1.077431 -0.1456145 -0.01131223 -0.9892769 11310995 male
0.1030182 0.2899431 1.213178 -0.6032339 0.1369225 -0.7857234 10516843 male
-0.03194596 0.05154115 1.105475 -0.9474928 0.1621358 -0.2756256 10120297 male
0.2767228 0.4308816 1.485653 0.5881289 -0.01466281 0.8086345 12812144 male
0.1986463 0.8854649 1.221992 0.03567768 -0.1467159 -0.9885351 14391700 male
0.2362783 -0.1224815 1.508363 0.07793646 -0.1197032 0.989746 9529189 male
0.0712409 0.1773014 1.230347 -0.7699292 0.005742346 -0.6381036 10988704 male
0.09088857 -0.3323903 1.570381 0.2158314 -0.05426545 0.9749217 10253685 male
0.3055841 0.06308693 1.357598 0.6864437 -0.2245799 -0.691635 12500418 male
0.09800806 0.4251592 1.410922 -0.9884074 -0.1109918 0.1035949 14392449 male
0.1456581 0.7337889 1.425415 -0.7131803 0.6347566 0.2974187 13078132 male
0.2137628 -0.4430722 1.253624 -0.9623888 -0.2696203 0.0333609 9727331 male
0.1000077 0.3063414 1.426364 -0.9244599 0.2425815 0.294157 12552812 male
0.07776426 0.6956891 1.239518 -0.8764584 0.4754583 -0.07589692 13668983 male
0.1794719 -0.1705308 1.459881 -0.9461585 0.1579514 0.2825518 12356218 male
0.2154059 0.4549024 1.508154 0.06006629 -0.08494636 0.9945734 11432805 male
0.1658609 -0.05174143 1.31833 -0.6068479 -0.3284974 0.7237577 9202531 male
0.1239587 0.3629496 1.20269 -0.386273 0.1652436 -0.9074624 12025193 male
0.1618126 -0.02854073 1.193877 -0.6259759 -0.2736354 -0.7302589 11382184 male
0.3144548 -0.4016061 1.245087 0.9980851 0.0353707 0.05074537 10646376 male
0.3329129 0.3730742 1.298153 0.9324031 -0.002906749 -0.3614088 13143917 male
0.1833863 -0.1007621 1.496565 -0.5846097 -0.05854908 0.8091995 13014668 male
0.2465102 1.009703 1.239572 -0.05883383 0.743633 -0.6659945 7628123 male
0.2580872 -0.4524848 1.30692 -0.2223692 -0.1780244 0.9585717 8739932 male
0.3066717 0.02945095 1.233507 0.9798192 0.142249 -0.1404267 13157824 male
0.3066694 0.2211653 1.476176 0.8927295 0.1161845 0.4353566 11249827 male
0.2581652 -0.487544 1.212014 -0.3096213 -0.2540099 -0.9163045 10783098 male
0.04660869 0.1244846 1.104331 0.8181422 0.4370148 -0.3737134 13599100 male
0.1886593 0.1383924 1.172014 0.1273291 0.1001013 -0.9867965 11512743 male
0.1453976 0.4579874 1.488624 -0.5724266 -0.14386 0.8072375 13010039 male
0.005751108 -0.4404985 1.567729 0.5319123 -0.59224 0.6052447 9857385 male
0.2816789 -0.3108107 1.192344 0.303757 0.03303206 -0.9521768 9792096 male
-0.1055765 -0.4437384 1.55705 -0.6373707 0.5121111 -0.5757613 11499632 male
0.2477602 -0.5288702 1.234863 -0.7106676 -0.3285306 -0.6221088 10842476 male
0.1207588 0.3336043 1.200552 -0.4068006 0.0153029 -0.913389 13736831 male
0.04152017 -0.3812765 1.484715 0.0005869651 -0.5406645 -0.8412382 10582640 male
0.3325026 0.2761328 1.321852 0.9409335 -0.21958 -0.2577381 12879986 male
0.3574515 -0.6713291 1.215027 -0.2003909 0.588415 -0.7833336 7295302 male
0.3162353 0.6483397 1.410958 0.93946 0.3307705 -0.08947694 13536883 male
0.3066348 -0.03840951 1.386817 0.6860442 -0.2161761 -0.6947024 12433853 male
0.2278033 0.978466 1.37138 -0.08703277 0.3614948 0.9283034 8020578 male
0.165976 0.7102227 1.491412 -0.5962114 0.5590606 0.5761799 13472124 male
0.08765163 0.05046364 1.29415 -0.7853015 -0.5961675 0.1669916 13222849 male
0.3843389 -0.7172266 1.23984 0.1805745 -0.9486139 0.2598546 10841459 male
0.1189796 0.7464517 1.251378 -0.7165485 0.6723461 -0.1857662 10975085 male
0.2739494 0.4061864 1.632208 0.8641977 0.4346006 0.2535446 8740178 male
0.040068 0.5831612 1.154794 -0.9262011 0.329472 -0.1833029 13735042 male
-0.0004890524 0.07297248 1.083379 -0.3680004 0.01751081 -0.9296609 16639960 male
0.3632791 0.1764445 1.635084 0.2008098 -0.01462645 0.979521 9200990 male
0.2601021 -0.109579 1.318239 0.2912322 -0.04012138 0.9558108 9330013 male
0.2239657 0.1543644 1.187935 0.4744474 0.2659699 -0.8391424 10985886 male
0.1298523 0.6622737 1.478884 -0.7403042 0.2512848 0.6235428 14260100 male
0.269772 0.4035686 1.225569 0.4971487 -0.06139385 -0.8654907 13535854 male
0.3513483 0.8429697 1.283109 0.8739965 -0.4355862 0.215395 12747648 male
0.1334628 -0.2614557 1.43945 -0.5146493 0.3118948 -0.7986601 11631471 male
0.3491575 0.2575959 1.612904 0.8538032 0.5200338 0.02418995 8548200 male
0.3250004 0.1687852 1.35458 0.9906561 -0.008468515 0.1361208 13289414 male
0.3109478 0.5046804 1.298609 0.9373813 0.1022388 -0.3329623 12155505 male
0.1890751 -0.08299914 1.377306 -0.502736 -0.1520514 -0.8509623 10120289 male
0.2102965 0.1257521 1.53093 -0.06828553 0.01994751 0.9974665 10721946 male
-0.02740186 0.2552342 1.112854 -0.870931 -0.04097176 -0.4896944 12091504 male
0.03739895 -0.04822125 1.094486 0.9564031 -0.1115481 0.2699078 12221813 male
0.3236724 0.8063329 1.319065 0.4509298 -0.6498466 0.6118511 10842724 male
0.05357658 0.2233206 1.366243 -0.9368955 0.2169445 0.2741573 12828861 male
0.0392415 0.2589625 1.12233 0.9784049 -0.09639882 -0.182843 12481895 male
0.4287874 0.07243388 1.593289 -0.8545898 -0.4134835 -0.314178 11499376 male
0.166483 0.2704486 1.188696 0.04961352 0.2665193 -0.9625519 10526358 male
0.2604776 0.3536969 1.654632 0.07902844 0.05969827 0.9950834 10908003 male
0.06237574 0.2876931 1.300368 -0.958904 0.2827997 0.0229736 12891054 male
0.1439888 0.0624565 1.356621 -0.1898733 -0.3902607 0.9009134 9736340 male
0.1626146 0.5394322 1.176692 -0.01544442 -0.1926358 -0.9811489 11498336 male
0.1514316 0.6787972 1.128879 0.1550275 0.674458 -0.7218539 10051913 male
0.1683216 -0.2167207 1.485008 -0.5424856 0.7704465 0.3348456 10710367 male
0.2702208 1.028308 1.283759 0.2112757 0.9725367 -0.09764683 7496026 male
0.07693084 0.4535852 1.130721 0.6376417 -0.2727841 -0.7204179 11761503 male
0.2146316 -0.2395063 1.267441 -0.8484997 -0.06789637 0.5248224 11171697 male
0.2163103 -0.2704072 1.413839 -0.01701113 -0.5018074 -0.8648123 9659997 male
0.3233543 0.3800136 1.276701 0.8692501 0.02046717 -0.4939491 13931894 male
0.1696152 -0.1225201 1.248873 -0.9240723 -0.3736735 -0.08036536 12422271 male
0.1879048 0.9986717 1.253568 -0.5781785 0.5993031 -0.5536656 8418159 male
0.182922 0.7085536 1.508267 -0.4831751 0.6011873 0.6364871 13339509 male
0.1161113 0.4935322 1.191565 -0.387448 -0.2861574 -0.8763551 11567207 male
0.2529289 -0.1552498 1.185549 -0.08699252 -0.1175854 -0.9892453 11109487 male
0.2547878 -0.4318353 1.198696 -0.1813038 -0.2101006 -0.9607221 12231561 male
0.2864338 -0.1763096 1.401363 0.6815767 -0.2694444 -0.6803331 12222323 male
-0.008423405 0.2144629 1.154364 -0.3242747 -0.3119641 0.8930423 10782075 male
0.2845102 0.03195995 1.353477 0.4926579 -0.2478408 -0.8341843 11381421 male
0.2067551 0.7334922 1.494384 -0.2499535 0.7864767 0.5647811 12093048 male
0.03961769 0.3564197 1.111845 0.82724 0.005177626 -0.5618252 9392965 male
0.2116734 0.7736736 1.257209 -0.203953 0.002265685 -0.9789782 12420722 male
0.3004262 -0.3271959 1.27533 0.8524358 0.04258748 0.5210949 10513765 male
0.1288271 0.1618371 1.512174 -0.4753001 0.0009674137 0.8798233 10853796 male
0.4785273 -0.6962258 1.171004 -0.316701 0.8325607 -0.4544703 9529187 male
0.2071439 0.4982908 1.537965 -0.1792537 -0.4070687 -0.8956358 12416619 male
0.1817201 0.4899959 1.55478 -0.7308252 -0.343838 -0.5896356 10379345 male
0.1778003 0.4443435 1.623251 -0.8138354 0.08685672 0.5745679 12548972 male
-0.09651549 -0.5956435 1.533367 -0.3093795 -0.0001632471 -0.9509388 11170416 male
0.1840468 0.38033 1.614515 -0.8938837 -0.4379511 0.09576499 10118232 male
