# .PCD v0.7 - Point Cloud Data file format
VERSION 0.7
FIELDS x y z normal_x normal_y normal_z rgb label
SIZE 4 4 4 4 4 4 4 4
TYPE F F F F F F U U
COUNT 1 1 1 1 1 1 1 1
WIDTH 195
HEIGHT 1
VIEWPOINT 0 0 0 1 0 0 0
POINTS 195
DATA ascii
-0.6881924 -0.6546103 1.574111 -0.1109386 0.1733023 0.9786006 10843500 male
-0.5797907 0.6144757 1.341001 -0.7719858 -0.5573741 -0.3055687 12092272 male
-0.6670004 -0.2295783 1.670961 -0.08698542 -0.01367644 0.9961158 12225946 male
-0.7418601 -0.4374802 1.508666 -0.9901093 -0.139044 -0.01872331 12421243 male
-0.4377046 0.7573568 1.577286 0.3969454 0.07086857 0.9151022 11103591 male
-0.5815843 -0.0775412 1.518125 0.7239098 -0.0733762 0.6859816 11695213 male
-0.5904135 -0.1805451 1.513648 0.8191896 -0.1353928 0.5573126 10710378 male
-0.5582321 -0.6965907 1.571818 0.01685117 -0.1302512 0.9913379 8739416 male
-0.7009223 -0.2056076 1.447894 -0.685962 0.02908766 -0.7270558 11564142 male
-0.761799 0.2688003 1.61489 -0.9006901 0.3783871 0.2134966 12827832 male
-0.7282266 0.1833598 1.390157 -0.5754514 0.06612502 -0.8151585 10592670 male
-0.6805117 -0.5153393 1.482468 0.2026278 -0.3042331 -0.9307978 12560270 male
-0.5899848 -0.1115249 1.671681 0.5252693 -0.2890983 0.8003216 9198418 male
-0.4320996 0.6979797 1.446931 0.9093107 0.2838444 -0.3042807 11431265 male
-0.4986169 0.1222553 1.277493 -0.3094212 -0.4224972 0.8519125 13205634 male
-0.4454369 0.9248812 1.449865 -0.6561495 0.07350239 -0.7510431 7233879 male
-0.6444029 0.4908082 1.829077 -0.6610667 0.3672427 0.6543117 13009523 male
-0.5703341 0.4248278 1.689603 0.0735895 0.02937508 0.996856 13735557 male
-0.4617216 0.54189 1.374924 0.418719 -0.3280475 -0.8467937 11694947 male
-0.7012908 -0.0111686 1.408649 -0.670781 -0.1666211 -0.7226966 11317164 male
-0.6872647 0.4620796 1.571427 -0.9855363 0.1471804 -0.08400202 14589572 male
-0.6343541 0.03561366 1.551539 0.04512871 -0.03393948 0.9984046 10852005 male
-0.712127 -0.09839596 1.621202 -0.9931787 -0.1117029 0.03344619 12684927 male
-0.3164747 0.9825646 1.470778 0.5079062 0.7158849 -0.4791037 7694696 male
-0.5595945 0.2406032 1.206316 0.3728112 0.06180307 -0.9258468 16247766 male
-0.5200207 0.5212037 1.359431 0.2572452 -0.2307676 -0.9383878 11892067 male
-0.6221204 0.564573 1.786273 -0.8033547 0.4406302 0.4005827 13535867 male
-0.7281223 -0.5502276 1.577465 -0.8488951 0.03844229 -0.5271618 11170928 male
-0.6692858 0.07534791 1.540117 -0.2406307 -0.02823207 -0.9702061 11445413 male
-0.7452683 -0.3740767 1.611269 -0.9994667 -0.001450162 -0.03262758 12554632 male
-0.6180133 0.2956498 1.268934 -0.6457197 -0.3343743 0.6864693 10382962 male
-0.6076645 0.3410083 1.367715 0.0523401 -0.1028543 -0.9933186 13539189 male
-0.6264039 -0.2527261 1.449143 0.4544845 -0.2055136 -0.8667227 8871509 male
-0.7391055 -0.6551954 1.591219 -0.6980098 0.2989382 0.6507061 11301241 male
-0.6289884 0.4954119 1.670641 -0.5911852 0.009312816 0.8064823 12418927 male
-0.7725938 0.1723492 1.585091 -0.956527 -0.2741673 -0.09944189 12500923 male
-0.5156635 0.7838911 1.486023 -0.4917843 0.8587807 -0.1436798 12288898 male
-0.4526884 0.9207286 1.455996 -0.7298934 0.05874219 -0.6810324 7562586 male
-0.6342261 0.4563781 1.66949 -0.545743 0.1296341 0.8278646 12418419 male
-0.6219695 0.406124 1.375875 -0.2149952 0.1843453 -0.959059 12747109 male
-0.5673946 0.5145721 1.353871 -0.02558442 -0.2553398 -0.966513 13012592 male
-0.4853921 0.763172 1.406839 0.3498136 0.7379089 -0.5771663 11369842 male
-0.777942 0.2260379 1.497607 -0.9910518 0.1324757 0.01633382 13880523 male
-0.4919027 0.002754923 1.243794 -0.1815675 0.1177958 0.9762979 12223873 male
-0.7090405 -0.1768963 1.521653 -0.9229285 0.01301911 0.3847515 12222329 male
-0.6792891 0.4966656 1.566765 -0.9821414 0.1546671 -0.1071295 14261119 male
-0.5729756 0.05789415 1.533052 0.6319029 -0.1284756 0.7643253 11381421 male
-0.6533028 -0.2335036 1.669075 0.1593885 -0.06787815 0.9848797 12554662 male
-0.4333163 0.4448503 1.501344 0.9936129 -0.04074996 -0.1052285 14061427 male
-0.7205163 -0.3284643 1.448644 -0.581892 0.02323906 -0.8129342 11499883 male
-0.7352839 -0.3806618 1.544222 -0.7995087 0.03096537 0.5998561 11369335 male
-0.5385248 0.7595344 1.645023 -0.3146638 0.8872414 0.3373269 11368291 male
-0.6762245 0.5238668 1.47403 -0.9785849 0.2058335 0.002050936 14589055 male
-0.5626568 -0.07315835 1.446498 0.9020571 -0.2996878 -0.3106134 11827563 male
-0.5571998 -0.6835576 1.550025 0.1740393 0.7703258 -0.6134399 6049616 male
-0.6011117 0.565818 1.68645 -0.479284 -0.06692935 0.8751043 11894123 male
-0.7108005 0.3071497 1.40504 -0.6703041 0.3723559 -0.6419063 11316131 male
-0.6166927 0.5341867 1.266248 -0.7688304 0.3635009 -0.5260866 12882044 male
-0.3566754 0.8658507 1.580898 0.1033807 -0.03499097 0.9940263 12222838 male
-0.728352 -0.5847089 1.597885 -0.8487659 -0.1184031 0.515342 11303026 male
-0.6984749 0.09397788 1.374336 -0.4740878 -0.1548708 -0.8667503 11184291 male
-0.4197027 0.8504654 1.571155 -0.2958395 -0.04190706 0.954318 11565170 male
-0.3136846 0.786298 1.487791 0.6524833 -0.3748713 -0.6585873 13272447 male
-0.5723518 0.4858373 1.821292 0.9444979 -0.1062559 0.3108594 12551279 male
-0.7028758 -0.238521 1.653238 -0.7014932 0.2215692 0.6773584 9659484 male
-0.3757147 0.8426665 1.436478 0.0228912 -0.1925837 -0.9810136 12946819 male
-0.5766375 -0.6865585 1.570202 0.05027617 0.1550336 0.9866292 10841451 male
-0.7112494 -0.2302668 1.635567 -0.9190919 0.2311248 0.3191418 10512734 male
-0.4922788 0.09952296 1.885982 -0.05343873 -0.181659 -0.9819086 12745090 male
-0.6513348 -0.1533081 1.422599 -0.005273949 -0.1940269 -0.9809822 13608602 male
-0.5406721 0.1728667 1.462966 0.9345567 -0.1031333 -0.3405399 12697789 male
-0.7290828 0.3324279 1.511174 -0.810876 0.5846335 -0.02615118 12433330 male
-0.4312353 0.6065481 1.398979 0.9678352 -0.01411898 -0.2511892 13141099 male
-0.6700541 0.5333774 1.55285 -0.9696913 0.1603978 -0.1843136 14195579 male
-0.596239 0.288156 1.704968 0.3277366 0.2372576 0.9144932 12170421 male
-0.5942594 0.18496 1.367368 0.5136158 -0.0721796 -0.854979 11512999 male
-0.671397 0.4318987 1.650135 -0.7312493 0.3417531 0.5903214 12551281 male
-0.3567753 0.7799168 1.463771 0.01866863 -0.6376688 -0.7700844 12222579 male
-0.6036218 -0.6610959 1.563166 0.3187498 0.64069 0.6985091 10512746 male
-0.5770591 0.4968342 1.690634 -0.1325982 -0.05446004 0.9896727 13144202 male
-0.5335113 0.4013777 1.678983 0.4348903 -0.06836324 0.8978849 13140848 male
-0.5896478 0.05247984 1.54242 0.4436324 -0.07411486 0.8931391 10855330 male
-0.6130078 0.2511768 1.359892 0.1951308 0.1043461 -0.9752108 12697273 male
-0.6396055 -0.3085243 1.454045 0.6724755 -0.1054399 -0.7325704 9988446 male
-0.6493022 0.3736842 1.247683 -0.9804438 -0.1836969 -0.07060987 12025202 male
-0.5962984 0.2504838 1.210057 -0.5556655 -0.2125809 -0.8037697 12616830 male
-0.4904483 0.158687 1.896841 0.6310267 0.2747797 0.7254664 11306639 male
-0.7343544 -0.3828512 1.463487 -0.7451028 -0.1282966 -0.6544937 11961211 male
-0.5631684 0.1289523 1.209391 -0.5361221 0.009795068 -0.8440839 9330780 male
-0.7353036 -0.3450291 1.461217 -0.7861952 0.01426952 -0.6178138 13145219 male
-0.4973291 0.3809212 1.649287 0.6603634 -0.188486 0.7269067 13799547 male
-0.6543657 -0.2023574 1.551608 0.2871262 -0.0898452 0.9536701 8999250 male
-0.4794313 0.2598778 1.517538 0.863779 -0.4975532 -0.07954156 12551788 male
-0.6402959 -0.1590688 1.550306 0.2369042 -0.07667731 -0.9685026 10315877 male
-0.5108712 0.3205752 1.647638 0.6748308 -0.1830261 0.7149162 13538171 male
-0.6584097 -0.3797409 1.546596 0.7164816 0.02813752 0.6970384 11368819 male
-0.5079646 0.09312495 1.212041 0.4554685 0.009049363 -0.8902061 11047823 male
-0.5771258 0.3297406 1.375098 0.3065149 -0.1892079 -0.9328715 12155239 male
-0.5575439 0.0275143 1.210725 0.4051407 -0.2045908 -0.8910689 13611948 male
-0.5365204 0.3699044 1.677876 0.5291238 -0.05977127 0.846437 13010031 male
-0.4040275 0.8751419 1.426382 0.9327165 -0.3483854 -0.09310114 11888233 male
-0.7192327 0.05996594 1.669145 -0.8488697 -0.1749989 0.4987943 12170169 male
-0.5770702 0.3526722 1.372817 0.2987804 -0.0365551 -0.9536216 12155231 male
-0.6279117 -0.3548243 1.643577 0.8809106 -0.145484 0.4503679 10909548 male
-0.5338717 0.08498632 1.589216 0.9259126 -0.1837287 -0.3300451 13618633 male
-0.6560043 0.6014943 1.57649 -0.9775919 0.2103931 0.007009923 14984068 male
-0.6476614 0.6405862 1.587249 -0.9678168 0.250563 0.02343076 14786692 male
-0.7366562 -0.4751759 1.511939 -0.9886529 -0.1360464 -0.06369466 12093305 male
-0.6733282 0.5015724 1.606148 -0.9423798 0.1580582 0.2948527 13866099 male
-0.6102938 0.7045916 1.433064 -0.7829005 0.6058778 -0.1413469 15180934 male
-0.6954645 -0.2378704 1.579065 -0.7779532 0.0634531 -0.6251101 12222328 male
-0.6479701 0.4906869 1.653219 -0.753926 0.04800775 0.6552032 12879993 male
-0.7225752 0.06161584 1.517518 -0.7855691 -0.1278459 0.6054229 10853021 male
-0.67416 0.4353202 1.417416 -0.7768214 0.2153789 -0.5917437 13801079 male
-0.689081 -0.01073834 1.397782 -0.5242388 -0.2086356 -0.8256181 11119781 male
-0.6520585 -0.3884146 1.536227 0.8001139 -0.01886715 0.5995515 10580329 male
-0.4700002 0.3147209 1.470598 0.8404645 -0.2362956 -0.487631 13471090 male
-0.7063395 -0.1214291 1.598195 -0.9671843 -0.07122006 -0.24389 11697522 male
-0.3724154 1.009668 1.476758 0.09704285 0.9187304 -0.3827757 9991027 male
-0.7248096 -0.5176291 1.54881 -0.8001671 0.02200779 0.5993734 10712437 male
-0.5426296 0.03678679 1.479031 0.9598497 -0.1254846 0.2508833 12698303 male
-0.6953747 0.3218669 1.676966 -0.5697895 0.4025531 0.7164434 10853020 male
-0.7294805 -0.5528486 1.526452 -0.9716483 -0.1430592 -0.1882387 10453618 male
-0.5197487 0.1568451 1.21847 0.736749 0.1597847 -0.6570159 9133394 male
-0.5833852 0.1834788 1.376476 0.6448191 -0.04247455 -0.7631543 10723998 male
-0.6892057 0.4510804 1.576603 -0.9869764 0.1572991 -0.03368634 14589316 male
-0.6661337 -0.5911409 1.61085 0.5302026 -0.1226102 0.8389591 10842224 male
-0.7136724 -0.2684053 1.449151 -0.6603613 0.1518736 -0.7354301 11234403 male
-0.7429353 -0.3338919 1.61847 -0.9898751 0.1411806 0.01468855 12684417 male
-0.6995579 -0.5158273 1.483835 -0.2217973 -0.3303949 -0.9174123 8741723 male
-0.6748369 0.3386846 1.386161 -0.5563914 0.1257554 -0.8213491 12747379 male
-0.6560251 -0.5275617 1.588411 0.9151834 -0.02524115 -0.402247 12617344 male
-0.4672504 0.289553 1.574316 0.9095653 -0.3652825 0.198141 14061945 male
-0.6161008 -0.6858188 1.503078 -0.05846451 0.4664024 -0.8826386 10058614 male
-0.426677 0.6353074 1.632311 0.971119 0.09837699 0.2173706 13536883 male
-0.5708316 -0.02186488 1.569978 0.66638 -0.1607693 -0.7280735 9930625 male
-0.4120976 0.9635081 1.573464 -0.3452496 0.3935063 0.8520304 8086371 male
-0.6137531 0.7112117 1.60187 -0.8002928 0.5890889 0.1118297 15313806 male
-0.7560408 0.1239703 1.430397 -0.859908 -0.3296636 -0.3897183 13422020 male
-0.5825673 -0.7156044 1.537108 -0.007337803 -0.9706139 0.2405304 10447470 male
-0.5058159 0.7746687 1.42414 -0.1256541 0.8920798 -0.4340562 11633277 male
-0.6193241 0.5328976 1.818985 -0.442601 0.4713786 0.7628282 11364698 male
-0.5797387 0.6080308 1.271171 -0.6421978 0.3628741 -0.675207 13142648 male
-0.5233083 0.06817931 1.209809 0.2203844 -0.2062048 -0.9533681 10981770 male
-0.4749687 0.06150099 1.888006 0.6348323 0.1391772 -0.7600117 13864597 male
-0.629898 -0.07065482 1.544399 0.2353691 -0.004564531 0.9718955 8672076 male
-0.571263 0.1618768 1.390334 0.7296821 0.01355299 -0.6836523 10394782 male
-0.6393231 0.6617925 1.609735 -0.9312283 0.3198605 0.1746525 15115651 male
-0.5356331 0.4352463 1.377465 0.3430533 -0.1915612 -0.9195755 12221542 male
-0.2972159 0.7966259 1.514765 0.7484847 -0.5780739 0.3249635 13141379 male
-0.6907982 -0.2433503 1.573751 -0.6663969 0.02876525 -0.7450421 10973803 male
-0.566348 0.2504278 1.892407 -0.5039105 -0.03253821 0.8631429 11177862 male
-0.4565191 0.3201958 1.51581 0.9525417 -0.2991612 -0.05627704 13340787 male
-0.4411107 0.4430806 1.46875 0.9406058 -0.1118335 -0.3205534 12813152 male
-0.6922968 -0.006511144 1.558068 -0.6101865 -0.1012859 -0.7857569 8616571 male
-0.686346 0.1615997 1.715257 -0.33762 0.03093971 0.940774 10721946 male
-0.5749657 0.2663237 1.202626 0.1158207 -0.02581553 -0.9929347 11636352 male
-0.4852911 0.01253242 1.239919 0.8202716 0.2512738 0.5138252 11824492 male
-0.3478725 0.756677 1.528567 -0.02875121 -0.881355 0.471579 10580071 male
-0.7703876 0.2251345 1.446684 -0.9133345 0.1648056 -0.3723702 12237234 male
-0.6014665 0.375054 1.205597 -0.1457482 0.1349946 -0.9800686 10248538 male
-0.5212724 0.1791601 1.841817 -0.564724 -0.346687 -0.7489293 13009531 male
-0.5319847 0.3158606 1.406501 0.6073785 -0.2473317 -0.7549295 13011563 male
-0.5880468 0.3038719 1.884021 -0.4593213 -0.08383761 0.8843051 12090737 male
-0.7002959 0.3178907 1.400552 -0.6392419 0.3558546 -0.6817166 11644329 male
-0.6825694 0.1096692 1.544843 -0.2336123 -0.127623 0.963918 9209737 male
-0.5328885 0.5251993 1.355799 0.2050158 -0.2268169 -0.9521149 12219232 male
-0.5020054 0.7025449 1.31299 0.04219365 0.7971354 -0.6023246 9794915 male
-0.7347404 -0.3841789 1.576595 -0.8227065 0.01302987 -0.5683172 12224384 male
-0.3174627 0.9945542 1.502638 0.533873 0.8446478 -0.03936863 7101786 male
-0.5451623 0.4679464 1.283902 0.9016013 -0.4263428 0.07312536 13670008 male
-0.6199305 -0.127885 1.41729 0.2421084 -0.3179377 -0.9166784 12293249 male
-0.5929974 -0.2481133 1.63486 0.8249516 -0.3979824 0.401329 9329242 male
-0.4375682 0.3865016 1.547496 0.9872772 -0.149139 0.05514985 13800567 male
-0.7011483 -0.03212895 1.414196 -0.6658468 -0.1681455 -0.7268942 11184545 male
-0.4420211 0.9209506 1.447005 -0.6178047 0.04111019 -0.7852564 7759452 male
-0.4988711 0.7452813 1.68561 0.1526073 0.8834012 0.4430727 11372682 male
-0.513985 0.5628844 1.355078 0.2322918 -0.3956888 -0.8885219 11038558 male
-0.5982398 -0.1238361 1.427433 0.5612714 -0.3376643 -0.7556173 9791315 male
-0.7460798 -0.3704337 1.478863 -0.9337021 -0.05444552 -0.3538874 11699578 male
-0.5767493 -0.1453782 1.587988 0.8277451 -0.142994 -0.5425782 11893107 male
-0.6049243 0.2337498 1.233951 -0.9192177 -0.3908307 -0.04785854 11369075 male
-0.5316405 0.07018218 1.59911 0.9446577 -0.1428966 -0.2953009 13355976 male
-0.5689344 0.7243313 1.68405 -0.5817533 0.6859411 0.4370905 13076340 male
-0.5525315 0.328162 1.235363 0.9950764 0.09416476 -0.03092277 10117454 male
-0.4335495 0.7924666 1.451449 -0.04248609 -0.06422792 -0.9970306 13738383 male
-0.6631787 -0.3633367 1.54933 0.6304024 0.0750384 0.7726334 11040111 male
-0.736527 0.2894968 1.651487 -0.763235 0.390927 0.5144402 10788251 male
-0.5042785 -0.6940483 1.531218 0.06984542 0.9379047 -0.3397889 8542293 male
-0.5888371 0.4196114 1.800238 0.6838798 -0.06135222 -0.7270107 13273719 male
-0.553663 0.6184849 1.700324 -0.1013389 -0.8397409 -0.5334471 12022123 male
-0.631291 0.4021448 1.861005 -0.6829743 0.001213304 0.7304415 11367271 male
-0.5469314 -0.6954241 1.602854 0.1994087 0.9368379 0.2873516 9203034 male
-0.6312305 0.5123736 1.759597 -0.7742076 -0.1957266 -0.6019085 9395543 male
-0.7117774 0.3505683 1.446836 -0.8926901 0.3775673 -0.2460642 13077875 male
