# .PCD v0.7 - Point Cloud Data file format
VERSION 0.7
FIELDS x y z normal_x normal_y normal_z rgb label
SIZE 4 4 4 4 4 4 4 4
TYPE F F F F F F U U
COUNT 1 1 1 1 1 1 1 1
WIDTH 195
HEIGHT 1
VIEWPOINT 0 0 0 1 0 0 0
POINTS 195
DATA ascii
-0.6872403 -0.6767576 1.57502 0.01435534 0.2928294 0.9560571 8148055 male
-0.6011431 0.6003956 1.348474 0.03967784 -0.6986142 0.7143977 10513767 male
-0.6306979 -0.2093907 1.678138 0.08976307 -0.07962257 0.9927754 10711921 male
-0.7252299 -0.4443308 1.50343 -0.9901474 -0.12994 -0.05219162 12027509 male
-0.5113309 0.7851496 1.580332 0.4022522 0.1497907 0.9031922 11103591 male
-0.6594667 -0.361024 1.553178 0.4034769 0.1160726 0.9075978 10054758 male
-0.5529907 -0.1212413 1.45399 0.9036298 -0.3000044 -0.3056973 11631471 male
-0.5467224 -0.7043465 1.564496 0.04247215 -0.1443542 0.9886143 8739416 male
-0.6967057 -0.231993 1.459006 -0.8589411 0.1493836 -0.4898009 11764345 male
-0.7240005 0.3072018 1.54845 -0.8774268 0.4793742 0.01796955 13222845 male
-0.6938313 0.2518667 1.387493 -0.5996829 0.09292091 -0.7948248 11316652 male
-0.7090913 -0.5668492 1.513066 -0.815003 -0.2252285 -0.5338938 11042935 male
-0.5534971 -0.1352142 1.64939 0.8383049 -0.2638856 0.4770843 11038824 male
-0.5137089 0.7657664 1.591901 0.6924036 0.3759253 0.6158391 11169637 male
-0.4509415 0.1439978 1.309657 -0.3239669 -0.6500677 0.6873554 13205119 male
-0.5582868 0.9441158 1.447602 -0.6713087 -0.1063974 -0.7335014 7233879 male
-0.6311463 0.4981616 1.821766 -0.56493 0.275327 0.7778492 11693663 male
-0.5743542 0.3461529 1.69663 0.228639 -0.07523172 0.9706001 12288107 male
-0.5578558 0.5116135 1.362612 0.2538034 -0.2329111 -0.9387952 11232607 male
-0.6900361 -0.04793811 1.427448 -0.8103768 -0.1182943 -0.5738432 11306875 male
-0.6957589 0.4310612 1.583716 -0.9995754 -0.01019914 0.02729958 14457728 male
-0.5991602 0.09413511 1.544968 0.1193203 0.1139315 0.9862974 12366268 male
-0.6471613 -0.1010777 1.683097 -0.3522648 -0.151206 0.9236051 9856870 male
-0.4445655 1.029044 1.462071 0.3337459 0.7810426 -0.5278126 7694696 male
-0.5273141 0.2689911 1.247951 0.8567372 0.3495717 -0.3792113 8473923 male
-0.5330896 0.6162825 1.351112 0.3373215 -0.8004345 -0.4954987 10183769 male
-0.6092103 0.4579131 1.850101 -0.3077402 0.1961571 0.9310309 12223864 male
-0.7231644 -0.5514814 1.599794 -0.9999801 -0.00467163 0.004275322 12686983 male
-0.6433544 0.06863809 1.540044 -0.2565887 -0.03659304 -0.9658278 11445413 male
-0.7222192 -0.4538395 1.596786 -0.9415927 -0.06143773 -0.3311026 11830394 male
-0.6288244 0.3194227 1.283336 -0.8285164 -0.4068364 0.3847661 8739680 male
-0.5357815 0.3565152 1.388378 0.5697352 -0.03582617 -0.8210472 12025183 male
-0.5637269 -0.1913207 1.489766 0.974625 -0.1529497 0.1634406 10513510 male
-0.699572 -0.6395054 1.622522 -0.3805091 -0.08208146 0.9211274 12551557 male
-0.6504127 0.5253741 1.672311 -0.6120207 -0.1150284 0.7824317 12419438 male
-0.7453943 0.1536048 1.617574 -0.9422299 -0.3109471 0.124559 12764098 male
-0.6049665 0.787773 1.505804 -0.7127714 0.6987921 -0.06038666 12223611 male
-0.5143167 1.00887 1.433185 -0.229397 0.487116 -0.8426715 9404022 male
-0.6323894 0.4790718 1.679062 -0.4507096 -0.09754829 0.8873249 12155755 male
-0.6592885 0.40072 1.388766 -0.552282 0.2218292 -0.8036023 13010027 male
-0.5771176 0.5527368 1.35323 0.19188 -0.1847417 -0.9638739 11826266 male
-0.594643 0.751238 1.368969 -0.3018326 0.7747341 -0.5555936 11965829 male
-0.7528309 0.1768999 1.518137 -0.9639725 -0.1897648 0.1864045 12368828 male
-0.4380672 0.03392087 1.274308 -0.8571055 -0.3786264 0.3493028 11510432 male
-0.684888 -0.1993598 1.524165 -0.89454 0.01179115 0.4468327 12682881 male
-0.6967156 0.4828126 1.572453 -0.9975177 -0.03332673 -0.06203198 14326912 male
-0.523023 0.06924349 1.501492 0.8889683 -0.1595506 0.4292777 12436413 male
-0.6733925 -0.2238972 1.663272 -0.6270556 0.1756672 0.7589088 10710121 male
-0.4423457 0.5827932 1.591094 0.9892274 0.1439414 0.02665299 13207912 male
-0.6393103 -0.4079469 1.453784 0.5219949 -0.245911 -0.8167309 9465189 male
-0.7201701 -0.4090946 1.537676 -0.8508862 -0.06261367 0.5216057 11106155 male
-0.6199181 0.7175507 1.704041 -0.6323099 0.5382777 0.5571728 12813686 male
-0.700445 0.5375299 1.475296 -0.9993098 0.03527438 0.01165974 14064763 male
-0.5594054 -0.06071299 1.516421 0.6903346 -0.1120674 0.7147582 11366252 male
-0.4871838 -0.7029393 1.589434 0.1477338 0.9551675 0.2565733 8086874 male
-0.6639751 0.6446619 1.667496 -0.8437536 0.05030075 0.5343687 13012079 male
-0.7262433 0.2983143 1.465736 -0.8742036 0.4600786 -0.1552287 12630199 male
-0.6396353 0.555995 1.275142 -0.7150539 0.2127716 -0.6659026 13209727 male
-0.4743564 0.9163728 1.581737 0.2720328 -0.01829717 0.9621141 13007483 male
-0.7119809 -0.5559942 1.622854 -0.6924372 -0.189378 0.6961803 11370616 male
-0.6963394 0.05414559 1.404844 -0.7943332 -0.2141357 -0.56849 10658974 male
-0.514743 0.882614 1.571956 -0.2556228 -0.06339009 0.9646963 11565170 male
-0.400929 0.8334324 1.489388 0.7434381 -0.3395135 -0.5762209 13865865 male
-0.581383 0.6029117 1.704715 0.1147825 -0.5999044 -0.7917954 12024432 male
-0.679315 -0.2123483 1.656297 -0.7160849 0.151162 0.6814489 11302510 male
-0.4429441 0.8754392 1.440107 0.2142154 -0.2645343 -0.9402838 14522249 male
-0.5380089 -0.7211878 1.547776 0.04471981 -0.9250626 0.3771729 7952722 male
-0.6739305 -0.3036537 1.681462 -0.1543744 0.09982855 0.9829562 10120812 male
-0.4681334 0.2008723 1.821875 -0.6034082 -0.1249161 -0.7875879 13010558 male
-0.5707843 -0.118101 1.422278 0.612344 -0.3492239 -0.7092797 10053207 male
-0.5113332 0.1581028 1.472569 0.9461995 -0.08108193 -0.313261 12764350 male
-0.722743 0.3103299 1.511563 -0.8747842 0.4844387 -0.008486211 12630968 male
-0.4792672 0.7361718 1.52951 0.9711053 -0.2351886 0.04051119 14190973 male
-0.6953294 0.4843779 1.564172 -0.9904572 -0.03623142 -0.1329737 14392193 male
-0.5718928 0.2855394 1.701484 0.3762831 0.2560702 0.8904153 12038316 male
-0.6451657 0.103522 1.361604 -0.2229787 -0.1159107 -0.9679077 11907757 male
-0.6690315 0.4465176 1.647783 -0.7581854 0.08374544 0.646639 12419699 male
-0.4373666 0.8225135 1.466396 0.1787359 -0.6454466 -0.7425983 12289145 male
-0.5757557 -0.6647661 1.54433 0.3890457 0.876781 0.2826633 9132634 male
-0.5976329 0.4223577 1.688967 -0.08623946 0.1235215 0.9885876 12353909 male
-0.5302273 0.4626073 1.676967 0.4426404 -0.06249407 0.894519 12681070 male
-0.5341415 0.06080425 1.516655 0.7737188 -0.1476021 0.6160949 11579056 male
-0.5042058 0.2748792 1.433441 0.7038618 -0.2635403 -0.6596402 10910822 male
-0.6227009 -0.3303778 1.450824 0.7050564 -0.1115348 -0.7003254 9791582 male
-0.6668891 0.4305306 1.275036 -0.9986151 0.04370489 -0.02929252 11761260 male
-0.5660243 0.265462 1.22715 -0.1002335 -0.1539865 -0.9829758 8149072 male
-0.434725 0.1676425 1.873778 0.2655016 0.09403155 0.9595141 12165784 male
-0.7168577 -0.4241821 1.469116 -0.7640563 -0.1976978 -0.6141123 11566709 male
-0.5118146 0.1402514 1.236083 -0.1547418 -0.1026064 -0.9826123 9399397 male
-0.6524794 -0.4335124 1.455711 0.3496009 -0.282567 -0.8932722 10585718 male
-0.4952956 0.3584114 1.643073 0.7282987 -0.041637 0.6839939 13208443 male
-0.6381195 -0.1558958 1.548048 0.04030703 0.05255478 0.9978044 10777450 male
-0.4686063 0.2578455 1.514616 0.9119679 -0.3870161 -0.1361374 13025465 male
-0.6101075 -0.1383097 1.554175 0.212 -0.08658773 -0.9734263 9987422 male
-0.4901514 0.2859728 1.624492 0.7540174 -0.2413013 0.6109269 12552045 male
-0.6393333 -0.4554958 1.531855 0.8382134 -0.06155151 0.5418578 10448229 male
-0.4524445 0.1014769 1.24884 0.5233199 -0.03451335 -0.8514372 9075574 male
-0.4944389 0.7182034 1.619839 0.8366944 0.4770537 0.2690028 11432548 male
-0.4935912 0.05739447 1.243268 0.7080606 -0.02121778 -0.705833 13085860 male
-0.5472206 0.4300128 1.683584 0.3164215 -0.01188047 0.9485444 12812397 male
-0.5077512 0.9012133 1.427904 0.9872179 0.07845513 -0.1387295 11165535 male
-0.6640819 1.889654E-06 1.687981 -0.6082863 -0.1241254 0.7839521 9735824 male
-0.6744866 0.31813 1.390738 -0.6054677 0.193579 -0.771969 11173235 male
-0.7107184 -0.3894178 1.663627 -0.6523849 -0.1015607 0.7510523 11171696 male
-0.500321 0.07773477 1.62212 0.9967023 -0.07827502 -0.02139837 14013645 male
-0.6956593 0.5107306 1.562108 -0.9912566 -0.02797437 -0.1289494 14195838 male
-0.6487718 0.7353176 1.548275 -0.8562558 0.4747663 -0.2035273 14194813 male
-0.7172935 -0.4960646 1.532028 -0.942318 -0.03443848 0.3329429 11830650 male
-0.6854234 0.4877006 1.62232 -0.9095274 -0.04543886 0.4131531 13537395 male
-0.6437274 0.7466862 1.442944 -0.7910151 0.6014439 -0.1120738 13339512 male
-0.683461 -0.1802731 1.60848 -0.9874361 -0.0001161533 -0.1580195 12287865 male
-0.633704 0.4857943 1.678839 -0.4588306 -0.1010094 0.8827638 12024429 male
-0.6665067 0.05010902 1.539414 -0.4584368 -0.05483016 0.8870341 8683131 male
-0.7002919 0.3651364 1.440462 -0.9643366 0.09695306 -0.246283 13142635 male
-0.6983031 -0.05901505 1.443274 -0.9161888 -0.09232417 -0.3899674 10385514 male
-0.6447157 -0.4463603 1.5398 0.7563177 -0.06062853 0.6513891 10054241 male
-0.5601133 0.2700977 1.378429 0.5632709 0.1530994 -0.8119646 11315364 male
-0.6738105 -0.1856403 1.576825 -0.8300476 -0.01869026 -0.5573794 11433590 male
-0.5049858 1.043752 1.468291 -0.1108929 0.8964205 -0.4291074 9991027 male
-0.7034414 -0.5611404 1.555492 -0.4514998 0.08755796 0.887965 9923173 male
-0.5205199 0.03455814 1.48207 0.9415145 -0.1456121 0.3038879 12895681 male
-0.583194 0.2381678 1.715194 0.1916034 0.1118896 0.9750738 13024957 male
-0.6906331 -0.52123 1.482804 -0.3374104 -0.3196243 -0.8854347 9528159 male
-0.4901552 0.1603474 1.240522 0.4895248 0.1452098 -0.8598138 7563096 male
-0.6424422 0.08411474 1.362212 -0.2090409 -0.1427122 -0.9674375 11775915 male
-0.6941657 0.4531537 1.597629 -0.9794685 -0.01488328 0.2010478 13931901 male
-0.6914443 -0.5281547 1.641636 -0.2044394 -0.2641436 0.9425672 9198947 male
-0.6291311 -0.3421363 1.446471 0.6056331 -0.1093273 -0.7881981 9529693 male
-0.7277259 -0.423155 1.609804 -0.992393 -0.07252774 -0.09947914 11896440 male
-0.6741794 -0.5232103 1.478962 -0.0176253 -0.324994 -0.9455519 10980217 male
-0.6982404 0.3205535 1.417128 -0.8030578 0.2997522 -0.5150212 11831168 male
-0.6605455 -0.4610037 1.569247 0.4972821 -0.1139478 -0.8600736 10910573 male
-0.4432856 0.4515989 1.564503 0.9862561 0.0913763 0.137657 14062969 male
-0.6060964 -0.6905295 1.497319 -0.06342598 0.4851977 -0.8721012 10058614 male
-0.5417593 0.763405 1.656585 0.5276622 0.8397186 0.1282398 9199952 male
-0.5130414 -0.01168598 1.623837 0.9690853 -0.2098101 -0.129821 13948364 male
-0.5319436 0.9952795 1.568147 -0.4055483 0.3534405 0.8429772 8086371 male
-0.6702716 0.6964853 1.629362 -0.8842738 0.3560173 0.3021784 14852999 male
-0.7278313 0.1237851 1.511589 -0.6324748 -0.639594 0.4369156 10065558 male
-0.6865366 -0.6882561 1.580257 0.07042877 0.2607288 0.9628398 6439745 male
-0.5762498 0.7919539 1.434458 -0.1480008 0.8675829 -0.4747585 10714481 male
-0.6232022 0.4762989 1.837451 -0.4336144 0.2564993 0.8638211 11498599 male
-0.6102102 0.6121347 1.265769 -0.419314 0.191239 -0.8874704 11762021 male
-0.4529635 0.1609347 1.278869 0.6827973 0.5728889 -0.4534163 13335166 male
-0.4376435 0.1349429 1.851611 -0.2691844 -0.34059 -0.9008543 11172984 male
-0.6097973 -0.03537288 1.544721 0.1636025 -0.08923303 0.9824826 6767434 male
-0.5859171 0.1423234 1.360991 0.3237402 -0.06338058 -0.9440209 11578536 male
-0.6891762 0.6297498 1.617196 -0.9750876 0.01037447 0.2215779 15181444 male
-0.5716114 0.4824544 1.365742 0.180751 -0.191553 -0.9646952 11497300 male
-0.3841124 0.8529748 1.507061 0.9064532 -0.4213073 -0.0290345 14061196 male
-0.6797304 -0.2293913 1.589405 -0.8758934 0.07058035 -0.4773149 12222328 male
-0.4660714 0.2211703 1.873452 0.3602238 0.1851242 0.914313 13943998 male
-0.4444954 0.3557344 1.524002 0.988565 -0.1440992 -0.04443955 13011051 male
-0.5086753 0.4536106 1.400705 0.6044864 -0.1189426 -0.7876859 13076847 male
-0.6680696 -0.01273079 1.559985 -0.6259855 -0.1049264 -0.7727437 8616571 male
-0.6846797 -0.006385813 1.577057 -0.8334932 -0.078905 -0.5468669 11315360 male
-0.5386793 0.2928534 1.24295 0.8338624 0.258497 -0.4877018 8083268 male
-0.4342352 0.05576649 1.27536 0.1580676 0.2730908 0.9489132 11637128 male
-0.424361 0.8060888 1.531946 0.1886852 -0.8179862 0.5434119 10513510 male
-0.7524008 0.2248056 1.540932 -0.9951196 0.09197383 0.03575134 13486533 male
-0.5377241 0.3022249 1.258546 0.956652 0.2912233 0.002485871 10643030 male
-0.410219 0.1562458 1.830021 -0.06338657 -0.2785392 -0.958331 13334912 male
-0.481721 0.3375985 1.437903 0.708735 -0.08122435 -0.7007835 13077874 male
-0.5281619 0.3445599 1.864742 0.5072187 0.2549411 0.8232464 11571330 male
-0.7215099 0.2809206 1.427856 -0.8247993 0.3267833 -0.4614314 11381674 male
-0.6177121 0.06614993 1.548502 -4.261429E-05 0.02559506 0.9996725 10393758 male
-0.5652882 0.5402485 1.356866 0.2123287 -0.1663645 -0.9629328 12219232 male
-0.5456401 0.7177514 1.31609 0.2340453 0.7936162 -0.5616014 9593424 male
-0.7261512 -0.349968 1.60529 -0.9526838 0.1519032 -0.2632854 11765630 male
-0.4475268 1.042232 1.493319 0.3393083 0.9358619 -0.09503841 7101786 male
-0.5632758 0.4922988 1.292415 0.9801464 -0.1647401 -0.1103361 12879978 male
-0.5696019 -0.1095002 1.419222 0.5992019 -0.3453685 -0.7222727 10121057 male
-0.5819776 -0.2613484 1.609061 0.7468173 -0.4905943 -0.4489781 10647152 male
-0.466284 0.3263264 1.456077 0.7973801 -0.1245109 -0.5904932 13339504 male
-0.6725352 -0.01731807 1.401889 -0.6130538 -0.1804787 -0.7691507 10791073 male
-0.5293887 1.018206 1.444637 -0.3962979 0.5885927 -0.7046324 7695979 male
-0.602937 0.7198765 1.720791 -0.5337435 0.6240861 0.5706438 12551020 male
-0.6101835 0.5219252 1.356543 -0.1328934 -0.2524632 -0.9584373 11567207 male
-0.560042 -0.1103815 1.433473 0.7615343 -0.346332 -0.547832 10579557 male
-0.6962209 -0.4580315 1.463502 -0.3894621 -0.2747653 -0.8791038 8345678 male
-0.578307 -0.1516033 1.571261 0.5212833 -0.1639926 -0.8374786 9856352 male
-0.5593018 0.2043181 1.269915 -0.6664795 -0.53883 0.5152352 11896452 male
-0.5030792 0.06845367 1.607684 0.9724437 -0.1306538 -0.1930887 13552582 male
-0.5287558 0.7473577 1.690065 0.5071141 0.8395054 0.1951052 8410186 male
-0.5908054 0.4139506 1.230658 0.5205181 0.2956928 -0.8010162 11766908 male
-0.5193766 0.8244229 1.453946 -0.1005081 -0.1033441 -0.9895546 13870228 male
-0.6102408 -0.3353489 1.486855 0.9841754 -0.149115 0.09572721 12421755 male
-0.7000065 0.3262546 1.642014 -0.8215059 0.3959285 0.4103278 11775147 male
-0.5101252 -0.7000461 1.517015 0.2673528 0.9382063 -0.2197531 8282205 male
-0.6080011 0.4469852 1.765035 0.1144735 -0.3051306 -0.9454054 11890281 male
-0.6031102 0.5767851 1.710121 -0.04679439 -0.4587906 -0.8873115 12087398 male
-0.608982 0.4023224 1.854741 -0.4662774 -0.004458406 0.8846275 11958380 male
-0.4912111 -0.6979497 1.565742 -0.008473177 0.9687023 -0.248081 5592660 male
-0.6371148 0.4335449 1.777359 -0.6386678 -0.3021778 -0.7076668 12749948 male
-0.7018145 0.3541036 1.519999 -0.9535373 0.2970773 0.0501188 13341555 male
