# .PCD v0.7 - Point Cloud Data file format
VERSION 0.7
FIELDS x y z normal_x normal_y normal_z rgb label
SIZE 4 4 4 4 4 4 4 4
TYPE F F F F F F U U
COUNT 1 1 1 1 1 1 1 1
WIDTH 193
HEIGHT 1
VIEWPOINT 0 0 0 1 0 0 0
POINTS 193
DATA ascii
-0.6473649 -0.6381578 1.526721 -0.05085752 0.1598406 0.9858321 11828346 male
-0.5191988 0.4853779 1.288869 -0.331914 -0.2204123 0.9171978 12878193 male
-0.7036075 -0.2747223 1.618386 -0.7901673 0.2103462 0.5756652 11500141 male
-0.7282606 -0.3616811 1.496873 -0.8433343 0.03855602 0.5360047 11172212 male
-0.2171926 0.6828659 1.511617 -0.2027649 0.2655008 0.9425476 11498347 male
-0.5776922 -0.1080405 1.442185 0.9807903 -0.1850729 -0.06163281 11499373 male
-0.6244607 -0.5906608 1.497985 0.8034298 0.4507584 0.3889957 11433321 male
-0.4894071 -0.7013636 1.518029 0.1492468 -0.9247959 0.3499685 7034967 male
-0.5749085 -0.05715447 1.403772 0.857671 -0.2420714 -0.4536541 10974054 male
-0.7859223 0.2342006 1.586313 -0.962835 0.1811229 0.2003587 12960453 male
-0.7893208 0.2288663 1.494907 -0.9906064 0.08023971 0.1107285 12763329 male
-0.7093028 -0.495502 1.450585 -0.8075352 -0.2745545 -0.5220221 11700353 male
-0.6000736 -0.1706868 1.538029 0.4515763 -0.1629823 -0.8772206 8673618 male
-0.317416 0.6763428 1.566614 0.3160185 0.8756562 0.3651828 11041653 male
-0.6886399 0.1017598 1.196572 -0.4788528 -0.1975493 0.8553797 13336449 male
-0.1322568 0.79829 1.379109 0.02995287 0.6229396 -0.7816964 8418419 male
-0.5665243 0.4360133 1.850302 0.5113303 0.1252006 0.8502155 10319471 male
-0.5436102 0.5123119 1.626258 -0.556375 0.3556667 0.7509649 12747379 male
-0.4588636 0.4131263 1.332497 0.1290769 -0.4977173 -0.8576812 11759702 male
-0.7316281 -0.08616206 1.428474 -0.9575335 -0.1710087 -0.232133 13211015 male
-0.5688663 0.5485305 1.533688 -0.7778769 0.6283105 0.01155919 14787206 male
-0.7426134 0.1380331 1.509727 -0.09602678 -0.07846534 0.9922813 10395046 male
-0.7084147 -0.09004863 1.576218 -0.9701273 -0.1733365 -0.1697278 11893613 male
-0.04712463 0.7265943 1.402133 0.8176881 0.109648 -0.5651228 7561562 male
-0.6313527 0.2604469 1.155586 0.6947156 -0.3276628 -0.6403183 8083268 male
-0.3676235 0.4688922 1.318637 0.2836888 -0.7984251 -0.5310726 12024165 male
-0.5848074 0.5022623 1.811996 -0.1070437 0.6728685 0.7319766 9984598 male
-0.6749294 -0.5753013 1.530031 -0.2134222 0.06594897 -0.9747317 11301482 male
-0.6595891 0.04982972 1.507014 -0.1048463 -0.07349424 -0.9917691 10786452 male
-0.6880891 -0.4574058 1.531135 -0.4459056 -0.0852823 -0.8910081 9263699 male
-0.6684153 0.3075288 1.219476 -0.6076763 0.007303083 0.7941513 10183519 male
-0.7854699 0.1790864 1.399222 -0.875722 -0.01991096 -0.4824052 11381414 male
-0.582448 -0.1396499 1.435564 0.9576534 -0.1266267 -0.2585844 11170666 male
-0.5759376 -0.6714877 1.580205 0.1443947 0.701893 0.6974931 8545121 male
-0.6053469 0.3664582 1.666349 -0.06517165 0.1156544 0.9911493 12817799 male
-0.7279998 0.1781127 1.955424 0.4555712 0.0480883 0.8888998 12693156 male
-0.3122102 0.6758386 1.418314 0.04450745 0.9587699 -0.2806766 12879746 male
-0.1243777 0.7867471 1.372601 0.1203735 0.495485 -0.8602355 9404022 male
-0.62691 0.3801101 1.65981 -0.2660508 0.259174 0.9284643 11366499 male
-0.5672033 0.451133 1.339427 -0.4899237 0.09076608 -0.8670274 13010284 male
-0.4996356 0.455523 1.315621 -0.1722236 -0.2672287 -0.9481182 13407607 male
-0.3513642 0.6347497 1.312235 0.2613581 0.7383015 -0.621774 11965829 male
-0.7491662 0.3120785 1.432369 -0.7536589 0.6214614 -0.2139722 12433336 male
-0.7351015 0.06309317 1.134058 -0.02123209 -0.3579486 -0.9335 10521219 male
-0.6950777 -0.1316787 1.509097 -0.4800983 0.0669334 0.8746576 9264474 male
-0.4066941 0.6585398 1.629927 -0.3069712 0.8754511 0.3733017 13404537 male
-0.5650039 0.007293984 1.460014 0.9059359 -0.08655009 0.414475 12894140 male
-0.66183 -0.2625953 1.638578 -0.08266351 0.07937387 0.9934117 10581623 male
-0.5750942 0.3147074 1.343346 0.2492018 -0.2790391 -0.9273812 12681578 male
-0.6285189 -0.3539277 1.422731 0.8118971 -0.06984875 -0.5796072 10185827 male
-0.6956068 -0.3252228 1.513936 -0.1321479 0.1765106 0.9753877 10843499 male
-0.3036272 0.5279896 1.574859 0.9249682 -0.3278363 0.1922426 13011565 male
-0.576625 0.5210213 1.384004 -0.7545693 0.5360383 -0.3785344 13734774 male
-0.6755298 -0.3289033 1.513605 0.2457663 0.1544072 0.9569523 10777707 male
-0.4986455 -0.7044693 1.547525 0.06236313 -0.9970695 0.04430821 6971481 male
-0.3598207 0.4270862 1.606074 0.6100132 -0.5172071 0.6003174 13010547 male
-0.669546 0.4193925 1.472531 -0.8121839 0.5704354 0.1223152 14064507 male
-0.532289 0.5124411 1.232112 -0.5438113 0.7375429 -0.4003746 12222323 male
-0.1557765 0.7103584 1.52541 -0.1812935 -0.01170063 0.9833595 9984085 male
-0.723007 -0.3586171 1.600809 -0.9517109 -0.05219224 0.3025271 13079685 male
-0.6465259 0.2103906 1.325931 0.06221253 -0.03999186 -0.9972615 12763576 male
-0.2750727 0.6502792 1.525728 0.4934005 0.3341954 0.8030378 10972005 male
-0.1025838 0.5955665 1.439071 -0.628628 -0.6814899 -0.3746977 12417655 male
-0.546229 0.4640465 1.742006 0.02073141 -0.7525613 -0.6581959 13338747 male
-0.6558822 -0.2429267 1.638703 -0.03154966 0.01105535 0.9994411 11569539 male
-0.1694069 0.6761346 1.374599 -0.1196086 -0.1452624 -0.9821368 13275012 male
-0.482204 -0.7012985 1.51738 0.117102 -0.9378743 0.3266173 7035480 male
-0.7086364 -0.253855 1.588894 -0.960469 0.2774105 0.02329969 12421755 male
-0.6915461 0.1320245 1.932146 0.87279 -0.3003497 -0.384744 14056828 male
-0.7132227 -0.1819853 1.422124 -0.7995121 -0.03762669 -0.5994704 12291970 male
-0.6091547 0.1940662 1.342742 0.5858541 -0.1144526 -0.8022941 11183265 male
-0.688736 0.3409796 1.370124 -0.5856133 0.4465163 -0.6765208 10845556 male
-0.2904536 0.653406 1.550188 0.8158862 0.3781465 0.4374188 11038811 male
-0.4008423 0.665246 1.614043 -0.2578893 0.9000774 0.3512177 13340800 male
-0.5918056 0.2296499 1.678038 0.5376964 -0.01229521 0.8430492 11183522 male
-0.6051415 0.1404383 1.35167 0.5765291 -0.02325089 -0.8167458 11380646 male
-0.5753796 0.2919252 1.658826 0.5054069 0.03501802 0.8621705 7099738 male
-0.1551325 0.5988732 1.404979 0.1536541 -0.6348492 -0.7572034 14062470 male
-0.5757195 -0.6548218 1.51986 0.2374788 0.6499752 0.7218975 10512746 male
-0.5701092 0.4810971 1.625021 -0.5656671 0.3530537 0.7452342 12813424 male
-0.525613 0.3886864 1.651875 0.1802926 -0.04839203 0.982422 12617072 male
-0.5606275 0.004588306 1.445818 0.9712474 -0.09950884 0.216279 13158592 male
-0.431308 0.3068459 1.498954 0.840941 -0.5410905 -0.006295919 13668469 male
-0.6416352 -0.3252813 1.491634 0.715015 0.02445831 0.6986814 10777446 male
-0.6840476 0.3101034 1.188245 -0.9406856 0.3383971 0.02445859 12616830 male
-0.6662792 0.301008 1.14957 -0.4641965 0.2621375 -0.8460531 12089715 male
-0.6931728 0.1221642 1.938047 0.9443636 -0.3102076 0.1093103 10315887 male
-0.7345145 -0.3092144 1.454307 -0.9893996 0.1443868 -0.01552659 12289656 male
-0.7585265 0.09128218 1.15049 -0.3997194 -0.2050876 0.8934001 12225670 male
-0.6960174 -0.3592328 1.401642 -0.2634431 -0.1059923 -0.9588345 9793377 male
-0.5343863 0.3375854 1.648128 0.4486321 -0.1989109 0.8713002 13009519 male
-0.5678993 -0.03993368 1.45644 0.9429232 -0.1235173 0.3092566 11959150 male
-0.4995451 0.2258465 1.487566 0.6941771 -0.7163831 -0.07009667 12551788 male
-0.6631889 -0.2013816 1.526102 -0.3619595 -0.1565576 -0.9189534 10251621 male
-0.52005 0.3270192 1.635561 0.5259388 -0.2960686 0.7973281 13339509 male
-0.6304035 -0.485193 1.459158 0.9584286 -0.1076824 -0.2642335 11371123 male
-0.7034304 0.09797221 1.13363 0.3944724 -0.06370149 -0.9166973 12625557 male
-0.7578619 0.1996875 1.370486 -0.6306329 0.1345215 -0.764334 11052966 male
-0.7935983 0.06113986 1.13258 -0.5087029 0.382876 -0.771121 10184036 male
-0.4921038 0.407005 1.648586 0.2222103 -0.1633122 0.9612243 13009778 male
-0.1899555 0.7065682 1.360175 0.1296652 -0.3674694 -0.9209524 14391700 male
-0.6682516 -0.05307803 1.656244 -0.3517588 -0.1915957 0.9162735 9527904 male
-0.7852908 0.18369 1.501308 -0.8862516 -0.4029841 0.2283903 10196889 male
-0.6116796 -0.3970432 1.601866 0.9088682 -0.1735805 0.3792477 10252650 male
-0.5750671 0.09750723 1.520611 0.6024802 -0.1423598 -0.7853353 13025220 male
-0.4087603 0.6680098 1.598556 -0.3224492 0.8963476 0.3042819 14064259 male
-0.4923861 0.6205079 1.495421 -0.6318233 0.7332087 -0.2514046 14984068 male
-0.723335 -0.3839588 1.503734 -0.7835209 -0.03595651 0.6203244 11238265 male
-0.5954661 0.513163 1.518331 -0.8006062 0.5746495 -0.1697285 14326912 male
-0.4974199 0.5924397 1.341343 -0.7153087 0.5357155 -0.4487122 14986897 male
-0.7004939 -0.1097852 1.611189 -0.8918855 -0.1983013 0.4064691 12092799 male
-0.6290199 0.3736836 1.660688 -0.2789709 0.2104139 0.936964 11169378 male
-0.7439103 0.02275404 1.475122 -0.8986684 -0.09617692 0.4279548 9801621 male
-0.5747152 0.3918217 1.337642 -0.1230135 0.03137096 -0.9919091 13274739 male
-0.7261285 -0.1091179 1.427823 -0.9445382 -0.176456 -0.2769675 13210247 male
-0.6281108 -0.460192 1.465198 0.9956759 -0.08814654 0.02932495 11567223 male
-0.5154677 0.2795194 1.399692 0.5296328 -0.4505301 -0.7186876 13076076 male
-0.6938196 -0.1160177 1.548511 -0.8481188 -0.08102176 -0.5235744 12749704 male
-0.07311987 0.7673722 1.388119 0.6140455 0.4184851 -0.6691925 7628123 male
-0.7102641 -0.3979648 1.515759 -0.541194 -0.05843059 0.8388654 9331553 male
-0.577561 0.006624248 1.477872 0.7974207 -0.09650807 0.5956565 11184035 male
-0.7270114 0.2038505 1.669846 -0.435508 0.1426576 0.8888092 10789284 male
-0.7075797 -0.551763 1.492457 -0.9809629 -0.0987508 0.1672131 13014411 male
-0.6711717 0.14426 1.175418 0.9037814 -0.03673361 0.4264154 13995653 male
-0.6214816 0.1430514 1.342804 0.4538263 -0.05188701 -0.8895783 11775403 male
-0.5868824 0.5264241 1.544225 -0.7835214 0.6146318 0.09122616 14392193 male
-0.6558251 -0.5806217 1.583088 0.1798921 -0.1813054 0.9668338 11899017 male
-0.6198129 -0.3244273 1.443407 0.9918367 -0.05009256 -0.1172644 12026743 male
-0.6819112 -0.499567 1.53052 -0.2854102 -0.03828513 -0.9576406 10908004 male
-0.7164118 -0.4754679 1.451652 -0.8882035 -0.2472209 -0.3872682 11239284 male
-0.5173953 0.5979378 1.458374 -0.6702881 0.7270076 0.1489092 13668719 male
-0.6577638 -0.5794508 1.526992 -0.04079822 0.2204754 -0.974539 11894124 male
-0.4716541 0.2646299 1.52896 0.7819944 -0.6116428 0.1199083 14128497 male
-0.5887018 -0.6618866 1.468406 0.1342833 0.5216922 -0.8424996 7295302 male
-0.3653111 0.3959693 1.527728 0.6923633 -0.7165084 -0.08513969 13865077 male
-0.5520949 0.01199084 1.560432 0.854062 -0.1022522 -0.5100224 12433853 male
-0.1350451 0.7884018 1.508804 0.003654712 0.5334461 0.8458263 8020578 male
-0.4201519 0.6698313 1.511042 -0.3636635 0.9037226 -0.2259075 14390401 male
-0.7644774 0.1184348 1.38629 -0.812975 -0.2422575 -0.5295122 11514275 male
-0.5505172 -0.707925 1.495277 0.0137505 -0.9719718 0.2346951 10447470 male
-0.3099091 0.6595566 1.375746 0.4429099 0.7209779 -0.532937 10714481 male
-0.6106066 0.4995402 1.796614 -0.7571454 0.624652 0.1911567 13014668 male
-0.481888 0.5480058 1.235051 -0.4634393 0.6950228 -0.5496976 13735042 male
-0.7193328 0.1055144 1.12951 0.1220482 0.01163401 -0.9924561 15985881 male
-0.7039928 0.2045752 1.906404 -0.8058628 -0.2438273 -0.5395681 13008516 male
-0.6776925 -0.1844257 1.518623 -0.09292718 -0.01561042 0.9955506 11828349 male
-0.6096522 0.1101061 1.348461 0.5001877 -0.05278562 -0.8643067 11577764 male
-0.4319981 0.6695426 1.528517 -0.3917682 0.9139605 -0.1058016 14984065 male
-0.4131727 0.3483897 1.434466 0.7749388 -0.5699565 -0.2731656 13140069 male
-0.1385817 0.5799153 1.465117 0.4763818 -0.7280848 0.4929025 13535876 male
-0.6927786 -0.159599 1.559627 -0.9540204 -0.09885974 -0.2829701 12092283 male
-0.6676119 0.3854569 1.848833 -0.9048954 0.4060485 0.1276293 9528928 male
-0.476606 0.2578779 1.484898 0.7691723 -0.6374697 -0.04479402 13340787 male
-0.3384181 0.4345463 1.506803 0.8084617 -0.5559577 -0.1931341 13010539 male
-0.6644956 -0.03765816 1.518846 -0.2483864 -0.109834 -0.9624141 10120289 male
-0.7330918 0.08734483 1.645419 -0.7897134 -0.2057583 0.5779416 11249835 male
-0.6587172 0.2742125 1.142757 -0.06670116 0.07188502 -0.9951802 7885383 male
-0.7422248 -0.002478177 1.152951 0.06651358 -0.02027337 0.9975796 12157823 male
-0.1802412 0.5896153 1.494371 -0.2809099 -0.5856068 0.7603647 10842724 male
-0.7357474 0.28908 1.380554 -0.661844 0.3773111 -0.6477646 10527388 male
-0.6118885 0.3831069 1.16143 -0.1650726 0.3776583 -0.9111122 10579295 male
-0.4916082 0.5887667 1.691769 -0.6427349 0.7536284 -0.1376089 11895153 male
-0.4919713 0.2919841 1.406886 0.5261834 -0.5081632 -0.6818367 13207667 male
-0.6112014 0.3563884 1.82504 0.4352043 -0.6782092 -0.5921399 13736328 male
-0.6634089 0.3656737 1.355992 -0.5942233 0.2424932 -0.7668741 13338232 male
-0.7632358 0.1451482 1.50087 -0.3415009 -0.3635676 0.8667156 10131610 male
-0.4295427 0.472334 1.314371 0.02768026 -0.4582826 -0.8883755 11366746 male
-0.3291394 0.5172405 1.285554 0.8304311 -0.5169597 -0.207695 14062451 male
-0.6872374 -0.4089811 1.524871 -0.3474494 -0.07442755 -0.9347404 9199706 male
-0.0534386 0.7751846 1.436883 0.84513 0.5326838 -0.04476005 7496026 male
-0.4804157 0.4672328 1.208426 0.4359233 -0.2532886 -0.8636064 9001287 male
-0.6894879 -0.1168063 1.389791 -0.4252816 -0.2179592 -0.8784244 11697267 male
-0.6049711 -0.2247922 1.546311 0.5472699 -0.2154628 -0.8087469 9659997 male
-0.5946469 0.2960051 1.34369 0.2811617 -0.1550762 -0.9470479 11366237 male
-0.7227759 -0.1167025 1.423249 -0.9069261 -0.1809793 -0.3804363 12488835 male
-0.1295906 0.8037336 1.383672 0.06353109 0.689546 -0.7214501 7695979 male
-0.3072408 0.6514481 1.596893 0.7195511 0.5408998 0.4355155 11635336 male
-0.4863551 0.4587108 1.313832 -0.09516351 -0.2943752 -0.9509402 11368286 male
-0.716246 -0.195638 1.426103 -0.8586923 -0.006278713 -0.5124532 11830647 male
-0.6453732 -0.4175364 1.418276 0.5154735 -0.2115535 -0.8303809 9663338 male
-0.5549369 -0.08473649 1.592471 0.9832622 -0.1794155 0.03171551 11696749 male
-0.6887825 0.1826379 1.187467 -0.1104778 -0.1988177 0.9737897 12483439 male
-0.5704174 0.07773363 1.52772 0.6900285 -0.1736443 -0.702644 11381421 male
-0.3239424 0.4959038 1.60404 0.8409963 -0.4278725 0.3311355 13141869 male
-0.6061922 0.2917777 1.191921 0.8141406 -0.5238101 0.2505958 11891035 male
-0.2565753 0.6400958 1.398494 -0.05606213 -0.04279688 -0.9975097 13540741 male
-0.6278299 -0.2583737 1.486134 0.6570865 -0.1943467 0.7283315 10053985 male
-0.5890992 0.4828573 1.606756 -0.6428327 0.4648995 0.6087978 13010547 male
-0.4472109 -0.6951061 1.480682 0.6280902 0.02172631 -0.7778373 9660520 male
-0.6307126 0.4444996 1.781514 -0.7961828 0.08811968 -0.5986053 10643041 male
-0.6804692 -0.1409749 1.626856 -0.6708487 -0.1428906 0.7276981 12357003 male
-0.6390483 0.4217389 1.854116 -0.559371 0.5786207 0.5935506 12550776 male
-0.4568357 -0.6939861 1.543198 0.139493 -0.9778175 -0.1562517 6053468 male
