# .PCD v0.7 - Point Cloud Data file format
VERSION 0.7
FIELDS x y z normal_x normal_y normal_z rgb label
SIZE 4 4 4 4 4 4 4 4
TYPE F F F F F F U U
COUNT 1 1 1 1 1 1 1 1
WIDTH 195
HEIGHT 1
VIEWPOINT 0 0 0 1 0 0 0
POINTS 195
DATA ascii
-0.635978 -0.647235 1.504297 0.0328792 0.1397219 0.9896449 11828346 male
-0.5887192 0.6142626 1.291726 -0.4803745 -0.7984228 0.3629899 12747891 male
-0.5989305 -0.2068414 1.636806 0.0978322 -0.04238847 0.9942999 10711921 male
-0.6946664 -0.4261622 1.420112 -0.9131798 -0.1440603 -0.3812474 11634038 male
-0.5014793 0.7938765 1.528462 0.2076714 0.3664387 0.9069705 11039078 male
-0.6241325 -0.3947004 1.489938 0.5421891 0.003209172 0.8402507 9791581 male
-0.6310016 -0.4955008 1.486741 0.5618854 -0.06987912 0.8242584 9724766 male
-0.4804488 -0.723324 1.466943 0.08408473 -0.9957329 0.03802309 7035226 male
-0.5312874 -0.1247446 1.376269 0.7288632 -0.3414095 -0.5934627 10909292 male
-0.6795158 0.324861 1.501445 -0.8874112 0.4609665 -0.003373146 12428447 male
-0.5683814 0.3526746 1.309069 0.02425646 -0.007688974 -0.9996763 14526091 male
-0.6827852 -0.5786494 1.450323 -0.82956 -0.1879261 -0.5258461 10843756 male
-0.521628 -0.1347624 1.605203 0.8366205 -0.2544508 0.4850991 11038824 male
-0.4530443 0.7459265 1.438695 0.886342 -0.2169203 -0.4090765 14190709 male
-0.4318579 0.1562575 1.276546 -0.2450402 0.09331115 0.9650122 13009540 male
-0.5066001 1.013261 1.384588 -0.3706632 0.5081887 -0.7774017 8418419 male
-0.6194355 0.4958261 1.738357 -0.8734199 0.1562103 0.4612334 12284777 male
-0.5167176 0.3357601 1.630425 0.4266392 -0.1111205 0.8975698 12614509 male
-0.5224292 0.5114394 1.30664 0.2806916 -0.2272579 -0.9325054 11232607 male
-0.6559752 -0.0594398 1.372828 -0.8155228 -0.1154087 -0.5671009 11174776 male
-0.6655267 0.3763552 1.5149 -0.9876729 0.140574 -0.06885821 14063739 male
-0.5492486 0.06255126 1.490564 0.216397 0.01525498 0.9761865 8748677 male
-0.6148847 -0.09856166 1.637779 -0.3520156 -0.1139129 0.9290366 9856870 male
-0.3955425 1.015481 1.411243 0.5620694 0.6300577 -0.5358221 7561562 male
-0.5024599 0.2415685 1.196788 0.3525987 0.05463373 -0.9341785 16247766 male
-0.4992529 0.616855 1.29649 0.3682803 -0.7970107 -0.4786895 10183769 male
-0.5862288 0.4612613 1.781213 -0.2678677 0.2719649 0.9242739 10578527 male
-0.7031128 -0.5487937 1.575349 -0.9993852 0.02472351 0.02486366 12686983 male
-0.6097871 0.06581131 1.487998 -0.255314 -0.06392737 -0.9647427 11445413 male
-0.6860263 -0.5300336 1.548819 -0.4834572 -0.0007017712 -0.8753679 10514534 male
-0.5702843 0.2894646 1.255693 -0.5667209 -0.3930598 0.7241074 10382962 male
-0.4442101 0.6924245 1.510466 0.9510828 0.2835664 0.1226044 13799027 male
-0.526592 -0.1868799 1.41328 0.9646972 -0.1518468 -0.2151792 10119008 male
-0.6788569 -0.623327 1.600759 -0.2707833 -0.007825687 0.9626086 12617606 male
-0.5762678 0.508878 1.633546 -0.1994733 -0.1282761 0.971471 11630705 male
-0.7147311 0.1636467 1.560186 -0.9695411 -0.2067901 0.1312568 13422028 male
-0.5833774 0.7818186 1.447479 -0.736326 0.6746384 -0.05183661 12289145 male
-0.4926957 1.010002 1.378346 -0.216121 0.4789153 -0.8508419 9404022 male
-0.5892655 0.4794586 1.62781 -0.3364964 -0.09054386 0.9373218 11893355 male
-0.6331939 0.4167662 1.344801 -0.669752 0.1220789 -0.7324815 13010796 male
-0.5419208 0.5523717 1.296962 0.2202262 -0.1799432 -0.958708 11826266 male
-0.5354347 0.7805194 1.354176 0.1725876 0.7984933 -0.5767339 11369842 male
-0.7217111 0.182058 1.44457 -0.991584 -0.102082 0.07962817 13420999 male
-0.391645 0.01842036 1.247163 -0.8472276 -0.5004593 -0.178174 11447210 male
-0.6358694 -0.2157753 1.486168 -0.4898888 -0.05673021 0.8699373 9921122 male
-0.6417864 0.5665005 1.597645 -0.8211027 -0.06054573 0.5675604 13077357 male
-0.4826746 0.04685762 1.424279 0.9529084 -0.1439967 0.2668909 13092031 male
-0.6231357 -0.2164805 1.632767 -0.3155012 0.09927429 0.9437181 11502467 male
-0.4169792 0.4912088 1.474673 0.9855494 0.1677979 -0.02315927 13733238 male
-0.6090503 -0.4092222 1.391618 0.5262166 -0.2408911 -0.8155169 9465189 male
-0.690843 -0.4103469 1.474621 -0.857305 -0.05638836 0.5117116 11106155 male
-0.611936 0.6934125 1.646439 -0.8559085 0.2843137 0.4319567 13471865 male
-0.6641402 0.5507739 1.387446 -0.9792045 0.008600364 -0.2026941 14392193 male
-0.5256529 -0.06341385 1.460027 0.6823838 -0.1241143 0.7203805 11366252 male
-0.4649407 -0.7085994 1.570311 0.8329726 0.2033222 0.5146037 7955031 male
-0.6056683 0.5477364 1.628353 -0.4680874 -0.1480111 0.8711987 11893867 male
-0.6743613 0.2620795 1.348864 -0.7148443 0.1881461 -0.6734974 10461337 male
-0.6036699 0.5674267 1.228235 -0.7073698 0.1565915 -0.6892803 14592660 male
-0.4270248 0.9110236 1.525235 0.1724572 0.01999302 0.9848142 12222582 male
-0.6915699 -0.5526507 1.598369 -0.6825472 -0.1393578 0.7174321 11370616 male
-0.660651 0.05295504 1.348587 -0.7894648 -0.2071026 -0.577801 10658974 male
-0.4939857 0.8840122 1.517363 -0.2844205 -0.06834295 0.9562606 11565170 male
-0.3781079 0.839663 1.435365 0.7566361 -0.2722521 -0.5944585 13930890 male
-0.5434634 0.4710552 1.734238 0.985338 -0.1093498 0.1309652 13406330 male
-0.6475912 -0.2094509 1.615584 -0.7045249 0.1939734 0.6826559 11302510 male
-0.4665236 0.8931953 1.37901 0.1399173 -0.1394099 -0.9803001 13339518 male
-0.5402393 -0.6968762 1.496804 0.07850029 0.1105601 0.9907646 10841451 male
-0.6425845 -0.2698439 1.63856 -0.2311053 0.1944409 0.9533013 10052713 male
-0.4280622 0.2170386 1.753868 -0.4911711 -0.01707905 -0.8708957 13010564 male
-0.6257813 -0.2041112 1.368263 -0.3763925 -0.04218778 -0.9254994 11105127 male
-0.4778971 0.149555 1.410512 0.9699482 -0.00228881 -0.2433014 12631992 male
-0.6858928 0.3132371 1.477212 -0.8725603 0.4884525 -0.007271707 12959156 male
-0.4548184 0.7421128 1.493854 0.8941674 -0.1029757 0.4357304 13534069 male
-0.6661143 0.5051543 1.519036 -0.9992788 -0.03727191 -0.007276654 14589057 male
-0.5936044 0.3040282 1.64735 -0.1344886 0.2749078 0.9520183 10985884 male
-0.6087187 0.1021506 1.306367 -0.213419 -0.1102195 -0.9707235 11907757 male
-0.5917348 0.3895739 1.636217 -0.2353913 0.2316155 0.943899 11892589 male
-0.4098202 0.8346964 1.408597 0.3018 -0.5199847 -0.7990825 13076348 male
-0.566464 -0.6702369 1.491241 0.3563818 0.5960784 0.7195016 10512746 male
-0.5682884 0.3886877 1.6396 -0.02247169 0.2061411 0.9782643 12618878 male
-0.4861195 0.4476073 1.612589 0.534206 -0.0372213 0.8445346 13074803 male
-0.4854498 0.05808366 1.436711 0.9206369 -0.160431 0.3559353 12565945 male
-0.4743024 0.2848319 1.368897 0.6715132 -0.2286637 -0.7048284 11894115 male
-0.5809283 -0.3469127 1.41629 0.9789599 -0.1377366 -0.1505542 12157557 male
-0.616098 0.3579355 1.228803 -0.9265941 -0.3743122 -0.03624856 12025202 male
-0.540404 0.2444859 1.200272 -0.5037537 -0.3826782 -0.774461 12616830 male
-0.3650789 0.2147343 1.759718 0.6203653 0.6328362 0.46332 12087670 male
-0.6870645 -0.4243127 1.405842 -0.760694 -0.1734238 -0.625515 11566709 male
-0.4852586 0.1312294 1.210868 -0.5996128 -0.1977577 -0.7754719 9921376 male
-0.6226954 -0.4345795 1.392968 0.353984 -0.2731746 -0.894467 10585718 male
-0.4666144 0.3028091 1.585489 0.6928115 -0.1796741 0.6983765 13078132 male
-0.6118492 -0.1836453 1.492157 0.01179837 0.002065253 0.9999284 11368819 male
-0.4400438 0.2358184 1.476698 0.9564728 -0.2869676 -0.05300552 13882315 male
-0.5677979 -0.1757528 1.522066 0.3570332 -0.2278934 -0.9058654 9266267 male
-0.4489158 0.3178607 1.571018 0.7341921 -0.1231125 0.6676865 13538165 male
-0.6108524 -0.4580857 1.468848 0.8309336 -0.08580222 0.5497159 10448229 male
-0.416766 0.09729922 1.216745 0.46296 -0.06653287 -0.8838788 12369333 male
-0.4875795 0.3559794 1.343135 0.6410215 -0.04056654 -0.7664503 12617837 male
-0.4590392 0.03237607 1.218675 0.02293201 -0.2178469 -0.9757136 13084576 male
-0.4905415 0.4389957 1.615374 0.5147616 -0.0247442 0.8569764 13271663 male
-0.4828409 0.9025699 1.373596 0.9886591 0.1068615 -0.1055176 11165535 male
-0.6311113 0.002485441 1.638792 -0.609184 -0.09269673 0.7875928 9735824 male
-0.6411787 0.3018132 1.332169 -0.5729203 0.2455785 -0.7819552 11250851 male
-0.6840538 -0.3845149 1.631673 -0.6404247 -0.04875443 0.7664721 11171696 male
-0.4668727 0.0767408 1.570278 0.9961235 -0.08598682 -0.01856267 14013645 male
-0.6664466 0.5322751 1.520516 -0.9995873 -0.01753056 0.0227623 14787206 male
-0.6433291 0.7097731 1.535866 -0.8993466 0.437072 0.01199126 15115651 male
-0.6807318 -0.4616638 1.481937 -0.7229097 -0.04096038 0.6897274 11106932 male
-0.6641284 0.3942606 1.531909 -0.9955847 0.08759386 0.03374368 13932922 male
-0.6037162 0.7549123 1.373342 -0.7278788 0.6418235 -0.2413611 12418411 male
-0.6581992 -0.2958233 1.541731 -0.4910342 0.2195132 -0.84303 10907244 male
-0.5880836 0.4501105 1.625701 -0.3412435 -0.03690062 0.9392505 11893099 male
-0.6487523 0.05921797 1.473391 -0.6395417 -0.09983753 0.7622461 10656415 male
-0.6510444 0.363567 1.350996 -0.8345622 0.07983986 -0.545098 13799287 male
-0.6323165 -0.01542211 1.339481 -0.5441662 -0.1870192 -0.8178675 11119781 male
-0.6186947 -0.4419596 1.482022 0.7000658 -0.08157714 0.7094034 9988451 male
-0.5138655 0.2767189 1.333581 0.6282997 0.06431607 -0.7753084 11048594 male
-0.6562881 -0.1125206 1.582471 -0.9935864 -0.07250483 0.08677202 12553348 male
-0.485527 1.045209 1.413631 -0.1228869 0.8919703 -0.4350723 9991027 male
-0.6678824 -0.5306486 1.491633 -0.2578707 0.0430367 0.9652205 11633277 male
-0.4859184 0.03197579 1.427151 0.9372952 -0.1538313 0.3127522 12895681 male
-0.5274709 0.2317946 1.652512 0.4848809 0.08526213 0.8704144 11249827 male
-0.654161 -0.5105073 1.411956 -0.1616044 -0.2969217 -0.9411279 10584436 male
-0.4402457 0.1744496 1.229828 0.7894073 0.5186502 -0.3283875 12022633 male
-0.6060988 0.08288717 1.306819 -0.1995831 -0.1359988 -0.9703974 11775915 male
-0.668669 0.3540755 1.524743 -0.9762446 0.2166509 -0.003014207 13472371 male
-0.6697103 -0.5245845 1.6155 -0.1933797 -0.2173318 0.9567505 9198947 male
-0.6111488 -0.3458013 1.378099 0.3893751 -0.09668459 -0.9159909 9729379 male
-0.6847044 -0.5616916 1.548454 -0.3361331 -0.01050799 -0.941756 10447204 male
-0.6650874 -0.5554814 1.429565 -0.3674259 -0.2916205 -0.8831512 9726570 male
-0.6692925 0.3546984 1.422091 -0.9852121 0.1712903 -0.004138112 13538939 male
-0.6381397 -0.4616115 1.539621 0.4766944 -0.1662901 -0.8631977 10910573 male
-0.42397 0.284939 1.507802 0.9252995 -0.350391 0.1450766 13996667 male
-0.5808658 -0.6917664 1.430218 -0.0538575 0.5079347 -0.8597103 10058614 male
-0.5399666 0.7847524 1.574498 0.1761864 0.8549201 0.4879243 9924193 male
-0.4803271 -0.01241484 1.575309 0.9672033 -0.2224857 -0.122548 13948364 male
-0.514277 0.9961761 1.512687 -0.4425246 0.3431177 0.8285183 8086371 male
-0.6494267 0.6837198 1.570208 -0.9152592 0.2846182 0.2851196 15048835 male
-0.6930019 0.1216339 1.455982 -0.6367078 -0.6377264 0.433484 10065558 male
-0.5704836 -0.7195184 1.474645 -0.01502053 -0.9376695 0.3472036 10841459 male
-0.5578309 0.7871124 1.37201 -0.3298291 0.8405409 -0.4297718 11633277 male
-0.5876278 0.4858614 1.76784 -0.2319897 0.3741178 0.8978958 10971999 male
-0.6092674 0.6164544 1.253742 -0.9642392 0.1476779 -0.2200778 13143156 male
-0.4415565 0.1071358 1.209131 0.2020392 -0.09080538 -0.9751589 15920605 male
-0.4127665 0.1944753 1.754075 -0.4298454 -0.6203504 -0.6560476 13009796 male
-0.5253024 -0.04055803 1.464403 0.6592247 -0.1391268 0.7389632 10053477 male
-0.5492763 0.1405042 1.306493 0.3328182 -0.0608547 -0.9410255 11578536 male
-0.6615102 0.6040845 1.554747 -0.9816342 -0.04531875 0.1853129 14261372 male
-0.5251859 0.454316 1.316847 0.2864662 -0.1187658 -0.9507008 12285282 male
-0.362112 0.8572904 1.462582 0.813064 -0.4965042 0.3039915 13141379 male
-0.6477451 -0.2438427 1.546116 -0.7873454 0.07701512 -0.611683 11893875 male
-0.4385013 0.2328231 1.806149 0.1494633 0.09932239 0.9837662 9269860 male
-0.4453564 0.2187948 1.49889 0.9699541 -0.1845835 0.1584865 12895684 male
-0.462258 0.4552065 1.355525 0.6754267 -0.09514116 -0.7312641 13208686 male
-0.6351431 -0.01469002 1.511248 -0.6269339 -0.1271713 -0.7686231 8616571 male
-0.6516902 -0.007641998 1.52803 -0.834043 -0.09173871 -0.5440189 11315360 male
-0.5225332 0.2634895 1.191411 0.1166902 -0.08749072 -0.9893073 11636352 male
-0.4055271 0.04421428 1.241952 -0.8731143 -0.3721235 0.3149534 11638416 male
-0.4010078 0.8091274 1.479009 0.1808924 -0.8400098 0.5115286 10580071 male
-0.7201489 0.2242574 1.452398 -0.9900271 0.1342476 0.04270947 13288386 male
-0.5696402 0.3648698 1.185969 -0.1725289 0.0188476 -0.9848243 10248538 male
-0.3973224 0.1750899 1.769937 -0.2755078 -0.5628609 -0.7792838 13009028 male
-0.438897 0.3633806 1.390089 0.7545055 -0.04352348 -0.6548492 13011564 male
-0.4949349 0.3506945 1.790867 0.6274866 0.359496 0.6906687 9859953 male
-0.6776215 0.2833301 1.361283 -0.7815282 0.3028046 -0.5454569 10328213 male
-0.5836034 0.06355264 1.493216 -0.01044988 0.01897128 0.9997656 10393758 male
-0.530027 0.5400663 1.300836 0.2396906 -0.1609704 -0.9574117 12219232 male
-0.5141932 0.7150831 1.259392 0.2279548 0.7846006 -0.5765749 9593424 male
-0.6995456 -0.3685794 1.563291 -0.9260781 0.09683949 -0.3646939 12028038 male
-0.4288783 1.045418 1.440511 0.3151285 0.9450531 -0.08699757 7101786 male
-0.5386372 0.4552588 1.24918 0.9589945 -0.2622626 0.1074619 14195587 male
-0.5351384 -0.1111644 1.362198 0.6045014 -0.3417377 -0.7195787 10121057 male
-0.5522922 -0.2627099 1.569345 0.7277061 -0.5275409 -0.4383429 10647152 male
-0.4161349 0.3598596 1.425649 0.9319478 -0.05224303 -0.3588095 13537393 male
-0.6447929 -0.03673795 1.355655 -0.6848449 -0.1436777 -0.714384 11184545 male
-0.5084057 1.018919 1.389265 -0.390308 0.5755036 -0.7186484 7695979 male
-0.5397916 0.7456541 1.651435 -0.08071093 0.8454716 0.5278859 11304062 male
-0.5746787 0.5208165 1.299344 -0.1044604 -0.254005 -0.9615455 11567207 male
-0.5257161 -0.1122397 1.376534 0.7649236 -0.3455548 -0.5435845 10579557 male
-0.6873232 -0.3810317 1.396225 -0.7376006 -0.08008604 -0.6704712 11895161 male
-0.5529018 -0.1635564 1.525206 0.4467155 -0.2231362 -0.8664039 9002070 male
-0.5561925 0.2440735 1.226381 -0.8338201 -0.551977 0.008101046 10719341 male
-0.4832887 0.05534543 1.530208 0.8541297 -0.2307861 -0.4660478 13486789 male
-0.5501347 0.7460219 1.646302 -0.183928 0.8173759 0.5459554 11567487 male
-0.5123184 0.3310848 1.218404 0.958216 0.2801779 -0.05764377 10117454 male
-0.4956192 0.8069579 1.400944 0.01889247 -0.01836593 -0.9996529 13540221 male
-0.5790408 -0.3377401 1.426301 0.9803375 -0.1679204 0.1036408 12421755 male
-0.6556217 0.3457849 1.593336 -0.8426369 0.2294694 0.4871417 12880502 male
-0.4580051 -0.7073767 1.452078 0.1886866 0.9698702 -0.154107 9200738 male
-0.5569096 0.4344148 1.726096 0.8450911 0.1571865 -0.5109928 13012607 male
-0.5784058 0.5656333 1.649026 0.0382432 -0.4165481 -0.9083091 12284777 male
-0.5841666 0.3941995 1.783817 -0.5049008 -0.08430959 0.8590502 11958380 male
-0.4633472 -0.7005333 1.540989 -0.03440082 0.9457909 -0.3229491 5921114 male
-0.6210568 0.540163 1.686174 -0.9746094 -0.111241 -0.1943253 11760753 male
-0.6735545 0.3335106 1.412405 -0.941048 0.324749 -0.0946942 13011573 male
