# .PCD v0.7 - Point Cloud Data file format
VERSION 0.7
FIELDS x y z normal_x normal_y normal_z rgb label
SIZE 4 4 4 4 4 4 4 4
TYPE F F F F F F U U
COUNT 1 1 1 1 1 1 1 1
WIDTH 195
HEIGHT 1
VIEWPOINT 0 0 0 1 0 0 0
POINTS 195
DATA ascii
-0.704843 -0.6723266 1.578866 -0.03363568 0.3084669 0.9506403 8148055 male
-0.5456553 0.5671708 1.339579 -0.2118249 -0.5190912 0.8280548 10973029 male
-0.6731116 -0.2297053 1.670156 -0.0167022 -0.03690516 0.9991793 12291490 male
-0.7338002 -0.3985574 1.556477 -0.638279 -0.03423715 0.7690435 9923431 male
-0.3716255 0.8104121 1.570987 -0.2151147 0.07004662 0.9740736 12024181 male
-0.5752568 -0.08374127 1.4911 0.9551129 -0.2011096 0.2175187 12222837 male
-0.5877981 -0.1408335 1.472104 0.9499305 -0.1978991 -0.2418016 11236202 male
-0.5635598 -0.6943441 1.57446 -5.660475E-05 -0.1360411 0.9907033 8739416 male
-0.6099958 -0.1293831 1.433461 0.5727615 -0.3296569 -0.7505137 10251866 male
-0.775852 0.2229869 1.647261 -0.8703135 0.1593984 0.4659902 10394519 male
-0.783558 0.1598606 1.445402 -0.9323151 -0.199156 -0.3018701 11316388 male
-0.7159059 -0.5630279 1.505452 -0.4527287 -0.307598 -0.8369113 10383980 male
-0.6014088 -0.1086029 1.672596 0.5170224 -0.2878274 0.8061287 9198418 male
-0.4548619 0.7662571 1.606039 0.2780251 0.8756989 0.3947829 10186342 male
-0.5310134 0.1136456 1.270881 -0.2884782 -0.1405211 0.947119 12617348 male
-0.3951492 0.8887899 1.450324 -0.683366 0.05305114 -0.728146 7757918 male
-0.636452 0.4703659 1.856569 -0.332843 0.3731032 0.8660311 9853267 male
-0.5638341 0.4390479 1.691293 0.02779902 -0.03349947 0.9990522 14325388 male
-0.5188229 0.4842251 1.364468 0.2144559 -0.3323855 -0.9184383 11232607 male
-0.7122744 -0.009581775 1.410276 -0.6580765 -0.1718191 -0.733085 11317164 male
-0.6414404 0.5592815 1.622065 -0.9127985 0.2465122 0.3256237 13734774 male
-0.6755142 0.1234789 1.545113 0.03354841 -0.1885349 0.9814934 11447214 male
-0.6977372 -0.1813828 1.563606 -0.6924527 -0.03198878 -0.7207538 10579563 male
-0.2568291 0.9449366 1.467081 0.5753947 0.6514481 -0.4945062 7694696 male
-0.6090662 0.40399 1.292394 0.1075629 -0.2318014 0.9667981 12682871 male
-0.5050938 0.5081265 1.361402 0.2464492 -0.2697261 -0.9308656 11892067 male
-0.6127169 0.5582933 1.805182 -0.5851528 0.5834544 0.563185 13337720 male
-0.7255285 -0.5153189 1.56989 -0.6490002 0.01225259 -0.7606899 10316135 male
-0.6822118 0.07850635 1.541253 -0.2283136 -0.02657724 -0.973225 11445413 male
-0.7278369 -0.4884284 1.572477 -0.7077844 -0.03124906 -0.7057372 11106419 male
-0.6277335 0.2954354 1.261588 -0.6884397 -0.2525927 0.6798881 10382962 male
-0.4171462 0.711117 1.608125 0.8465832 0.2764177 0.454852 11367012 male
-0.620806 -0.2384206 1.459255 0.6235737 -0.2553345 -0.7388912 9330524 male
-0.7480695 -0.6905141 1.591032 -0.8490114 -0.1611821 0.50319 7162445 male
-0.6308566 0.4998297 1.662561 -0.6872692 0.09869889 0.7196664 12682606 male
-0.7849842 0.1667501 1.61504 -0.9500786 -0.3031822 0.0736984 12829374 male
-0.4861831 0.7670759 1.498705 -0.4503762 0.886348 -0.1074641 12223611 male
-0.398247 0.8961094 1.453266 -0.7184167 0.1099953 -0.6868615 7562586 male
-0.6308683 0.4301637 1.680921 -0.3401705 0.3366609 0.878034 12418411 male
-0.5670155 0.3916865 1.377038 0.2078208 -0.06520161 -0.9759915 12156767 male
-0.5528465 0.5065469 1.355074 -0.03707985 -0.2635271 -0.9639391 13012592 male
-0.4813941 0.7257025 1.365379 -0.01825299 0.821879 -0.5693697 11965829 male
-0.784657 0.2465955 1.48319 -0.956533 0.2813407 -0.07676077 13158851 male
-0.5402806 -0.01567807 1.220409 -0.5876562 -0.2414242 -0.7722532 11315110 male
-0.6937751 -0.1513656 1.550571 -0.3800983 0.1034736 0.9191403 9658209 male
-0.6462013 0.5756928 1.590819 -0.9467991 0.2955785 0.1272987 14391416 male
-0.5545266 0.05508265 1.487223 0.9473534 -0.1088743 0.3011117 13157824 male
-0.7081245 -0.24726 1.659027 -0.5863497 0.1983725 0.7853932 9527639 male
-0.453428 0.3747998 1.464424 0.8226878 -0.2885595 -0.4898147 13142117 male
-0.7435049 -0.286145 1.482986 -0.9578335 0.2157604 -0.189743 11632238 male
-0.7127379 -0.3574338 1.562383 -0.1277145 0.1422661 0.9815547 9725283 male
-0.4888389 0.7519076 1.65064 -0.1140335 0.9160692 0.3844652 11633790 male
-0.6775617 0.4784011 1.491877 -0.9567761 0.2477821 0.1522622 14590596 male
-0.6489526 -0.2003257 1.548044 0.480404 -0.1075332 0.8704303 8998735 male
-0.541293 -0.6974578 1.544636 0.1521782 0.07979283 -0.985127 5591629 male
-0.6045456 0.5964504 1.666475 -0.7729161 0.1100774 0.6248872 13142893 male
-0.7176307 0.3628596 1.533099 -0.7966288 0.6037149 -0.03018147 12748403 male
-0.5974274 0.5320818 1.262589 -0.7095222 0.4555549 -0.5376319 12882044 male
-0.3198348 0.8376572 1.580961 0.1290138 -0.05771559 0.9899619 14062218 male
-0.732928 -0.5631243 1.59893 -0.9066944 -0.1342462 0.3998544 12291459 male
-0.7056891 0.1394545 1.369659 -0.3801001 -0.06378139 -0.9227438 11513770 male
-0.3661683 0.8261842 1.5719 -0.2533093 -0.01534838 0.9672637 11695984 male
-0.2692943 0.7446243 1.498621 0.6300881 -0.6640723 -0.4024886 13535876 male
-0.5807742 0.4744698 1.814336 0.8905565 -0.4543214 -0.02239257 12551285 male
-0.6969866 -0.2420167 1.665023 -0.4024153 0.136163 0.9052744 9593433 male
-0.3014606 0.7986496 1.440909 0.1526829 -0.3020408 -0.9409886 14522249 male
-0.5534043 -0.7110904 1.558273 0.06434106 -0.9217544 0.3823991 7952722 male
-0.7372159 -0.289001 1.642444 -0.8760277 0.2395947 0.4185332 11171175 male
-0.5337909 0.06676048 1.898815 0.8093277 0.1168981 -0.5756074 14126227 male
-0.7320813 -0.237744 1.475945 -0.9524829 0.1597625 -0.2593307 10251619 male
-0.5656202 0.1725247 1.424761 0.9189583 0.03551544 -0.3927524 12304570 male
-0.7241076 0.3127263 1.415258 -0.6965293 0.4387302 -0.5677701 11842732 male
-0.4006771 0.6706715 1.443628 0.942551 0.1885276 -0.2757812 11826790 male
-0.6473794 0.5721759 1.556561 -0.9433963 0.3025005 -0.1360035 14656389 male
-0.5839097 0.2518309 1.703744 0.5912654 0.08851803 0.8016046 11381421 male
-0.6442558 0.1645125 1.359565 0.1295511 -0.06812747 -0.9892297 13551558 male
-0.6808515 0.4029578 1.661576 -0.721621 0.3575411 0.5928134 13142654 male
-0.3089794 0.7533782 1.460443 0.1130829 -0.5702605 -0.8136433 13076348 male
-0.5933197 -0.6561415 1.552501 0.3366241 0.8962808 0.28873 9132634 male
-0.5900339 0.4411374 1.688832 -0.166942 0.06099598 0.9840782 12422006 male
-0.540171 0.3212955 1.671788 0.560303 -0.2328388 0.794888 13274235 male
-0.5608885 0.05544423 1.501134 0.8946868 -0.1311392 0.427011 12172211 male
-0.6201372 0.2572219 1.362344 0.2116203 0.1082086 -0.9713434 13026237 male
-0.6446075 -0.3503004 1.513114 0.9175898 -0.03773536 0.3957337 10975338 male
-0.6443696 0.3417441 1.243387 -0.9958242 -0.08904055 0.02015465 10250340 male
-0.5842811 0.2779314 1.195514 0.2757046 -0.01508569 -0.9611241 12029053 male
-0.534893 0.1458561 1.904485 0.661411 0.1557804 0.7336675 10515059 male
-0.7552313 -0.3369008 1.492076 -0.9881078 0.1102246 -0.1072085 13868683 male
-0.6040657 0.1112825 1.208058 -0.9035997 0.03622597 -0.4268436 12286581 male
-0.699586 -0.4031786 1.450235 -0.01400692 -0.2340068 -0.9721342 12888721 male
-0.4886421 0.447564 1.666783 0.5078233 -0.2241604 0.831786 13272179 male
-0.6407906 -0.1268818 1.54839 0.29684 -0.00980448 0.954877 9789279 male
-0.4976365 0.2355044 1.538784 0.8509467 -0.5249458 -0.017941 13092547 male
-0.6386561 -0.1897597 1.559145 0.4645865 -0.1497192 -0.8727794 9792608 male
-0.4782498 0.4286209 1.653849 0.6048303 -0.2414364 0.7588736 13206902 male
-0.7115344 -0.6204323 1.515307 -0.4891009 -0.1780703 -0.8538569 12094084 male
-0.5384536 0.05586554 1.207896 0.5982847 -0.1387488 -0.7891796 11375753 male
-0.3988215 0.6823311 1.582549 0.9306258 0.2050253 0.3031509 12481906 male
-0.5943997 0.02451527 1.203154 0.9591343 -0.2829407 0.002467275 11109243 male
-0.5380341 0.2924785 1.659746 0.5965835 -0.2754471 0.7538018 12092523 male
-0.3541463 0.845227 1.425156 0.8941216 -0.4404381 -0.08100063 11888233 male
-0.7335665 0.06293857 1.669235 -0.8542966 -0.1746977 0.4895491 12170169 male
-0.5474396 0.3596392 1.387997 0.4772085 -0.1413399 -0.8673496 12155748 male
-0.6357451 -0.3519225 1.643439 0.8739744 -0.1320145 0.4676977 10909548 male
-0.5470602 0.08837198 1.591954 0.9308143 -0.1760078 -0.3203221 13618633 male
-0.6270114 0.6103619 1.623513 -0.9223298 0.2509388 0.2938328 13735286 male
-0.5904325 0.6920084 1.558933 -0.772944 0.5787598 -0.2599903 14589563 male
-0.7425405 -0.4714961 1.529829 -0.9634337 -0.09235234 0.2515287 12157556 male
-0.6967793 0.4142824 1.560197 -0.9248252 0.345745 -0.1586156 14129787 male
-0.6114059 0.653984 1.434055 -0.8910574 0.4339724 -0.1329845 15180426 male
-0.7183282 -0.1302802 1.630963 -0.9711546 -0.1030471 0.2150356 13539979 male
-0.6301947 0.4362627 1.678286 -0.3812527 0.3117606 0.8703172 12419179 male
-0.7363631 0.06422481 1.518481 -0.7934312 -0.124942 0.5956985 10853021 male
-0.6686326 0.3946456 1.392348 -0.5801143 0.3019463 -0.7565026 13272687 male
-0.6998187 -0.009125091 1.399608 -0.5096533 -0.2139248 -0.8333606 11119781 male
-0.7260774 -0.5995843 1.524477 -0.8030151 -0.2328206 -0.5485997 11566191 male
-0.4518883 0.3339519 1.54381 0.9353109 -0.3510373 0.04434627 13668475 male
-0.7123344 -0.1337042 1.584996 -0.9147552 -0.04523771 -0.4014683 12156791 male
-0.3099067 0.9774233 1.472066 0.1856881 0.8947825 -0.4060593 9991027 male
-0.7142861 -0.4680341 1.561221 -0.2732133 -0.04158306 0.9610544 10253675 male
-0.5832369 0.03381697 1.527742 0.6979207 -0.1413879 0.70208 11249059 male
-0.7115859 0.3067601 1.682374 -0.5640135 0.3511459 0.7473859 10261653 male
-0.7177644 -0.5115414 1.487958 -0.4358092 -0.3147008 -0.8432283 9791845 male
-0.5513678 0.1513357 1.207065 0.7053438 0.06135255 -0.7062054 9465953 male
-0.6322147 0.1466306 1.363844 0.2582178 -0.07646653 -0.9630558 12170929 male
-0.6254683 0.5533623 1.656097 -0.7748759 0.1736986 0.60778 13077361 male
-0.7316698 -0.4016114 1.653255 -0.6413106 -0.1715963 0.7478474 11236981 male
-0.6486834 -0.3283755 1.457807 0.7190268 -0.08227355 -0.6900954 9529437 male
-0.7105001 -0.5414192 1.562855 -0.1618183 -0.01061178 -0.9867637 11170672 male
-0.68494 -0.4781174 1.473576 0.281471 -0.280077 -0.917786 13020056 male
-0.6256945 0.3560107 1.368501 -0.09241216 0.01264583 -0.9956407 13736831 male
-0.6693967 -0.5307834 1.575215 0.6761187 0.03831423 -0.735796 11828338 male
-0.4701944 0.294804 1.574238 0.9144914 -0.3573176 0.1898149 13536882 male
-0.6203712 -0.6837379 1.504642 -0.04624635 0.468655 -0.88217 10058614 male
-0.4069291 0.5619022 1.641142 0.9269789 -0.07358258 0.3678258 13009771 male
-0.582111 -0.01819567 1.571682 0.6765069 -0.1505548 -0.7208827 9930625 male
-0.3540884 0.9378772 1.569765 -0.3089392 0.4478824 0.8390221 8086371 male
-0.524816 0.7514337 1.611105 -0.4224257 0.889963 0.1718211 13011563 male
-0.7517524 0.09631899 1.503406 -0.8558386 -0.260765 0.4467016 11511717 male
-0.7038909 -0.6837047 1.584389 0.02309231 0.2810359 0.9594195 6439745 male
-0.4836105 0.7559221 1.418897 -0.2388496 0.8801626 -0.4102009 11238255 male
-0.6233394 0.5467345 1.80618 -0.6972449 0.5594391 0.4481938 12680049 male
-0.5527102 0.6011403 1.269677 -0.5819049 0.4395702 -0.6842259 13142648 male
-0.5614038 0.07173217 1.19691 0.1795288 -0.1356121 -0.9743608 9729128 male
-0.5393753 0.03287134 1.897936 -0.4709209 -0.3293648 -0.8183842 11564159 male
-0.5863679 -0.02563104 1.520811 0.7188285 -0.1065569 0.6869726 10117211 male
-0.6364136 0.1140221 1.364201 0.2210481 -0.09447803 -0.970676 12894652 male
-0.5830213 0.7096345 1.597172 -0.7367077 0.6724442 0.07127804 15248013 male
-0.5200413 0.4439711 1.378311 0.3416878 -0.2911593 -0.8935748 11695456 male
-0.2596077 0.7548147 1.508421 0.7161492 -0.6972901 -0.03027993 11693680 male
-0.7035026 -0.108235 1.660831 -0.6978033 -0.1704789 0.6957065 12617862 male
-0.6079775 0.2740294 1.894266 -0.5197933 -0.006499823 0.8542675 12096652 male
-0.4637899 0.306356 1.52011 0.9246762 -0.3786645 -0.03984231 13340787 male
-0.4576683 0.4267276 1.431832 0.7395897 -0.3274769 -0.5880188 13536883 male
-0.7043185 -0.003518361 1.558378 -0.5980361 -0.101792 -0.794979 8616571 male
-0.7150885 0.1168303 1.705861 -0.517502 -0.1224896 0.8468697 9868178 male
-0.5886625 0.2613425 1.195076 0.1164384 -0.03036829 -0.9927336 11636352 male
-0.5406865 0.01621624 1.227557 -0.2188437 0.05790509 0.9740404 11505542 male
-0.309175 0.7249683 1.532205 -0.0977236 -0.8406197 0.532737 10513510 male
-0.7508293 0.3155861 1.535478 -0.8096083 0.5866785 -0.01851451 12762810 male
-0.6003423 0.372612 1.199156 -0.1205321 0.1636894 -0.979121 10248538 male
-0.565308 0.1771991 1.848972 -0.5945209 -0.276353 -0.7550988 13009531 male
-0.5939803 0.3009591 1.378991 0.3559605 -0.07756296 -0.9312768 11236191 male
-0.5701182 0.3522458 1.852531 0.9854328 -0.0323957 -0.1669521 10249563 male
-0.7144813 0.3445437 1.432673 -0.797573 0.4547768 -0.3963025 12292737 male
-0.6717932 0.05498499 1.552477 -0.1390792 -0.000481389 0.9902813 9538188 male
-0.5174079 0.5133855 1.357489 0.1950449 -0.2603557 -0.9456071 12219232 male
-0.4657961 0.6857677 1.313633 0.148675 0.7810209 -0.6065495 9794915 male
-0.7408975 -0.3828635 1.574377 -0.8110732 0.0009326182 -0.5849441 12224384 male
-0.2567447 0.9577888 1.498623 0.6121987 0.7885314 -0.05857545 7101786 male
-0.5341064 0.4579815 1.280708 0.8457975 -0.5263874 0.08685142 13670008 male
-0.6816987 -0.1647552 1.429754 -0.2857736 -0.1276222 -0.9497612 10448230 male
-0.6024238 -0.2448273 1.635336 0.8231775 -0.3870673 0.4154012 9329242 male
-0.4695602 0.3243794 1.474492 0.8263287 -0.2940484 -0.4803297 13536107 male
-0.7118512 -0.03060857 1.415891 -0.6521676 -0.1746469 -0.7376828 11184545 male
-0.3876197 0.8950382 1.444337 -0.6082092 0.07905138 -0.7898309 7759452 male
-0.5290061 0.7275153 1.676722 -0.4141093 0.8074893 0.4200888 13339509 male
-0.4946274 0.5485682 1.356635 0.2034207 -0.4289696 -0.8801166 11038558 male
-0.6815438 -0.1872742 1.431431 -0.2415564 -0.09961079 -0.9652607 10382948 male
-0.6945295 -0.4559919 1.46431 0.07010562 -0.2838721 -0.956296 14206887 male
-0.5867515 -0.1418637 1.588949 0.8361767 -0.1298558 -0.5328662 11893107 male
-0.6279068 0.2507376 1.228199 -0.966569 -0.2519841 -0.04741925 10719341 male
-0.5417398 0.07874744 1.612144 0.9798793 -0.10792 -0.1678997 13552582 male
-0.4956014 0.7423376 1.669164 -0.1254672 0.9006542 0.4160289 12093048 male
-0.5583162 0.3193063 1.228611 0.9989452 -0.03810488 -0.02562636 10117454 male
-0.3837901 0.7870191 1.449368 -0.1840603 -0.09433915 -0.9783773 13013377 male
-0.6401798 -0.3267309 1.507638 0.9278694 -0.1033259 0.3583049 11368555 male
-0.6948473 0.4064745 1.63233 -0.8699402 0.3619498 0.3349578 13471090 male
-0.5088282 -0.6915035 1.534757 0.03265873 0.9168673 -0.3978542 8542293 male
-0.6217252 0.4343134 1.789004 0.2374572 -0.3686993 -0.8987075 14064268 male
-0.5220456 0.6168997 1.695927 -0.05297862 -0.9710934 0.2327463 10839386 male
-0.5890813 0.3922429 1.881921 0.3587815 0.1815505 0.9155957 8937039 male
-0.500841 -0.6963149 1.551869 0.2722595 0.5519277 -0.7881947 5592916 male
-0.6133166 0.5653358 1.743199 -0.8897965 0.04987694 -0.4536241 10051159 male
-0.6869315 0.4359238 1.512101 -0.936524 0.295525 0.1886472 13997688 male
