# .PCD v0.7 - Point Cloud Data file format
VERSION 0.7
FIELDS x y z normal_x normal_y normal_z rgb label
SIZE 4 4 4 4 4 4 4 4
TYPE F F F F F F U U
COUNT 1 1 1 1 1 1 1 1
WIDTH 194
HEIGHT 1
VIEWPOINT 0 0 0 1 0 0 0
POINTS 194
DATA ascii
-0.670819 -0.6864901 1.507531 0.05832367 0.1893454 0.980177 9001565 male
-0.5333794 0.5366076 1.279401 -0.2020499 -0.2572052 0.9449981 13008235 male
-0.4266618 -0.2142846 1.625521 -0.4932861 0.1613407 0.8547738 10512998 male
-0.7040499 -0.4394769 1.446994 -0.9990653 -0.02163528 0.03742522 12421243 male
-0.4375444 0.849427 1.50899 -0.4027346 0.006019701 0.9152972 11498347 male
-0.4878386 -0.1137049 1.425629 0.9209838 -0.2907476 0.2593354 12288631 male
-0.5094326 -0.1860657 1.409979 0.9362664 -0.2622018 -0.2337855 11632247 male
-0.4746382 -0.722716 1.476834 -0.07975798 -0.9832151 0.1640937 5720652 male
-0.6372515 -0.2132298 1.392108 -0.7453724 0.1478383 -0.6500491 11564142 male
-0.6358726 0.2272841 1.58946 -0.8134532 0.1909768 0.5493833 10854300 male
-0.653855 0.1410917 1.370691 -0.8759878 -0.1065134 -0.4704258 11447210 male
-0.6761454 -0.5534094 1.42785 -0.337856 -0.2682754 -0.902154 9398373 male
-0.3606773 -0.08322836 1.609896 0.7312824 -0.01643725 0.681877 9198418 male
-0.4830832 0.7852754 1.525167 0.07558084 0.8818787 0.4653789 8805454 male
-0.4526528 0.118309 1.245548 -0.5868208 -0.3573228 0.7266099 12813444 male
-0.4313844 1.003225 1.386391 -0.2919483 0.5620821 -0.7738412 8418419 male
-0.5980511 0.4554361 1.739329 -0.6182563 0.2098138 0.7574546 10511965 male
-0.4546823 0.3382037 1.614194 0.4900975 -0.05320299 0.8700427 12549996 male
-0.3937642 0.5918736 1.308047 0.7838383 -0.2601079 -0.5638632 12615781 male
-0.6020378 0.004869734 1.33256 -0.6357735 -0.1550336 -0.7561461 10920869 male
-0.5904188 0.5336963 1.580984 -0.8197839 -0.0593608 0.5695884 12617580 male
-0.520013 0.06101707 1.48626 0.1737266 0.05054494 0.9834961 10590113 male
-0.4456336 -0.2014845 1.532654 -0.7917008 -0.2989255 -0.532779 11171441 male
-0.3228948 0.9996639 1.421471 0.6231154 0.6356217 -0.4557547 7561562 male
-0.4935207 0.2455776 1.173967 0.330233 -0.03428237 -0.9432768 15058610 male
-0.5288119 0.5102503 1.284765 -0.2293656 -0.2497904 -0.9407424 10973789 male
-0.5769319 0.4857246 1.739374 -0.3512326 0.3621155 0.8634281 10840669 male
-0.4453651 -0.5622972 1.597573 -0.9907704 -0.07105923 -0.1154332 12161159 male
-0.4804804 -0.004276738 1.485184 -0.2570775 -0.2710939 -0.927588 9142147 male
-0.4734316 -0.3465735 1.596693 -0.9999846 -0.002759544 0.00484097 11699838 male
-0.5681881 0.3312115 1.231127 -0.8466217 -0.2402668 0.4748725 7622995 male
-0.4087214 0.7184867 1.515087 0.8220687 0.4327104 0.3700877 12218733 male
-0.569698 -0.2725945 1.386327 0.3834904 -0.2590938 -0.8864568 8673874 male
-0.4377547 -0.6446171 1.619869 -0.454899 0.3102776 0.8347424 10971506 male
-0.5133645 0.4430184 1.618146 -0.135004 -0.03711974 0.9901496 12162174 male
-0.6536761 0.1638343 1.513186 -0.9555854 -0.2807854 0.08953464 13356230 male
-0.5149751 0.7729977 1.410456 -0.640359 0.7591673 -0.1166425 11040364 male
-0.4055343 1.01176 1.389401 0.007786313 0.6850316 -0.7284718 8811629 male
-0.5261866 0.4605026 1.616503 -0.2461963 -0.06740527 0.9668734 10579290 male
-0.527074 0.4029983 1.303311 -0.1600577 -3.101598E-05 -0.9871078 13143152 male
-0.523771 0.5113819 1.283959 -0.1777962 -0.2519091 -0.9512783 10907997 male
-0.4374 0.7489496 1.353683 0.7162571 0.4785792 -0.5078757 12485231 male
-0.6597821 0.2360298 1.472494 -0.9631514 0.2443191 0.1124623 13026246 male
-0.4130933 0.03072549 1.218307 0.9133594 0.3469749 0.2130332 11177094 male
-0.6130431 -0.1793779 1.488245 -0.4696102 0.13175 0.8729882 9725283 male
-0.6133012 0.5197226 1.519484 -0.9886953 0.008753479 0.1496841 14589572 male
-0.4507459 0.02625461 1.436433 0.8728761 -0.2567104 0.4149545 11645617 male
-0.3860591 -0.1912697 1.629654 0.2964529 0.05895829 0.9532261 11172477 male
-0.3722536 0.4099255 1.389511 0.8591557 -0.03846454 -0.5102669 13142117 male
-0.6726802 -0.3320313 1.389049 -0.6171868 0.1206376 -0.7775136 11499883 male
-0.6775225 -0.374526 1.490395 -0.5497545 0.1455782 0.8225432 10317680 male
-0.4942277 0.7548885 1.597705 -0.001903768 0.8788343 0.4771233 11701902 male
-0.6170137 0.4692411 1.408222 -0.9995527 -0.005170987 0.0294615 14195582 male
-0.4861475 -0.1002515 1.372482 0.8000187 -0.4116531 -0.4364769 11827563 male
-0.2680493 -0.6689746 1.544498 -0.03816355 0.6702992 -0.7411091 6049616 male
-0.5827643 0.5736372 1.593354 -0.787286 -0.1385592 0.600818 13142893 male
-0.6385362 0.2868642 1.385498 -0.8998772 0.3687222 -0.2329488 12038059 male
-0.5638546 0.5358987 1.229026 -0.9337699 0.1988901 -0.2975173 13207414 male
-0.3851409 0.9118845 1.527485 0.1570852 -0.06729361 0.9852898 12157307 male
-0.4358106 -0.5936315 1.611702 -0.6982203 -0.06026394 0.713342 10777455 male
-0.6093155 0.06562772 1.32848 -0.6771596 -0.1516003 -0.7200503 10396830 male
-0.4579726 0.7954262 1.512407 -0.1394895 0.4455858 0.8843054 10974568 male
-0.2896161 0.858195 1.455162 0.2172226 -0.7138146 -0.6657953 12812409 male
-0.5321556 0.4492189 1.703228 0.9522867 -0.2919585 -0.08894104 13276800 male
-0.3951387 -0.2226286 1.63416 0.1907029 0.1104965 0.9754092 12226198 male
-0.3500241 0.8755786 1.385699 0.2916096 -0.1954179 -0.9363631 14784652 male
-0.5760764 -0.690384 1.490582 0.2722277 0.4655499 0.8421139 10446700 male
-0.3928661 -0.2295484 1.634588 0.2520205 0.1191416 0.9603601 11897993 male
-0.4057538 0.1326159 1.789101 -0.04158456 -0.3243151 -0.9450347 11501182 male
-0.5870188 -0.1675562 1.362349 -0.1683575 -0.1716375 -0.9706681 13608602 male
-0.4896757 0.1767777 1.30197 0.4807425 -0.0484172 -0.8755242 11183265 male
-0.6309708 0.3112478 1.426823 -0.9205212 0.3886575 0.03982854 11898491 male
-0.3959283 0.7076223 1.407889 0.8998861 0.3994661 -0.1750202 11297874 male
-0.6112712 0.5489523 1.52867 -0.9854236 -0.001559275 0.1701123 14063739 male
-0.5262901 0.2972304 1.636966 -0.04167978 0.2986411 0.953455 10985884 male
-0.4931605 0.1351089 1.304953 0.4069773 -0.05541468 -0.911756 11053477 male
-0.5285851 0.3694722 1.627571 -0.1330838 0.1838179 0.9739096 11893363 male
-0.3458004 0.8204918 1.406159 0.3141851 -0.4915937 -0.8121722 12945019 male
-0.5354138 -0.7128619 1.400199 0.1175976 0.8628446 -0.4915995 7099473 male
-0.5093907 0.3787545 1.626781 0.03448072 0.2220044 0.9744359 12882047 male
-0.4096574 0.3895299 1.576478 0.7040287 -0.05041607 0.70838 13865340 male
-0.4628128 0.02069902 1.452797 0.7730415 -0.2346334 0.5893676 11249835 male
-0.4992742 0.2500533 1.301601 0.3617408 0.1732754 -0.9160346 11447206 male
-0.5897632 -0.3227906 1.389984 0.6066789 -0.1642294 -0.7777979 9988446 male
-0.5673235 0.3216453 1.199909 -0.936137 -0.2368108 -0.2599396 12090222 male
-0.5252332 0.2749898 1.16986 -0.2890176 -0.1766606 -0.9408826 10644071 male
-0.3965304 0.1834225 1.80432 0.4391862 0.4140619 0.7972882 10252659 male
-0.6923208 -0.3846664 1.403053 -0.7902122 -0.01603166 -0.6126238 11961211 male
-0.456581 0.05381332 1.215173 -0.2574523 -0.2475576 0.9340416 12162962 male
-0.6910406 -0.3211616 1.440052 -0.9428768 0.3119517 0.116918 12224117 male
-0.3974016 0.2904172 1.551888 0.7650533 -0.2100347 0.608752 13011563 male
-0.5636038 -0.1921088 1.484594 0.4805061 -0.1364082 0.866318 8868685 male
-0.3904083 0.1480696 1.471641 0.9977906 -0.02969055 -0.05943489 13487561 male
-0.4122517 -0.1293475 1.501717 0.04735054 -0.1217756 -0.9914277 9987422 male
-0.3963392 0.4054878 1.564616 0.7317334 -0.06290164 0.6786823 12747639 male
-0.6117973 -0.3937904 1.48129 0.7539834 -0.08483379 0.6513926 11368819 male
-0.4190808 0.1172445 1.217476 0.7704406 0.3137757 -0.5549473 12217192 male
-0.5764685 0.2948509 1.312138 -0.436542 0.1040622 -0.8936456 10516843 male
-0.4878087 -0.001233898 1.209813 -0.4877576 0.004782263 0.8729662 11368563 male
-0.4385477 0.454188 1.603209 0.4953438 -0.05710836 0.866818 13140080 male
-0.4106435 0.8922841 1.370697 0.9970703 0.06118357 -0.04590815 11165535 male
-0.5060108 0.02766659 1.640642 -0.3937498 -0.2464103 0.8855751 9604236 male
-0.6220762 0.1902858 1.333974 -0.6549997 0.02855475 -0.7550896 10988704 male
-0.3569259 -0.3222831 1.623356 0.8614337 0.02978554 0.5069962 10712938 male
-0.4128219 0.09388825 1.480346 0.6255543 -0.1299351 -0.7692847 13026246 male
-0.6115615 0.5508688 1.479228 -0.9863642 0.03176773 -0.1614825 14787201 male
-0.6036605 0.6651362 1.510519 -0.9481249 0.3027028 -0.09711015 15247501 male
-0.7032871 -0.4777965 1.44892 -0.9998128 -0.01759319 -0.008073628 12093305 male
-0.614984 0.3536753 1.501206 -0.9825437 0.1844447 -0.02425396 13539448 male
-0.5567365 0.7009182 1.321657 -0.798176 0.4540964 -0.3958684 13668465 male
-0.4445328 -0.2269372 1.553806 -0.9365389 -0.1427985 -0.3201619 12353914 male
-0.5255759 0.4536552 1.6163 -0.2432355 -0.06601913 0.967718 10775898 male
-0.6094725 0.01521258 1.466648 -0.7060925 0.01019361 0.7080464 9999253 male
-0.5728095 0.360923 1.311316 -0.4821859 0.1351494 -0.8655817 12615272 male
-0.6025849 -0.01919537 1.338166 -0.6213985 -0.1492435 -0.7691492 11382184 male
-0.6935951 -0.608179 1.446504 -0.6421946 -0.1354671 -0.7544767 12027515 male
-0.3553383 0.3862725 1.465917 0.9999174 -0.01286214 -8.350611E-05 13865078 male
-0.4781384 -0.08111608 1.619869 -0.5692291 -0.2777792 0.7738328 13014668 male
-0.3678211 1.01577 1.403469 0.2826895 0.7576796 -0.5882248 7628123 male
-0.6769724 -0.4949682 1.492725 -0.3390076 0.02730012 0.9403877 9923175 male
-0.4840205 0.002839079 1.468347 0.6117653 -0.2096774 0.7627443 11249827 male
-0.5358614 0.2794521 1.641574 -0.1285489 0.2287349 0.9649642 11248541 male
-0.6904419 -0.5290655 1.429206 -0.6566498 -0.2059761 -0.725524 11368819 male
-0.4499505 0.1485042 1.239842 -0.1044564 0.7183014 0.6878459 12423825 male
-0.4737305 0.144315 1.315886 0.6132009 -0.00736195 -0.7898929 10460575 male
-0.5894749 0.5100406 1.579871 -0.8130382 -0.08282349 0.5762894 12749424 male
-0.3735237 -0.5499116 1.618406 0.7439733 -0.07634222 0.6638341 11039862 male
-0.6583988 -0.2734305 1.391122 -0.6777656 0.2602081 -0.6876958 11234403 male
-0.4700321 -0.3132648 1.603173 -0.9889044 0.1017769 0.1082121 11501424 male
-0.6628541 -0.5231175 1.414036 -0.1140046 -0.2850472 -0.9517097 10650486 male
-0.604429 0.4437642 1.456971 -0.994301 -0.01519529 0.1055226 14260859 male
-0.4101208 -0.5105512 1.565222 0.05310968 -0.1632419 -0.9851557 11436144 male
-0.3840951 0.2402322 1.463902 0.9542257 -0.2966696 -0.03795773 12631739 male
-0.5986208 -0.66406 1.456115 0.4386672 0.8001861 -0.4089907 8479060 male
-0.3843513 0.6035312 1.575661 0.9019565 0.1876672 0.3889163 13141613 male
-0.3551347 0.02776929 1.545365 0.9426121 0.09435465 -0.320281 13948364 male
-0.4411404 0.9838994 1.514625 -0.4198095 0.3516499 0.8367213 8020578 male
-0.6051171 0.6627792 1.525546 -0.9592693 0.2796371 0.04007179 15180420 male
-0.6329731 0.08416208 1.437062 -0.8506187 -0.3646128 0.3788212 11182760 male
-0.6870292 -0.7032946 1.515505 0.07918521 0.09435091 0.992385 5323841 male
-0.4822597 0.7735403 1.352338 -0.1342727 0.8609298 -0.4906839 10845563 male
-0.5979807 0.5269131 1.687841 -0.9733446 0.1770255 0.1458171 13667192 male
-0.4709076 0.6138753 1.195548 0.2087998 0.07160211 -0.9753338 12558212 male
-0.4294858 0.1334585 1.214513 0.8020812 0.3967025 -0.4464226 12416106 male
-0.3867222 0.1234729 1.790038 -0.1277855 -0.407598 -0.9041763 12290692 male
-0.4657162 -0.04335854 1.421679 0.9034972 -0.2553561 0.3442181 12763323 male
-0.4448034 0.1455257 1.35587 0.887535 0.05756376 -0.4571304 11908782 male
-0.575302 0.7179329 1.55335 -0.8299163 0.5309375 0.1713027 14195318 male
-0.4320686 0.4082641 1.329126 0.593551 -0.09897815 -0.7986869 12090213 male
-0.315116 0.7944686 1.469741 0.6778611 -0.6684908 0.3059813 12355198 male
-0.4563686 -0.1120488 1.621698 -0.4639352 -0.2538927 0.8487065 12617862 male
-0.4576806 0.2129502 1.80491 -0.3459482 -0.08513759 0.934383 11167848 male
-0.3918883 0.1864511 1.461553 0.9889854 -0.02270926 -0.1462616 13355202 male
-0.3654759 0.4629977 1.410431 0.9703113 0.08675705 -0.2257644 12813160 male
-0.4717952 -0.05895429 1.501217 -0.3880329 -0.286059 -0.8761284 10120289 male
-0.5479468 0.05853555 1.627586 -0.6005081 -0.342484 0.7225614 11249835 male
-0.5132757 0.2641678 1.169383 -0.07295767 -0.1387895 -0.9876309 7885383 male
-0.4139096 -0.02796571 1.231208 -0.8025421 -0.5837138 0.1233072 12161167 male
-0.354066 0.7896881 1.477486 0.2126087 -0.8214451 0.5291743 11368811 male
-0.6660002 0.2276311 1.427281 -0.9707046 0.240052 -0.01038891 13355205 male
-0.5299821 0.3606529 1.166673 -0.10867 0.06526148 -0.9919335 10248538 male
-0.3918448 0.1581578 1.770571 -0.2637189 -0.6938373 -0.6701062 13007236 male
-0.4963171 0.2771363 1.308714 0.3595464 0.05678062 -0.9313982 10846581 male
-0.5273863 0.2980648 1.780057 -0.5912607 -0.2939024 0.7510209 12419699 male
-0.6172483 0.3426228 1.460432 -0.9600869 0.2630804 0.09498388 13275251 male
-0.5437205 0.07817699 1.488059 0.05586743 0.01712339 0.9982915 9406599 male
-0.4891362 0.5114061 1.284782 0.146187 -0.2302726 -0.9620832 11564378 male
-0.4757112 0.7025627 1.248358 -0.1889239 0.725836 -0.6614152 10779756 male
-0.4604923 -0.4042442 1.568832 -0.8499174 -0.2034298 -0.4860629 10842475 male
-0.3626634 1.030827 1.454318 0.3192743 0.9461601 0.05333766 7496026 male
-0.4834369 0.4954892 1.2077 0.7826094 -0.08658687 -0.6164622 10971736 male
-0.5540119 -0.1464435 1.352173 0.06548272 -0.3302477 -0.9416202 12293249 male
-0.3307438 -0.225109 1.584513 0.9435711 -0.2118896 0.2545124 9329242 male
-0.3739215 0.3544391 1.396361 0.8503361 -0.04765276 -0.5240784 13536107 male
-0.6404272 -0.09696834 1.406496 -0.9858403 -0.01199049 -0.1672584 12422271 male
-0.4277609 1.010885 1.392012 -0.2513402 0.6631961 -0.7049816 8418159 male
-0.545516 0.7215993 1.614166 -0.5940041 0.6614261 0.4579026 12813424 male
-0.4699247 0.5560837 1.283606 0.3413301 -0.2452446 -0.9073858 11760220 male
-0.5307559 -0.1453802 1.359101 0.3981592 -0.3949941 -0.8279186 9791315 male
-0.7014345 -0.3713744 1.419472 -0.9517126 0.06954119 -0.2990108 11699578 male
-0.3752097 -0.1309895 1.512487 0.3843459 -0.09120971 -0.9186727 9856352 male
-0.5111146 0.2077495 1.228291 -0.4544237 -0.2983419 0.8393399 13542562 male
-0.3786361 0.1015787 1.525052 0.9124693 0.1526441 -0.3796049 13552582 male
-0.5381077 0.7469849 1.577917 -0.5430977 0.7737319 0.3261654 11367779 male
-0.4843749 0.3131121 1.217087 0.91153 0.1309867 0.3898149 11891035 male
-0.4199733 0.7834799 1.392689 0.2694005 -0.02159376 -0.9627863 13077101 male
-0.6142585 -0.3770096 1.484873 0.6794213 -0.03095943 0.7330951 11040111 male
-0.6117646 0.307947 1.576439 -0.8167967 0.4070271 0.4088671 10854036 male
-0.4792371 -0.7095907 1.461663 0.07734364 0.962523 0.2599372 7950158 male
-0.5409028 0.415564 1.704903 0.8582192 0.1340035 -0.4954826 13144184 male
-0.5467011 0.5928766 1.623986 -0.1082298 -0.5473924 -0.8298481 11893112 male
-0.5503531 0.3790674 1.776337 -0.3025646 0.1228654 0.9451767 9987932 male
-0.2471415 -0.6709068 1.595122 0.1194561 0.9882879 0.0949595 9203034 male
-0.5928562 0.4864579 1.666018 -0.7489434 -0.2392456 -0.6179366 13804193 male
