# .PCD v0.7 - Point Cloud Data file format
VERSION 0.7
FIELDS x y z normal_x normal_y normal_z rgb label
SIZE 4 4 4 4 4 4 4 4
TYPE F F F F F F U U
COUNT 1 1 1 1 1 1 1 1
WIDTH 194
HEIGHT 1
VIEWPOINT 0 0 0 1 0 0 0
POINTS 194
DATA ascii
0.6021077 -0.6260513 1.044746 0.1828445 0.1031655 0.9777142 9066836 male
0.3269645 0.543213 1.010763 -0.3772896 -0.5951459 0.709545 10511706 male
0.3482965 -0.2263011 1.359804 -0.3518165 0.043281 0.935068 9724242 male
0.4704113 -0.3966238 1.076392 -0.8291514 -0.3345064 0.4478992 10778224 male
0.3519144 0.764062 1.293573 0.1736939 0.2600056 0.9498566 11039078 male
0.5381442 -0.4338065 1.082172 0.4548441 -0.1994438 0.8679512 10251619 male
0.5694447 -0.5909739 1.048108 -0.00307019 0.07701752 0.9970251 10247514 male
0.7752456 -0.644675 1.005175 0.17743 -0.8771433 -0.4462492 7491665 male
0.5122766 -0.1111019 1.032936 0.3586704 0.0746726 -0.9304729 10912364 male
0.219184 0.2640441 1.210137 -0.9424658 0.329589 -0.0559417 13222845 male
0.2259052 0.1122645 1.117831 -0.8982612 -0.3605639 -0.2512383 13617351 male
0.5523782 -0.4646562 0.9927235 0.419947 0.03373908 -0.9069214 10649964 male
0.4080879 -0.1229789 1.367514 0.3312364 -0.2094325 0.9200113 9789531 male
0.3028902 0.7542877 1.323165 -0.2060856 0.8252798 0.5257777 9989221 male
0.6737259 0.2872463 0.9375837 -0.06117426 -0.893899 0.4440748 13533828 male
0.3090998 1.000579 1.194185 -0.4615074 0.5928827 -0.6599251 8418419 male
0.2920102 0.45101 1.461219 -0.8908033 -0.07239497 0.4485851 13074806 male
0.3748915 0.3128234 1.365089 0.3744074 -0.1029948 0.9215267 12614509 male
0.3829051 0.5176862 1.047285 0.3895231 -0.1111331 -0.9142874 11562578 male
0.4144728 0.002863137 1.021594 -0.1290208 -0.1059206 -0.9859689 11185063 male
0.2309352 0.3397047 1.241595 -0.9921331 0.02807643 -0.1219996 14063739 male
0.3231505 0.07556181 1.200931 0.01458052 -0.1665152 0.9859313 9870239 male
0.3413946 -0.211476 1.248818 -0.6016401 -0.003457637 -0.7987599 10579563 male
0.4186281 1.01524 1.222417 0.44013 0.8114188 -0.3845585 7561562 male
0.5464134 0.3946638 0.9034867 0.5857732 0.7897842 -0.1819637 8147523 male
0.2807146 0.4999067 1.046054 -0.4390838 -0.1939093 -0.8772713 12551019 male
0.3444386 0.3930212 1.506792 -0.1588706 0.1529302 0.9753833 10250074 male
0.1870516 -0.5345813 1.276565 -0.9538574 0.2717684 -0.1276642 12621190 male
0.3644504 0.005392234 1.210295 0.05829514 -0.1122343 -0.9919704 10786452 male
0.2197071 -0.4394962 1.274212 -0.8834143 0.188048 -0.4292054 11830394 male
0.4797637 0.3509908 0.9370072 -0.2960424 -0.747552 0.5945797 10183519 male
0.2764134 0.2347411 1.050811 -0.5225223 0.07189832 -0.8495889 11316393 male
0.5674486 -0.1470569 1.068437 0.8606794 0.2919013 -0.4171629 9329492 male
0.1418644 -0.678827 1.289486 -0.7247041 -0.02245735 0.6886942 6243653 male
0.2835879 0.4751074 1.359372 -0.4179288 -0.251078 0.8730954 11432807 male
0.2124001 0.1166511 1.268884 -0.9280546 -0.3719526 0.01913321 13422028 male
0.2625303 0.7464563 1.177654 -0.8100257 0.5850235 0.04007566 12025715 male
0.3231252 1.000969 1.18765 -0.3050878 0.6031851 -0.7369459 9404022 male
0.2990508 0.4230136 1.357626 -0.370339 -0.1295669 0.9198161 12418411 male
0.3227298 0.4174004 1.04667 -0.124044 -0.06107185 -0.9903957 13537915 male
0.3335695 0.54005 1.033874 0.1830165 -0.0962972 -0.9783824 11367773 male
0.2726032 0.7226191 1.072158 -0.6332163 0.6255719 -0.4557379 12553082 male
0.2098311 0.2088614 1.150913 -0.9809963 0.1422202 -0.1319851 13223105 male
0.7720877 0.2477409 0.9119477 0.2214385 -0.1348762 -0.9658021 9860463 male
0.4179213 -0.1406593 1.103134 -0.8708241 -0.477515 0.1168123 11238257 male
0.2279689 0.3914675 1.24556 -0.9850808 -0.1189969 -0.1243211 14589058 male
0.4611083 0.04084327 1.187425 0.527397 -0.08497348 0.8453592 11118248 male
0.3617183 -0.2218131 1.362251 -0.1457721 -0.03516971 0.988693 10514286 male
0.4150606 0.6623386 1.308865 0.8706752 0.4358446 0.2279572 13142131 male
0.5011728 -0.3020428 0.9961755 -0.1293359 0.198083 -0.9716149 9727587 male
0.4672541 -0.3976297 1.023342 -0.9036011 -0.2521215 -0.3463236 10515302 male
0.4149649 0.635409 1.346229 0.8983898 0.3259698 0.294346 13339248 male
0.2288091 0.5038314 1.10461 -0.9334781 -0.1042245 -0.343156 14129524 male
0.5113819 -0.2947154 1.111869 0.1927668 -0.1358002 0.9718022 10775910 male
0.3662382 -0.7182378 1.254993 0.2394618 0.457382 -0.8564227 5395019 male
0.2663853 0.5463638 1.37335 -0.5368292 -0.4563506 0.7096186 12418411 male
0.2341914 0.3294773 1.156983 -0.9996454 0.01995951 -0.01763546 13867128 male
0.314935 0.5676261 0.9595166 -0.8002084 -0.03136299 -0.5989016 11893099 male
0.3697732 0.9004678 1.323342 0.1423708 -0.6592414 0.7383302 13139067 male
0.190617 -0.5920722 1.301476 -0.5267839 0.0455043 0.8487805 11240570 male
0.3400161 0.07813117 1.027001 -0.3240577 -0.1549572 -0.9332604 11184291 male
0.3450463 0.8511737 1.2975 -0.25031 -0.3021848 0.9197986 11565170 male
0.4791736 0.8692762 1.232632 0.9970255 0.03520871 -0.06856138 12222587 male
0.3440265 0.526537 1.389731 0.3295124 -0.285061 -0.90009 11497310 male
0.3293554 -0.2502159 1.353456 -0.4375582 0.2081401 0.874769 10250847 male
0.3709218 0.8946291 1.164258 0.1305758 0.04066582 -0.9906041 13668481 male
0.7761911 -0.6545988 1.026199 0.1655511 -0.9840912 -0.06447659 5985610 male
0.3015886 -0.3079387 1.362129 -0.230836 0.1695745 0.958102 10120812 male
0.551555 0.184824 1.460694 -0.4143501 -0.4143076 -0.8103478 13011072 male
0.4599781 -0.2034669 1.04325 -0.7538023 -0.01680911 -0.6568864 12750214 male
0.405159 0.2008476 1.049896 0.6279286 0.2503956 -0.7368907 11183265 male
0.2353123 0.283991 1.1204 -0.9303155 0.2619106 -0.2567413 12825518 male
0.4108822 0.6765505 1.107051 0.8814222 0.4640181 -0.08821815 12418408 male
0.221807 0.4684855 1.258517 -0.9913532 -0.1239577 0.04305184 14523265 male
0.3529564 0.2781049 1.37316 0.222995 0.214549 0.9509165 7822176 male
0.3914241 0.1702829 1.034902 0.3596693 0.182352 -0.915088 12170413 male
0.259871 0.3886962 1.335079 -0.7015785 0.1243264 0.7016629 12418157 male
0.412336 0.8354141 1.177563 0.1307874 -0.4375495 -0.8896321 12814200 male
0.6891552 -0.6500353 0.9430381 -0.1252119 0.3740154 -0.9189312 8610138 male
0.3208225 0.3581595 1.371976 -0.08487873 0.1615343 0.9832103 12618878 male
0.4041715 0.4227919 1.346412 0.5163274 -0.0298296 0.8558718 13074803 male
0.4486465 0.03626912 1.19247 0.3765341 -0.131252 0.917058 10920862 male
0.4506418 0.3045287 1.112673 0.7337842 -0.08083972 -0.6745561 13077871 male
0.567178 -0.2830435 1.062414 0.9705062 -0.04738797 0.2363733 11500141 male
0.4848762 0.3428875 0.9033705 -0.4246773 -0.8551129 -0.297374 12616830 male
0.5161089 0.3899963 0.8762304 0.2628731 0.2863549 -0.9213572 8477004 male
0.6168096 0.2086276 1.461475 0.4777218 0.6027808 0.6390909 11232876 male
0.4930133 -0.3583294 0.9904624 -0.3294503 0.007538792 -0.9441429 9464159 male
0.6770798 0.2683607 0.9186868 0.04536339 -0.4365124 0.898554 12615294 male
0.4538605 -0.2965801 1.036457 -0.9599346 0.06040707 -0.2736362 11762799 male
0.4307359 0.2713751 1.321085 0.7033427 -0.07963989 0.7063759 12423550 male
0.4954769 -0.09269829 1.1584 0.306888 -0.08012786 0.9483667 10709606 male
0.4675177 0.1358606 1.262869 0.9236135 -0.04849613 0.3802454 12368828 male
0.3974061 -0.2240283 1.251363 0.5327693 -0.2235213 -0.8162079 9792608 male
0.4481698 0.3262344 1.308015 0.7163828 0.01779451 0.6974807 13143152 male
0.5622038 -0.3926303 1.062117 0.8646079 -0.0200395 0.5020476 10318443 male
0.6895624 0.3243709 0.931758 0.3246533 0.8922203 -0.313916 12809584 male
0.3252302 0.3220575 1.042041 -0.0625119 -0.06099785 -0.9961785 13868417 male
0.7142092 0.2328995 0.8954369 0.7125297 0.2383959 0.6599007 11963789 male
0.4174426 0.4075364 1.337202 0.6055494 -0.02028346 0.7955495 13535094 male
0.3501191 0.9026089 1.158489 0.995441 0.06932079 -0.06551325 11888233 male
0.3342972 -0.1190161 1.360806 -0.4573018 -0.1554487 0.8756204 9660264 male
0.2423275 0.1273577 1.079366 -0.7558736 -0.172856 -0.6314873 11580074 male
0.2470361 -0.3937463 1.346148 -0.5940818 0.01862871 0.804189 10514025 male
0.451163 0.06188198 1.243683 0.833163 -0.1738844 -0.52498 13026246 male
0.2192405 0.4933573 1.258333 -0.9923034 -0.1171874 0.04001707 14787206 male
0.2517471 0.7185495 1.232623 -0.9068808 0.4078583 -0.1059201 13668734 male
0.4722174 -0.4106041 1.019844 -0.8932934 -0.2538204 -0.3709478 9727331 male
0.2297927 0.3574925 1.25972 -0.9995819 -0.02353825 -0.01679564 13932922 male
0.2178847 0.5593172 1.130271 -0.9851177 -0.08443026 -0.1497161 13537907 male
0.3247696 -0.2192132 1.277908 -0.9188713 0.1017715 -0.3812067 12155767 male
0.2608183 0.4703792 1.342981 -0.6542308 -0.2475084 0.7146481 12943987 male
0.3421976 -0.02687383 1.136393 -0.802549 -0.5182579 0.2955064 9801621 male
0.3255313 0.3813777 1.046167 -0.07812789 0.1514486 -0.9853729 13537915 male
0.4015331 -0.1021191 1.059422 -0.7429959 -0.3940516 -0.5409996 11502714 male
0.57022 -0.3737224 1.050985 0.9405872 0.01547861 0.3391997 11831419 male
0.4812636 0.3712059 1.156757 0.9249367 0.04329792 -0.3776474 13668205 male
0.3036387 -0.1057994 1.333168 -0.852504 -0.1652361 0.4959175 13014668 male
0.3703006 1.02393 1.209429 0.07251176 0.8755971 -0.4775686 7628123 male
0.5028967 -0.4285803 1.087936 -0.3110432 -0.3685006 0.8760477 9332065 male
0.5086749 0.04242764 1.136201 0.8789275 0.1913236 0.4369006 13552582 male
0.3785924 0.2090109 1.383928 0.3626347 0.1196041 0.9242247 11249827 male
0.5066226 -0.4631556 0.9957739 -0.4967699 -0.1619262 -0.8526429 9592922 male
0.682437 0.3303459 0.9537107 -0.06694926 0.9946325 0.07889251 13533819 male
0.3969345 0.1571122 1.034118 0.3610404 0.1974418 -0.9114093 11907757 male
0.2289933 0.311247 1.249267 -0.9917006 0.11589 -0.05567396 13405043 male
0.2210443 -0.5183795 1.322098 -0.3578058 -0.1593231 0.920104 9198947 male
0.5626972 -0.3332654 1.064059 0.9033031 0.01862012 0.4285989 11041131 male
0.2223236 -0.4083127 1.286254 -0.9580249 0.2001562 -0.2052466 11896440 male
0.4998747 -0.4952974 1.009966 -0.8308709 -0.2521424 -0.4960625 9925478 male
0.3816477 0.3776677 1.056167 0.4016554 0.08046246 -0.9122494 12416867 male
0.2432095 -0.5113179 1.251646 0.2236419 -0.1375321 -0.9649193 11041900 male
0.486453 0.3160526 1.233918 0.9981254 -0.05942969 -0.01462829 12878186 male
0.6023671 -0.6621981 0.9734576 -0.2966122 0.2290317 -0.9271278 8544851 male
0.4619204 0.5093338 1.288837 0.9569881 -0.1623915 0.2404226 13140075 male
0.4385951 -0.04821283 1.260449 0.7818742 -0.1331389 -0.6090541 9930625 male
0.3144583 0.9624333 1.318347 -0.4124102 0.1345151 0.9010127 8020578 male
0.2239723 0.6496197 1.327562 -0.9272213 0.1978174 0.3180079 14392960 male
0.2689731 0.07266586 1.080514 -0.6571064 -0.5366443 -0.5293621 13422020 male
0.6820136 -0.6725767 0.9894436 0.1766493 -0.9811314 -0.0785884 9792363 male
0.2951681 0.7664962 1.122492 -0.3821565 0.8324227 -0.4012841 11634818 male
0.3320215 0.3920509 1.50202 -0.37177 0.02621587 0.9279548 11499885 male
0.3298555 0.595579 0.9484662 -0.5119924 0.09935087 -0.8532254 12945011 male
0.6855129 0.2794083 0.8873856 0.2064894 0.2362167 -0.9495073 10914426 male
0.5621408 0.1801782 1.459838 -0.3168902 -0.5988584 -0.7354926 13010052 male
0.5282856 0.008341909 1.108969 0.9629447 0.2300744 0.1407251 11375236 male
0.4110073 0.1266133 1.030066 0.3517441 0.211755 -0.9118313 11447981 male
0.2120108 0.5789981 1.300455 -0.9746793 -0.1502238 0.16563 15181444 male
0.4578828 0.4276597 1.116467 0.7889965 0.04807569 -0.6125141 13536620 male
0.4732419 0.8538135 1.248158 0.8088588 -0.4449185 0.3844416 12155255 male
0.3295723 -0.2620524 1.260645 -0.5593102 0.1300797 -0.818689 10973803 male
0.4831987 0.2374493 1.509993 -0.145449 -0.2044616 0.9680083 9330000 male
0.466738 0.1149392 1.244352 0.8553683 -0.4428881 0.2686924 12829891 male
0.4638449 0.5134726 1.201029 0.9843714 0.1760801 0.00296545 12155505 male
0.3103495 -0.01160524 1.225832 -0.5530882 -0.2039086 -0.807784 9932683 male
0.2908547 0.1494514 1.376269 -0.4340465 0.02350354 0.900584 11642537 male
0.5186932 0.3628069 0.8746704 0.00446641 -0.1811561 -0.9834443 10709861 male
0.7602072 0.2674259 0.918564 0.4244058 0.8777443 0.2223619 11175808 male
0.4398787 0.8105813 1.266765 0.2959738 -0.7492973 0.5924129 10842724 male
0.2174616 0.2480288 1.164611 -0.9491186 0.2999186 -0.09603673 12434106 male
0.4242357 0.4298044 0.8775489 -0.1432736 0.09834702 -0.9847846 10578010 male
0.6282973 0.1579652 1.468826 -0.0904395 -0.3019138 -0.9490358 13663622 male
0.3820896 0.3166191 1.053694 0.427386 -0.07297751 -0.9011191 11827289 male
0.4202425 0.2837795 1.511286 -0.2464206 -0.3001036 0.9215286 11826541 male
0.2358256 0.3230404 1.141711 -0.9951316 0.02920967 -0.09412867 13604729 male
0.3847052 0.02037783 1.194516 -0.1608128 -0.2744644 0.9480552 9538188 male
0.339574 0.5152518 1.035737 0.1456895 -0.1218415 -0.9817991 11564378 male
0.264445 0.65169 1.028666 -0.876101 0.02303128 -0.4815775 14197384 male
0.2816738 -0.2813422 1.2856 -0.73824 0.514533 -0.4361854 12225147 male
0.3767326 1.032437 1.261802 0.1240123 0.9749148 0.1848295 7496026 male
0.3914446 0.5627446 0.9376322 0.5358986 0.4282608 -0.7276026 9198666 male
0.4437298 -0.1628689 1.052846 -0.7303123 -0.2183468 -0.6472779 12488324 male
0.415564 -0.2631775 1.279701 0.6232886 -0.399725 -0.6721097 9462875 male
0.4759837 0.3803636 1.145018 0.8787223 0.03279081 -0.4762062 13536107 male
0.4094639 -0.1229009 1.070375 -0.8248585 -0.4474147 -0.3455844 13473163 male
0.3065626 1.004779 1.199907 -0.4912465 0.6429897 -0.5875723 7695979 male
0.3186193 0.7233436 1.373905 -0.009813718 0.8448059 0.5349829 11702159 male
0.3543817 0.5841286 1.041173 0.4105988 -0.2843472 -0.8663461 11038301 male
0.4572491 -0.2199405 1.0508 -0.9156524 -0.04241952 -0.3997268 11238000 male
0.5581858 -0.4213572 0.9970887 0.5954593 0.0485406 -0.8019179 9727330 male
0.4429153 -0.174316 1.284668 0.8973774 -0.1415079 -0.4179589 11893107 male
0.5862192 0.3187467 0.9327627 -0.1117776 -0.4864043 0.8665546 14594741 male
0.4646717 0.05084255 1.288316 0.9877791 -0.05071396 -0.1473796 13355976 male
0.3898551 0.6720947 1.372533 0.8637345 0.5039242 0.004829347 14392184 male
0.4965942 0.4199715 0.9336595 0.4700421 0.6056015 0.6421117 12285033 male
0.3631192 0.7876149 1.167431 0.1815529 0.1446045 -0.9726913 13077101 male
0.5404239 -0.2934096 1.096173 0.6323436 -0.1164982 0.7658786 10316379 male
0.2244258 0.1368451 1.323513 -0.8225361 -0.1428957 0.5504684 10131610 male
0.7340969 -0.6386077 1.030455 0.08373244 0.9960111 -0.03083481 11097174 male
0.3420195 0.3997647 1.415941 0.2079526 -0.1670085 -0.963776 11890534 male
0.3162713 0.4906237 1.391783 0.03116143 -0.3274217 -0.9443644 11693407 male
0.3185545 0.3402499 1.472253 -0.7450819 -0.6273483 0.2264666 10052185 male
0.3078059 -0.7074921 1.244011 0.115985 0.1915219 -0.9746112 7559500 male
0.3207532 0.3492752 1.433649 -0.5755352 -0.4814507 -0.661033 9722711 male
