# .PCD v0.7 - Point Cloud Data file format
VERSION 0.7
FIELDS x y z normal_x normal_y normal_z rgb label
SIZE 4 4 4 4 4 4 4 4
TYPE F F F F F F U U
COUNT 1 1 1 1 1 1 1 1
WIDTH 193
HEIGHT 1
VIEWPOINT 0 0 0 1 0 0 0
POINTS 193
DATA ascii
-0.6557823 -0.6672167 1.533873 -0.1568785 0.2291136 0.9606749 9330785 male
-0.4936713 0.4324907 1.288672 -0.4694619 -0.0514374 0.8814533 12811625 male
-0.652546 -0.2272079 1.638946 0.1141574 -0.05751321 0.9917967 12291490 male
-0.7222733 -0.2991053 1.502784 -0.6421876 0.1939826 0.7415969 9857126 male
-0.1655635 0.5483058 1.527019 -0.1264011 0.5572292 0.8206818 12026477 male
-0.6603715 -0.5205476 1.514691 0.3762938 0.03682339 0.9257686 10710631 male
-0.6551827 -0.4775149 1.513767 0.57016 0.009354953 0.8214806 10251112 male
-0.5475254 -0.6662762 1.53699 -0.0425651 0.4560594 0.8889309 11037802 male
-0.7129742 -0.1743163 1.413523 -0.6308942 -0.1016437 -0.7691823 11894139 male
-0.8062399 0.2475259 1.555791 -0.969945 0.2415079 -0.02967745 13552326 male
-0.7840233 0.258142 1.402809 -0.7478725 0.3706302 -0.5507451 11315875 male
-0.7176145 -0.4713984 1.45382 -0.8711423 -0.2770155 -0.4054305 10252643 male
-0.587401 -0.15454 1.557499 0.7558854 -0.08869567 -0.6486684 11237229 male
-0.4666274 -0.6742908 1.530905 -0.06486953 0.5610808 0.8252154 5395020 male
-0.73571 0.153343 1.1742 -0.1114414 0.4401222 0.8909957 13010563 male
-0.01269341 0.6141325 1.405223 0.3857575 0.4828845 -0.7861387 8943479 male
-0.5973943 0.4710829 1.812454 -0.5356266 0.8147244 0.2221001 10116948 male
-0.5771273 0.4195527 1.64737 -0.1406456 0.4839341 0.8637284 12419435 male
-0.4489084 0.3547931 1.345226 0.006475843 -0.5296638 -0.848183 11759702 male
-0.7237676 -0.1100748 1.406956 -0.6727778 -0.2342302 -0.7017881 13342092 male
-0.4644813 0.544284 1.592719 -0.5465276 0.7808536 0.3026143 13603700 male
-0.7904508 0.1355763 1.483098 -0.7069101 -0.4967749 0.5034807 10591129 male
-0.6809781 -0.1494211 1.528037 -0.4398296 -0.02531784 -0.8977245 9264217 male
0.04346472 0.5297309 1.45126 0.961197 -0.1319154 -0.2422785 9269604 male
-0.64279 0.2594424 1.141072 0.5060229 -0.358719 -0.7843862 9928554 male
-0.3514026 0.3743357 1.339367 0.0228349 -0.7906808 -0.6118026 12352354 male
-0.5834014 0.4844435 1.788186 -0.5681661 0.8015059 -0.1864823 10842976 male
-0.729422 -0.3186074 1.575439 -0.9821478 0.1038376 -0.1568558 11567738 male
-0.7408688 0.1290115 1.519771 -0.4424005 -0.4040028 -0.8006647 10396830 male
-0.7160472 -0.2481339 1.581064 -0.956903 0.2425069 -0.1597725 12158583 male
-0.6721306 0.246948 1.194517 0.03694675 -0.4557811 0.8893249 11961970 male
-0.8137433 0.2040364 1.47078 -0.990058 -0.01443794 0.1399178 12302007 male
-0.6984794 -0.2206996 1.406007 -0.3696503 -0.03023299 -0.9286791 10315107 male
-0.6419982 0.07321339 1.523344 0.2480612 -0.01105789 0.9686813 9012613 male
-0.6651689 0.3820194 1.644134 -0.5187685 0.4773662 0.7092255 12551541 male
-0.7286729 0.2155317 1.898392 0.9801564 -0.1971988 0.02015471 11693424 male
-0.251404 0.5703882 1.445576 0.3104252 0.9399726 -0.1417312 11761786 male
-0.002982883 0.6067596 1.405972 0.5081182 0.3926894 -0.766558 8811629 male
-0.6381699 0.3388741 1.670603 -0.1266336 0.1458302 0.9811716 15250606 male
-0.5253055 0.3716641 1.341357 -0.101856 -0.1695526 -0.9802436 14130294 male
-0.4741589 0.4072115 1.326296 -0.2066132 -0.2212458 -0.95308 13407607 male
-0.2367447 0.5267624 1.371983 0.7709808 0.222377 -0.5967725 11369842 male
-0.7213252 0.3077029 1.372749 -0.5381178 0.4408384 -0.7183946 10855070 male
-0.7826531 0.07006917 1.124286 0.8433551 -0.4064668 0.3514785 9460564 male
-0.7262902 -0.1014253 1.49921 -0.704473 -0.02492764 0.709293 11302258 male
-0.3825274 0.5782328 1.610659 -0.283664 0.8737599 0.3950676 13011571 male
-0.6142604 -0.008009331 1.503017 0.5962219 -0.06885674 0.7998616 9795959 male
-0.6498945 -0.2528676 1.638485 0.159593 0.004207582 0.987174 10712434 male
-0.7126809 0.2736957 1.35168 -0.4296435 0.2230879 -0.8750077 11250859 male
-0.7269381 -0.2587388 1.426219 -0.8360981 0.09750885 -0.5398447 12158584 male
-0.7012843 -0.2325928 1.515448 -0.3568927 -0.1012884 0.928638 9921379 male
-0.3585148 0.3290292 1.599319 0.4764399 -0.8096607 0.3427165 11563873 male
-0.6392904 0.4238766 1.394768 -0.5679923 0.6520028 -0.5022721 13012594 male
-0.6982629 -0.3782344 1.524817 -0.1070233 0.06031384 0.9924256 11765113 male
-0.5510941 -0.7003555 1.549592 -0.01399712 -0.985125 -0.1712683 10841451 male
-0.3614272 0.3922223 1.651333 0.0320201 -0.3725213 0.9274712 11824482 male
-0.5820448 0.4716067 1.485952 -0.6046361 0.7912331 0.09146357 14064251 male
-0.4809051 0.4740853 1.264303 -0.4876195 0.8730032 -0.009624839 12878962 male
-0.05818126 0.5362376 1.547712 0.175708 -0.3047549 0.936083 11169392 male
-0.7034694 -0.5099317 1.558355 -0.9864358 -0.1329369 -0.09629297 12554372 male
-0.6924528 0.1308857 1.333549 0.003827909 -0.08441953 -0.9964231 13157822 male
-0.2045313 0.5393228 1.5391 0.4503599 0.4023345 0.7970591 10710881 male
-0.05568227 0.4307424 1.456678 0.2692935 -0.2406345 -0.9325107 13072241 male
-0.5461578 0.4198018 1.782232 0.2090695 -0.9518878 -0.2240529 13932682 male
-0.662747 -0.2418314 1.639921 0.001033213 -0.01490419 0.9998885 11897993 male
-0.09278146 0.5418155 1.393386 -0.4194991 -0.7182238 -0.5551354 13534843 male
-0.5572647 -0.6622204 1.535068 0.0498134 0.534773 0.8435263 10446700 male
-0.6635606 -0.3290055 1.642542 0.1071678 -0.0590772 0.9924843 11438981 male
-0.7469255 0.2566724 1.883793 -0.25541 0.2936822 -0.9211496 13009790 male
-0.733772 -0.2389567 1.455938 -0.995746 0.08077952 0.04432583 10710372 male
-0.6419181 0.2177498 1.333914 0.2572014 -0.05108436 -0.9650067 12039858 male
-0.6654638 0.4140476 1.43469 -0.7392089 0.6648721 -0.1073099 14064504 male
-0.254401 0.5794004 1.509884 0.2871572 0.954635 -0.07882051 12882057 male
-0.4524069 0.5591384 1.559493 -0.5490937 0.8345018 0.04585934 14458753 male
-0.6880208 0.3536474 1.643713 -0.4561726 0.5643364 0.6880633 10984607 male
-0.6002994 0.1332583 1.383941 0.8330888 0.0631682 -0.5495209 11119013 male
-0.6485076 0.2869937 1.685224 0.04935811 0.2319068 0.971485 12432047 male
-0.09612522 0.4476488 1.424741 0.0338969 -0.6366457 -0.7704113 15112844 male
-0.5225303 -0.6818367 1.460277 0.07836992 0.8292853 -0.553303 8085077 male
-0.6062332 0.4236214 1.641606 -0.188306 0.6163678 0.7646122 12813424 male
-0.5379786 0.3954585 1.660062 -0.08232859 0.1462657 0.9858136 12621700 male
-0.6234395 0.009098385 1.510665 0.5093055 -0.09528377 0.8552948 10591896 male
-0.5375183 0.2532742 1.41182 0.423224 -0.5792111 -0.6967037 13206894 male
-0.6330369 -0.301321 1.477479 0.862875 -0.07535914 0.4997678 11236717 male
-0.6689452 0.3246291 1.165666 -0.6916602 0.6314226 -0.3505878 12089710 male
-0.6316986 0.2842419 1.138884 0.3399176 -0.1787592 -0.92331 15456450 male
-0.8309169 0.2061442 1.952907 -0.322213 -0.1243448 -0.9384654 9855072 male
-0.6241134 -0.3844443 1.449127 0.9783436 -0.05696967 -0.1989938 11962232 male
-0.7929617 0.1226008 1.134326 -0.3386421 -0.1504293 0.9288126 12423053 male
-0.7276485 -0.3132789 1.419728 -0.7503337 0.04195654 -0.6597267 11500653 male
-0.5840109 0.3687995 1.66971 0.1197285 0.1695341 0.9782247 12946819 male
-0.6446887 -0.1832515 1.51175 0.3911969 -0.09812001 0.9150617 8802643 male
-0.5128999 0.2239871 1.510835 0.5669737 -0.8229489 0.03600025 12485739 male
-0.6651824 -0.1420944 1.522143 -0.09814619 0.01350745 -0.9950805 11302509 male
-0.586364 0.3221129 1.670158 0.1510618 -0.1916294 0.9697725 12418419 male
-0.6420863 -0.5400646 1.455841 0.5686597 -0.1951672 -0.7990846 10518119 male
-0.7710695 0.102499 1.110237 0.2097515 -0.1813631 -0.9607871 9865346 male
-0.7433729 0.2662322 1.368736 -0.5291519 0.2905454 -0.797234 11184039 male
-0.8634394 0.09396229 1.11305 -0.6570396 0.312254 0.6861461 11368563 male
-0.5055435 0.4493176 1.654218 -0.2819566 0.2721839 0.9200091 11365988 male
-0.1063773 0.5535353 1.38469 0.04195266 -0.4008068 -0.9152017 14391700 male
-0.6711155 -0.05669976 1.662049 -0.2360705 -0.2261777 0.9450474 9199712 male
-0.7914254 0.2790358 1.495749 -0.8872141 0.4613288 0.005210698 13223366 male
-0.611929 -0.3739158 1.588269 0.9976586 -0.06707529 0.01335692 11107183 male
-0.5674557 0.1140711 1.581454 0.9904016 -0.04111728 -0.131963 14013134 male
-0.3618607 0.5888687 1.596878 -0.1687067 0.9422153 0.2894279 14196095 male
-0.5516733 0.4931809 1.505334 -0.5881578 0.785206 -0.1937063 14588795 male
-0.73357 -0.406829 1.449262 -0.9214556 -0.2286892 -0.3140397 10712170 male
-0.488237 0.5376024 1.519677 -0.5272816 0.8328946 -0.1681088 14590084 male
-0.5023125 0.5285733 1.458996 -0.5076718 0.8538172 0.1151764 14195326 male
-0.7052472 -0.1600536 1.559436 -0.933656 -0.1296084 -0.3338985 12026234 male
-0.6541113 0.3365757 1.667996 -0.17272 0.3007095 0.9379455 8612464 male
-0.7761626 0.05630693 1.425948 -0.9641875 -0.2080828 -0.1644512 13157824 male
-0.5476151 0.3660007 1.345009 -0.09539613 -0.08959915 -0.9913989 14591878 male
-0.7391017 -0.08241583 1.413042 -0.8201486 -0.2094391 -0.5324394 10845555 male
-0.6490154 -0.5815893 1.4643 0.2568958 -0.2030538 -0.9448672 13409421 male
-0.630842 0.3099781 1.342552 0.00401875 0.02931391 -0.9995623 14331532 male
-0.6878831 -0.116737 1.530576 -0.4963061 -0.0211226 -0.8678908 9462113 male
0.02263944 0.5762805 1.416521 0.7326007 0.2084161 -0.6479653 7628123 male
-0.7290447 -0.4364528 1.480253 -0.9648321 -0.2224442 0.1400641 12354426 male
-0.6658209 -0.06038356 1.517723 0.08411776 -0.01221603 0.996381 8343882 male
-0.7440009 0.3049729 1.637406 -0.5999121 0.4767727 0.64249 10459030 male
-0.6929121 -0.5698602 1.514099 -0.5044726 0.01202662 0.8633441 9396060 male
-0.7210615 0.154983 1.169795 0.44978 0.1570227 0.8792282 12422796 male
-0.6104218 0.1329813 1.372281 0.7315136 0.0236182 -0.6814178 10986655 male
-0.5027812 0.5320469 1.525945 -0.5357595 0.8333791 -0.1357973 14590596 male
-0.6892223 -0.5154839 1.589889 -0.5686518 -0.2864652 0.7710856 10054504 male
-0.6457142 -0.3231831 1.493482 0.722305 0.03078521 0.6908892 10974568 male
-0.6981592 -0.4379161 1.532848 -0.6273729 -0.1383281 -0.7663347 9725281 male
-0.6958135 -0.6023663 1.512865 -0.6411258 0.02227547 0.7671126 10249066 male
-0.4090598 0.5705773 1.427673 -0.3089069 0.9500197 0.04515615 14130813 male
-0.6248765 -0.5431347 1.545586 0.8282586 0.1908007 -0.5268615 12288372 male
-0.4643384 0.2630394 1.575424 0.5413381 -0.7068139 0.4553759 13011055 male
-0.5880365 -0.6781851 1.467433 -0.07755809 0.3301119 -0.9407502 11637384 male
-0.2970641 0.3774761 1.546383 0.7652165 -0.6349723 0.1060853 13537907 male
-0.6501057 -0.05072933 1.522464 0.1064328 -0.06794335 -0.991996 9791076 male
-0.03399941 0.6163788 1.535071 0.1363549 0.5175732 0.8447044 8020578 male
-0.4388744 0.5675017 1.542212 -0.4891325 0.8657938 -0.1055958 14984324 male
-0.7623161 0.08077337 1.374266 -0.7195128 -0.2293842 -0.6555033 10395543 male
-0.5675944 -0.7004516 1.514473 0.03705952 -0.9154769 0.4006603 10841459 male
-0.2424883 0.5509326 1.388279 0.5622051 0.6805004 -0.4699411 11633277 male
-0.5762668 0.4021023 1.864766 0.4689931 -0.03560501 0.882484 9398109 male
-0.3925728 0.4624036 1.223609 0.1228804 0.304604 -0.9445195 11895403 male
-0.7208015 0.1307091 1.142998 0.850931 -0.2912666 -0.4371273 12416106 male
-0.757574 0.206364 1.893018 -0.7832811 -0.3925272 -0.4820719 12678520 male
-0.6998107 -0.2629206 1.512126 -0.2608054 -0.02043906 0.9651752 10447973 male
-0.665512 0.08508494 1.341908 0.205969 -0.1138659 -0.9719114 13288898 male
-0.3733167 0.5881149 1.527602 -0.189547 0.9466628 -0.2605791 14393217 male
-0.3971794 0.3026777 1.527412 0.5673478 -0.8233981 -0.01149499 13731443 male
-0.06777104 0.4419675 1.505551 0.4333827 -0.8430303 0.3185583 15703956 male
-0.6890255 -0.09030745 1.648284 -0.4340459 -0.2334083 0.8701293 10316908 male
-0.5432373 0.4988753 1.773577 -0.3933721 0.9191244 -0.02164999 12351340 male
-0.5343971 0.1928406 1.503309 0.6512902 -0.7536942 -0.08812642 12960956 male
-0.3418115 0.340555 1.489398 0.6000748 -0.7900296 0.1255527 13865080 male
-0.6915947 -0.00330254 1.520244 -0.2667583 -0.1387714 -0.9537205 9005419 male
-0.7458557 0.03259139 1.550049 -0.8256128 -0.1530507 -0.543083 11381413 male
-0.6577396 0.3093849 1.141631 -0.3109876 0.4185037 -0.8533121 12353654 male
-0.8275542 0.0173978 1.126778 -0.02983807 -0.2670991 0.9632071 12155762 male
-0.1498823 0.4471249 1.513758 -0.4965027 -0.4591359 0.7366678 11170664 male
-0.721364 0.339611 1.405535 -0.6021882 0.6867995 -0.4070332 12366510 male
-0.5858998 0.4191231 1.205375 -0.3741171 0.9097524 -0.1799638 11696495 male
-0.4332473 0.5264704 1.743546 -0.04639186 0.8560167 0.5148624 13864836 male
-0.4338404 0.2748377 1.546634 0.6653424 -0.7249686 0.1781574 14062195 male
-0.6635697 0.3094676 1.884756 0.7286869 -0.6636065 0.1692391 8410445 male
-0.5361567 0.5023989 1.48038 -0.5596424 0.8226793 0.09999657 14064250 male
-0.8088449 0.1500712 1.446049 -0.9265312 -0.3714519 0.05969709 12170679 male
-0.426966 0.3877409 1.330784 0.02081784 -0.3876614 -0.9215668 11891549 male
-0.2910176 0.4122995 1.304979 0.6436063 -0.7493185 -0.1558614 14062451 male
-0.688664 -0.3709804 1.521253 -0.2731337 0.03108262 -0.9614739 9594207 male
0.04197136 0.5782511 1.465874 0.9676526 0.2519122 -0.01375216 7496026 male
-0.5163801 0.3560134 1.221501 0.3564008 -0.9254751 -0.1283523 12945266 male
-0.7309911 -0.1737596 1.435929 -0.9282143 -0.09161913 -0.3605888 12291711 male
-0.678431 -0.3539584 1.520626 -0.06242744 0.09963015 -0.9930643 11501941 male
-0.5526813 0.2673076 1.389752 0.408222 -0.5508977 -0.7279194 13142641 male
-0.7315589 -0.06213456 1.398172 -0.6937056 -0.2129149 -0.6880698 11699327 male
-0.01507492 0.6245145 1.410424 0.3566535 0.5977272 -0.7179976 8418159 male
-0.3495142 0.3435425 1.613185 0.562717 -0.6770607 0.474277 13272175 male
-0.4605001 0.406226 1.325078 -0.1415605 -0.2698055 -0.9524525 11368286 male
-0.6415708 -0.1080486 1.387459 0.2450743 -0.2577113 -0.9346249 13016460 male
-0.736037 -0.2727083 1.472172 -0.9424651 0.17992 0.2817602 10975091 male
-0.5757882 -0.08766134 1.572794 0.9326484 -0.06192839 -0.3554324 12354426 male
-0.6933742 0.2880096 1.187697 -0.8249589 0.3286807 0.4597958 9144933 male
-0.591351 0.08190003 1.534838 0.7178488 -0.1469183 -0.6805206 11381421 male
-0.3370133 0.3412903 1.58813 0.6803087 -0.6920271 0.2414097 12878438 male
-0.5774161 0.3080323 1.188346 0.6649725 -0.7130721 0.2221259 11892067 male
-0.2041572 0.5041112 1.418841 0.1216648 -0.0936392 -0.9881445 12813683 male
-0.6147848 -0.2509458 1.470451 0.8434115 -0.3626314 0.3964288 10973293 male
-0.5753146 0.4750304 1.590099 -0.5531328 0.7234955 0.4130357 13274743 male
-0.4596369 -0.6735185 1.533009 0.003410562 0.700985 -0.713168 6310992 male
-0.5975289 0.3864876 1.799127 0.2137963 -0.7344749 -0.644079 13407358 male
-0.65618 -0.1627465 1.646491 -0.0858951 -0.07984285 0.9931 11763594 male
-0.6495251 0.366945 1.893435 0.1576931 0.2459614 0.9563661 7622468 male
-0.5387363 -0.7040344 1.569345 0.06395706 -0.9911427 -0.116386 7955035 male
