# .PCD v0.7 - Point Cloud Data file format
VERSION 0.7
FIELDS x y z normal_x normal_y normal_z rgb label
SIZE 4 4 4 4 4 4 4 4
TYPE F F F F F F U U
COUNT 1 1 1 1 1 1 1 1
WIDTH 194
HEIGHT 1
VIEWPOINT 0 0 0 1 0 0 0
POINTS 194
DATA ascii
0.7491164 -0.6659871 1.064747 0.6285564 0.1785306 0.7569966 9066836 male
0.5834944 0.5835348 0.9414538 -0.7394375 -0.2085169 0.6401196 12616046 male
0.9307315 -0.1955925 1.208664 0.2490968 0.105659 0.9626979 9724242 male
0.7278923 -0.4083189 1.07255 -0.3224455 0.05137999 0.9451927 9923431 male
0.7705879 0.8326995 1.114675 0.0895149 -0.04731376 0.9948611 11498347 male
0.8605829 -0.1241921 0.9754428 0.9825437 0.04181734 -0.1812718 12156015 male
0.7521921 -0.5196606 1.054054 0.8193462 -0.188822 0.5413115 10448485 male
0.8775153 -0.7366245 0.9645393 -0.1695859 -0.9743046 -0.1482269 7491665 male
0.8043131 -0.1581166 0.9252405 0.07632621 -0.1676958 -0.9828798 11173737 male
0.627562 0.2527868 1.150266 -0.8743005 0.2995012 0.3819658 13222845 male
0.5976144 0.167647 1.003151 -0.8958223 -0.07216202 -0.4385148 10988196 male
0.6883776 -0.556803 1.019345 -0.7702088 -0.1564694 -0.6183007 10712178 male
0.9199662 -0.1977208 1.092846 0.003980169 -0.2715422 -0.9624184 8740179 male
0.7229837 0.7688472 1.139629 -0.2414435 0.8702634 0.4293562 11499888 male
0.6828936 0.1103449 0.7999957 -0.09994157 -0.6619737 0.7428342 13533828 male
0.704385 0.9874747 1.013001 -0.6678836 0.5423356 -0.5097095 8418419 male
0.7972142 0.4796878 1.349151 -0.3176158 0.1645695 0.9338294 13338749 male
0.803759 0.3362778 1.235614 0.528001 0.07462073 0.8459592 13407616 male
0.7104851 0.5188946 0.9137817 -0.03073671 -0.1679169 -0.985322 11891813 male
0.710748 -0.1329765 1.010126 -0.9223831 -0.3403426 0.1826926 13211015 male
0.6636146 0.4788992 1.212107 -0.6926987 -0.1157692 0.7118752 13865080 male
0.7468883 0.06544135 1.099819 0.3481914 -0.02259248 0.9371513 9342094 male
0.8378118 -0.1506924 1.14471 -0.9502081 -0.3115281 0.007426023 12552326 male
0.8161867 0.9943992 0.9926295 0.2769763 0.7005492 -0.6576587 7561562 male
0.5954197 0.2410564 0.7905747 -0.4162156 -0.01613708 -0.9091228 10979185 male
0.6158185 0.486384 0.9436767 -0.6061957 -0.2790064 -0.7447701 10973789 male
0.8510286 0.4181564 1.36951 0.2824441 0.1793225 0.9423741 10775134 male
0.7807965 -0.4751185 1.238581 -0.9771823 0.2053569 0.05425465 10843499 male
0.7909946 0.005956137 1.085744 -0.4791433 -0.2302199 -0.847007 10786452 male
0.7952564 -0.3960851 1.227075 -0.9709014 0.1288674 0.2018512 11632247 male
0.6586139 0.208506 0.8038223 0.9205353 0.3890564 0.03535676 12163734 male
0.6073801 0.2360646 0.9808018 -0.8558969 0.07439872 -0.5117671 11578792 male
0.8155249 -0.2747839 0.9376957 0.08481981 -0.1745374 -0.9809906 8871509 male
0.7516912 -0.6434125 1.306745 -0.1207653 0.1851615 0.9752596 5585467 male
0.7241935 0.4696514 1.243014 -0.1517892 -0.1647404 0.9745876 12615787 male
0.6637614 0.1070445 1.214575 -0.7540972 -0.4256042 0.5001987 13422028 male
0.6523561 0.7472546 1.052043 -0.6630958 0.7073179 0.2449599 11368819 male
0.7276962 0.9985516 1.004058 -0.3958449 0.6914001 -0.6043781 8811629 male
0.7256315 0.4512822 1.240827 -0.1586025 -0.1539602 0.975265 12419183 male
0.5915149 0.4075962 1.029967 -0.9810062 -0.1544323 -0.1173784 13602676 male
0.6439555 0.5146216 0.9247789 -0.2628938 -0.2091644 -0.9418797 11367773 male
0.6749399 0.7287771 0.9515829 0.2684518 0.7736902 -0.5738791 10511187 male
0.5840687 0.1573686 1.073294 -0.9881569 -0.07360915 0.1346402 13026238 male
0.7283373 0.01874274 0.7478729 0.6671703 0.3205209 -0.6724213 14594733 male
0.8106578 -0.1717396 1.058062 0.3020917 0.01301669 0.9531901 10251111 male
0.6379616 0.411435 1.166492 -0.9395427 -0.1552823 0.3052002 14589571 male
0.8457561 0.02274021 0.9864597 0.9939419 0.1030003 -0.03834885 13158081 male
0.9415127 -0.189706 1.203088 0.4520268 0.06258776 0.889806 10514286 male
0.8454751 0.6409501 1.115401 0.8822851 0.3890819 -0.2649309 13471351 male
0.7415667 -0.2701282 1.019652 -0.75198 0.3531162 0.5566285 11893870 male
0.7595004 -0.3738474 1.069769 0.2467766 0.1060953 0.9632474 9725283 male
0.8444635 0.6643183 1.178111 0.8710519 0.3758123 -0.3162816 13603451 male
0.602055 0.3727365 1.079575 -0.9083147 -0.1570527 0.3876843 14392193 male
0.8447428 -0.2280144 1.029635 0.7897556 -0.1520263 0.5942847 8933457 male
0.9438411 -0.7102849 1.156272 -0.5477456 -0.04845336 -0.8352408 5921882 male
0.8386752 0.5458179 1.200347 0.6640234 -0.07455771 0.7439854 12417387 male
0.6154171 0.2869918 1.100241 -0.8994433 0.20001 0.3885846 13276034 male
0.5502993 0.5359504 0.9031045 -0.9819508 0.1888171 0.01099432 11762030 male
0.804958 0.8982892 1.122352 -0.0780248 0.184666 0.9796993 11627882 male
0.7860165 -0.5437873 1.274611 -0.2534974 0.1215301 0.9596717 11895930 male
0.6472691 0.0220265 0.9818546 -0.8649198 -0.4014306 -0.3012763 11514026 male
0.7636573 0.7667413 1.128179 0.4606973 0.5060011 0.7291921 10972005 male
0.8732876 0.847939 1.00957 0.9903131 0.1361963 -0.02703506 10908268 male
0.8382075 0.4518299 1.277587 0.4167338 -0.2358799 -0.8778917 14262151 male
0.9159187 -0.2192134 1.214782 0.1263567 0.2686024 0.9549277 10250847 male
0.759734 0.874369 0.9733846 -0.3503071 -0.1121465 -0.929897 12617342 male
0.8900976 -0.7439865 0.9814559 0.07011513 -0.9730346 -0.2197444 7624015 male
0.9019263 -0.2736705 1.242426 0.3452093 0.2650532 0.9003208 10120812 male
1.034957 0.2176208 1.234962 -0.4719858 -0.4926001 -0.7311462 12683135 male
0.7705795 -0.1774268 0.9343403 -0.3945772 -0.128463 -0.9098387 13016723 male
0.7650057 0.2002118 0.9458447 0.5934878 0.1340013 -0.7936095 11382445 male
0.5914045 0.2440833 1.040344 -0.9800579 0.198486 -0.009486973 12565169 male
0.7409092 0.623431 0.9185773 0.7537992 0.2135003 -0.6214537 12878953 male
0.6736552 0.5322371 1.227953 -0.6270145 -0.125023 0.7689098 13340528 male
0.845577 0.2603326 1.21158 0.7869784 0.3860954 0.4812439 11447208 male
0.7059556 0.1392759 0.9155099 -0.1199632 0.02134959 -0.9925489 12170413 male
0.692273 0.3982468 1.2255 -0.4739501 0.04184404 0.8795571 12551020 male
0.7849898 0.812213 0.9842591 -0.2547405 -0.5576817 -0.7899991 12814200 male
0.7729336 -0.7290196 0.9450288 -0.4575539 0.248717 -0.8536888 8610138 male
0.8020357 0.4242463 1.224676 0.4924019 -0.03732262 0.8695676 13800837 male
0.8445178 0.3942992 1.183472 0.8484554 0.03427169 0.5281562 13206897 male
0.8399655 0.03041394 0.9585855 0.9262918 0.135001 -0.3517932 13224131 male
0.7382216 0.2664338 0.9407046 0.2697427 0.01962163 -0.9627327 11696999 male
0.7580072 -0.2859956 0.945114 -0.3935279 0.0443065 -0.9182446 11965316 male
0.5662756 0.2522135 0.8447161 -0.8311467 -0.4854245 0.2712166 13011579 male
0.5980802 0.2854474 0.794355 0.03331004 0.163545 -0.9859735 16772054 male
1.094502 0.2039791 1.248806 0.6158462 0.06615739 0.7850841 8083805 male
0.700253 -0.3412193 1.01862 -0.9194005 0.3075274 0.245214 13868683 male
0.6649507 0.09190775 0.7922252 0.4520069 -0.3225073 0.8316724 12615294 male
0.721904 -0.4139371 0.9609961 -0.3996772 -0.1655487 -0.901583 12888721 male
0.86488 0.310303 1.149112 0.9319321 0.002266901 0.3626261 13668983 male
0.7991796 -0.2813364 1.047614 0.2367977 -0.06785288 0.9691868 10908269 male
0.8675383 0.1949816 1.061646 0.9715609 0.1620057 -0.1726955 13158088 male
0.8842232 -0.2211089 1.100779 -0.3878949 -0.2916053 -0.8743592 10909037 male
0.8708081 0.3158521 1.13051 0.9466419 0.04102169 0.319666 13537907 male
0.6760288 -0.6230312 1.04532 -0.9691013 -0.01465024 -0.2462281 12356232 male
0.7037653 0.1309005 0.7717161 0.3494087 0.5152323 -0.7825916 12809584 male
0.6059865 0.2604032 0.9894239 -0.8947189 0.1029732 -0.4345976 11381404 male
0.658657 0.04052785 0.771599 0.9825441 -0.1848543 0.02088547 11963789 male
0.851792 0.3857989 1.170998 0.9005358 0.02627181 0.4339877 13536123 male
0.7169597 0.879844 0.9764901 0.06863856 -0.08275415 -0.9942036 13140603 male
0.8797561 -0.07044978 1.227003 0.1482943 -0.1388162 0.9791522 9527904 male
0.6003302 0.09084575 1.030518 -0.9250469 -0.344579 -0.1598555 11512743 male
0.9319901 -0.3305813 1.210463 0.9364619 -0.2255781 0.2686144 10712938 male
0.8980599 0.1081716 1.09471 0.7789102 0.218905 -0.5876902 14013134 male
0.6295594 0.503857 1.168198 -0.9328846 -0.08127242 0.3508866 14787718 male
0.6484383 0.6616998 1.184356 -0.8620146 0.3408605 0.3751602 14984073 male
0.6940132 -0.4757635 1.052255 -0.8132203 0.09474327 0.5741923 12157556 male
0.6885032 0.4951238 1.233004 -0.5111133 -0.1416572 0.8477597 13209718 male
0.573338 0.6201662 1.029807 -0.9834129 0.1373727 0.1184399 13866104 male
0.8573325 -0.1571834 1.182336 -0.7897353 -0.2579901 0.5565605 13079679 male
0.7567827 0.3983618 1.238477 0.09793928 0.09527059 0.9906219 11891563 male
0.7002044 -0.03560917 1.070477 -0.5858882 -0.3179897 0.7453977 9801621 male
0.6136565 0.3508561 0.9733561 -0.7867198 0.1341532 -0.6025572 12286817 male
0.7203568 -0.1519827 1.004143 -0.9366022 -0.3218401 0.1385478 13210247 male
0.6747824 -0.6070126 1.050436 -0.977635 -0.0200405 -0.2093523 11171181 male
0.8420502 0.3627602 0.9900396 0.750792 0.05399013 -0.6583288 13668719 male
0.8678343 -0.1996609 1.108253 -0.751258 -0.2077747 -0.6264513 8541777 male
0.7672315 1.006245 0.9987543 -0.09428275 0.7895644 -0.6063818 7628123 male
0.730835 -0.4801292 1.072025 0.06761123 -0.04074952 0.9968793 10253675 male
0.8473107 0.006307567 0.9882996 0.9959489 0.08908352 0.01225704 12369082 male
0.7708463 0.2544445 1.260546 0.1447351 0.1879491 0.9714562 11248541 male
0.6823565 -0.5251511 1.027647 -0.98502 -0.03757672 -0.1682971 11699324 male
0.7162464 0.1413361 0.789174 0.405913 0.8507583 -0.3338338 13533819 male
0.7407538 0.159791 0.9207264 0.2970426 0.1776937 -0.9381849 10527904 male
0.6603333 0.4599946 1.207124 -0.7044257 -0.1188647 0.6997541 13800311 male
0.8291538 -0.5265082 1.267474 0.5544191 -0.1738896 0.8138687 11636877 male
0.7623108 -0.3287421 0.9425364 -0.1188005 -0.01725682 -0.9927683 9793891 male
0.8119251 -0.3401645 1.237848 -0.8219936 0.2593733 0.5070032 13079686 male
0.7396141 -0.4931261 0.9780799 0.1248638 -0.3154259 -0.9406996 8280405 male
0.6194833 0.4123503 1.113647 -0.7678035 -0.127183 0.6279351 14129273 male
0.8178737 -0.495389 1.20302 0.004229875 -0.3051649 -0.9522902 11304302 male
0.8631279 0.2743558 1.032536 0.9006775 -0.1683007 -0.4005686 10381652 male
0.7088861 -0.709079 1.010612 -0.6250809 0.1893899 -0.7572356 8544851 male
0.8793544 0.5338923 1.125817 0.9940878 -0.1061761 -0.0227232 11827563 male
0.9166412 0.007308781 1.089213 0.5486491 0.04902428 -0.8346143 12433853 male
0.7503547 0.9603019 1.130812 -0.07512126 0.2523796 0.964708 8086371 male
0.6740127 0.6655179 1.219873 -0.6950588 0.3195224 0.6440489 14458497 male
0.6536889 0.03834894 1.073572 -0.5738049 -0.6210408 0.5339067 11182760 male
0.7838432 -0.7412882 0.9944752 -0.06258813 -0.991834 0.111122 9792363 male
0.6438035 0.7464838 1.002169 -0.6589758 0.7346336 -0.1614453 11369843 male
0.8413591 0.4305896 1.368387 0.2189396 0.3051698 0.9267885 11037283 male
0.6179147 0.5925063 0.8414121 -0.05449296 0.02992878 -0.9980657 12358009 male
0.6533269 0.09277115 0.7601447 -0.4122277 0.002622369 -0.9110773 11045754 male
1.022113 0.2417212 1.229685 -0.8323771 -0.222468 -0.5075989 13010564 male
0.8489973 -0.01455821 0.9747645 0.9899045 0.08447537 -0.1138123 13091775 male
0.721039 0.08844855 0.9099596 -0.1177623 0.02519623 -0.9927222 11447981 male
0.6624351 0.6448957 1.217778 -0.727344 0.2336418 0.645277 15180934 male
0.7848094 0.3915451 0.951634 0.3852752 -0.0428348 -0.9218072 13338480 male
0.8665922 0.8089424 1.019528 0.9979491 -0.05629629 -0.03047413 12484215 male
0.8569232 -0.1201196 1.20851 -0.3895375 -0.2865034 0.8753151 12091518 male
0.9738603 0.2881873 1.311693 0.3418357 -0.2397241 0.9086698 10316391 male
0.8741124 0.1737918 1.063298 0.9769194 0.1857171 -0.1055375 13421770 male
0.7270552 0.4536911 0.9280958 0.17365 -0.1569904 -0.9722139 12286817 male
0.8033701 -0.05049106 1.101969 -0.6213024 -0.3522578 -0.6999272 9005419 male
0.7777222 0.03816701 1.241514 -0.3639261 -0.3765489 0.8519207 11249835 male
0.5585526 0.269765 0.8249491 -0.913285 -0.314326 -0.2590556 13273728 male
0.7167279 0.0424985 0.7503009 0.7676483 0.4665075 -0.4394169 11175808 male
0.8472943 0.7980264 1.058218 0.5186396 -0.6674573 0.5343349 10974053 male
0.5837446 0.1753869 1.04768 -0.9947178 -0.006859402 -0.1024189 11644585 male
0.5226557 0.3794249 0.8914618 -0.8598813 -0.05499703 0.5075232 11434619 male
1.124695 0.2068971 1.181164 -0.4718068 0.2505978 -0.8453398 14385284 male
0.6511866 0.2574756 0.9412284 -0.4511803 0.1506448 -0.8796265 13156786 male
0.9300209 0.3215973 1.336782 0.2973459 -0.2347973 0.925449 11826541 male
0.6191282 0.3203278 1.104408 -0.8752577 0.01437265 0.4834436 13670517 male
0.7687814 0.01345096 1.089319 0.3056677 -0.07987212 0.9487824 9538188 male
0.6631091 0.4977589 0.9216079 -0.2053853 -0.1879482 -0.9604647 11430235 male
0.5964198 0.6717211 0.9190126 -0.7742752 0.5601218 -0.2945533 12025692 male
0.8316318 -0.2738979 1.191871 -0.9068366 0.4211732 -0.01615107 11829883 male
0.7948071 1.021118 1.041956 0.2276379 0.9725141 -0.04896152 7496026 male
0.5888746 0.5267081 0.8489555 -0.1777626 0.1032416 -0.9786428 9791316 male
0.7465485 -0.17813 0.9528738 -0.7522368 -0.1852653 -0.6323107 12289661 male
0.9256757 -0.2402592 1.109387 0.0543778 -0.4013577 -0.9143059 9659997 male
0.8457325 0.4103613 0.999983 0.8299583 0.1443436 -0.5388269 14063480 male
0.7191579 -0.1489242 0.9850826 -0.9283769 -0.3167543 -0.1943791 13145999 male
0.7096821 0.9953708 1.016705 -0.6081528 0.6454239 -0.4621452 8418159 male
0.7561654 0.7271752 1.225624 -0.115971 0.8186531 0.5624569 11372155 male
0.6593487 0.5326298 0.91983 -0.1346729 -0.189845 -0.9725341 11891552 male
0.7647796 -0.2125958 0.9406723 -0.6027815 -0.05785695 -0.7958061 10382948 male
0.7062895 -0.3883226 0.9674092 -0.6948848 -0.03215042 -0.7184022 9200986 male
0.9492712 -0.1269452 1.095762 0.573315 0.02274088 -0.8190195 12222323 male
0.5681013 0.2572878 0.8561894 -0.7076415 -0.5077631 0.4913453 9791340 male
0.8796113 0.07333212 1.074538 0.5177591 -0.001303159 -0.8555256 12369082 male
0.7588695 0.7373968 1.210667 0.02472148 0.8455247 0.5333639 11043451 male
0.6111873 0.3517857 0.8344748 0.9355678 0.3062825 -0.1757957 11892067 male
0.7340583 0.7700289 1.001114 -0.2337791 0.01408636 -0.9721878 13077101 male
0.8169071 -0.3473021 0.9871503 0.9423721 -0.3322082 -0.03965884 11631728 male
0.6859896 0.3136932 1.227941 -0.6509053 0.04635935 0.7577422 12549997 male
0.8540251 -0.7165228 1.001006 0.1801411 0.9069958 -0.3806677 11097174 male
0.8393766 0.4145284 1.307393 0.5476848 0.2016467 -0.8120222 13471875 male
0.7641279 0.5270374 1.263904 -0.5900934 -0.4206078 -0.6891146 12022885 male
0.8159565 0.3662563 1.354059 -0.4661623 -0.6490058 0.6012357 10052185 male
0.8573261 -0.6760547 1.190586 -0.2195822 0.392912 -0.8929749 9922143 male
0.7678868 0.474403 1.31811 -0.9151558 -0.2404355 0.3235444 12417395 male
