# .PCD v0.7 - Point Cloud Data file format
VERSION 0.7
FIELDS x y z normal_x normal_y normal_z rgb label
SIZE 4 4 4 4 4 4 4 4
TYPE F F F F F F U U
COUNT 1 1 1 1 1 1 1 1
WIDTH 194
HEIGHT 1
VIEWPOINT 0 0 0 1 0 0 0
POINTS 194
DATA ascii
-0.2309312 -0.6402048 1.131112 0.660125 0.1599819 0.7339216 10576737 male
-0.02663804 0.4832952 1.014686 -0.1253368 -0.3818089 0.9157034 12811625 male
0.2366358 -0.1956697 1.339931 0.2933127 0.03270624 0.9554572 10711921 male
-0.212702 -0.4149303 1.141382 -0.7333733 0.2478861 0.6330215 10646381 male
0.05712253 0.8263887 1.267868 -0.132891 -0.1398886 0.9812091 11696496 male
0.06352337 -0.1463038 1.113974 0.9205649 -0.3421642 0.1883721 12288631 male
0.03125369 -0.2441054 1.122304 0.8252264 -0.4024454 0.3962819 10710378 male
-0.148251 -0.7474709 1.089796 -0.2930657 -0.9424781 -0.160772 7100502 male
0.03389839 -0.1657163 1.054509 0.5689919 -0.3416584 -0.7480093 10909292 male
-0.09293897 0.2110035 1.274338 -0.9338417 0.2534491 0.2523952 13091262 male
-0.1138998 0.09697711 1.141634 -0.9564992 -0.2872669 -0.05086559 13024694 male
-0.2111324 -0.5020593 1.067685 0.007338459 -0.2333602 -0.9723628 12560270 male
0.2451146 -0.08814689 1.320472 0.7615281 0.09439167 0.6412218 9198418 male
0.03364261 0.7376999 1.297544 0.3301911 0.8003026 0.5004896 10973018 male
0.2831325 0.1905962 0.9560959 0.6664863 0.6111273 0.4269891 13600384 male
0.003401894 0.9694572 1.161722 -0.6615607 0.452127 -0.5982631 7433064 male
0.02121875 0.411499 1.457988 -0.6064011 -0.003202226 0.7951526 12614771 male
0.1011735 0.3270135 1.337741 0.5917931 0.07126524 0.8029336 13010035 male
0.04508326 0.4930747 1.029551 0.2385771 -0.1559907 -0.9585134 11562578 male
-0.08717971 -0.1231796 1.110438 -0.9989424 0.04292949 -0.0164777 13211015 male
-0.07261273 0.4209348 1.278869 -0.9201596 -0.1355126 0.3673458 14063483 male
0.04304265 -0.02156975 1.191423 0.3324443 -0.200838 0.9214907 10655393 male
0.1593431 -0.1838072 1.261848 -0.9128399 -0.3729449 -0.1662394 11632247 male
0.1240133 0.9984671 1.187218 0.4211831 0.8629426 -0.2791683 8087898 male
0.118456 0.3036803 0.9074313 0.5425562 0.4220457 -0.726299 9928554 male
-0.03775154 0.4847893 1.032099 -0.3761854 -0.2215309 -0.8996716 10973789 male
0.05291844 0.367591 1.480438 -0.2863418 -0.05764201 0.9563922 12223864 male
0.1558592 -0.546331 1.286807 -0.9870884 -0.0499285 0.1521966 12621190 male
-0.03491616 0.06635538 1.225407 -0.3674237 -0.3852245 -0.8465235 9737108 male
0.1490323 -0.4292603 1.284684 -0.9833522 -0.1513222 -0.1005993 11632247 male
0.1722611 0.2635621 0.9446874 0.5526708 0.6767147 0.4864281 12163734 male
0.1005205 0.6934745 1.232696 0.8988629 0.3976064 0.1842684 13534326 male
0.002415586 -0.2871367 1.067692 0.5342247 -0.3918805 -0.7490219 10052191 male
0.149634 -0.6248406 1.285091 0.073635 0.08379048 0.9937593 11831691 male
0.05447011 0.4535604 1.356543 0.1921751 -0.1502151 0.9697962 15511466 male
-0.05218355 0.07763895 1.327786 -0.6763604 -0.5043212 0.5368397 12564406 male
-0.04784991 0.7262251 1.168654 -0.7935879 0.5951992 0.1263186 12025715 male
-0.002681139 0.9617304 1.162581 -0.7265272 0.360014 -0.5852763 7103332 male
0.01365257 0.4444849 1.356129 -0.1526399 -0.1760589 0.9724734 11892325 male
-0.06764889 0.3885655 1.079894 -0.7771151 -0.09568394 -0.6220425 13339251 male
-0.004532799 0.5150839 1.023414 0.01819465 -0.1373201 -0.9903598 11367773 male
0.01276959 0.7263108 1.075447 0.406311 0.824747 -0.3933242 10511187 male
-0.1173467 0.1536005 1.123136 -0.9477006 -0.0004168088 -0.319161 11184289 male
0.3397041 0.1168162 0.9529363 0.5780501 0.7183809 0.3870233 11827059 male
-0.04123947 -0.203488 1.175197 -0.2024372 0.03150468 0.9787884 9658209 male
-0.07716546 0.3986893 1.249661 -0.9896736 -0.1345791 0.04934305 14589571 male
0.08959492 -0.02603124 1.14819 0.8434491 -0.3158559 0.4345444 11052192 male
0.1975926 -0.2189809 1.334068 -0.4836308 0.08657813 0.8709798 10710121 male
0.139994 0.6110525 1.268323 0.9057162 0.4235915 0.01576513 13668469 male
-0.1487539 -0.3581448 1.044977 -0.2130883 0.09567674 -0.9723371 10583145 male
-0.2196378 -0.4079855 1.127287 -0.8621409 0.3292981 0.3850662 12158585 male
-0.009230951 0.7102576 1.335635 -0.4784136 0.6779835 0.558085 11040878 male
-0.08471216 0.3510506 1.173431 -0.9619071 -0.09630244 0.2558529 14392449 male
0.06312022 -0.1252636 1.063171 0.7756539 -0.3612481 -0.5175531 11827563 male
0.3223105 -0.6727836 1.242063 0.2851573 0.9574946 -0.04346746 8937303 male
0.07783921 0.5182393 1.356004 0.3733002 -0.08909188 0.9234229 11759973 male
-0.09284424 0.2624753 1.108784 -0.9292643 0.244774 -0.2766834 13089712 male
-0.05843868 0.5428481 0.9738325 -0.9216837 0.05305349 -0.3842978 11762790 male
0.08804788 0.8923767 1.290385 0.9573351 0.09191907 0.2739718 13529476 male
0.1730012 -0.5663264 1.304981 -0.5481915 -0.1736814 0.8181204 11435124 male
-0.07397159 0.03528242 1.070553 -0.8681328 -0.1248708 -0.4803675 11514026 male
0.03032865 0.772333 1.264571 -0.2292724 0.354604 0.9064714 10843499 male
0.1902148 0.8532746 1.183781 0.4798424 -0.6523944 -0.5866284 14653073 male
0.07427452 0.4671429 1.381639 0.4651235 -0.1813238 -0.8664768 13143152 male
0.2034855 -0.214513 1.336958 -0.3991137 0.06731776 0.9144271 10973544 male
0.0664092 0.8764023 1.13019 0.07128136 -0.05189295 -0.9961056 14063244 male
-0.1198139 -0.7556828 1.091207 -0.2474042 -0.8820798 -0.4009069 7559513 male
0.2063066 -0.2915763 1.353408 0.005932002 0.1315908 0.9912865 10120812 male
0.2893163 0.2077188 1.418809 -0.491368 -0.3019775 -0.8169255 13010814 male
-0.06329019 -0.2290852 1.053017 -0.4573469 0.1727624 -0.8723458 11105127 male
0.08797035 0.1683217 1.058321 0.7579129 0.04976056 -0.6504555 10856101 male
-0.08532886 0.2452007 1.082124 -0.8197553 0.215251 -0.5307245 11380901 male
0.08797029 0.6917149 1.146458 0.7816761 0.5436675 -0.305628 11297874 male
-0.05990266 0.5093173 1.324048 -0.8045055 -0.1771248 0.5669196 13340528 male
0.02359079 0.2738343 1.363089 -0.03948375 0.1880672 0.9813623 9795450 male
0.05488821 0.1152185 1.027289 0.3543912 0.04521076 -0.9340038 11053477 male
0.01743797 0.358827 1.354864 -0.1328552 0.2173222 0.9670165 11892591 male
0.1121969 0.8161677 1.140155 0.127323 -0.3623509 -0.9233043 13471364 male
-0.2026652 -0.6986853 1.049938 0.2989663 0.7710457 -0.5622345 6506817 male
0.05222355 0.3050536 1.360086 0.2064618 -0.04572094 0.977386 13145222 male
0.1383559 0.4328761 1.299519 0.7826228 -0.05069817 0.6204286 13009523 male
0.08946165 -0.0138359 1.15884 0.7930367 -0.3091691 0.5248881 11249835 male
0.05583373 0.2358111 1.043208 0.4666347 0.1801825 -0.8659022 11446950 male
-0.1036312 -0.3160501 1.045198 0.01078159 0.1069789 -0.994203 10057320 male
0.0715374 0.2597574 0.9300209 -0.5855457 -0.7946798 -0.160063 12880002 male
0.09552634 0.3161198 0.8997419 0.3827772 0.2581659 -0.8870357 15456450 male
0.3298573 0.2325457 1.435024 0.3010625 0.810816 0.5019351 11562350 male
-0.2027096 -0.4304966 1.059537 -0.4479093 0.04355087 -0.8930179 8082506 male
0.2604019 0.161221 0.9474823 -0.2774767 -0.3877917 0.8789907 13341837 male
-0.1625796 -0.3036732 1.102749 -0.7684086 0.6388605 0.03749198 12092788 male
0.1544828 0.3072779 1.274995 0.8338782 0.03286193 0.5509695 13274737 male
-0.008669951 -0.2327286 1.164901 0.4658519 -0.2970158 0.8335249 8868685 male
0.1630772 0.1203978 1.180379 0.9742976 0.006735407 -0.2251644 13552582 male
0.2298557 -0.1893585 1.223598 0.2635437 -0.1181119 -0.9573895 9792608 male
0.1486422 0.4235836 1.284082 0.8441718 -0.01276366 0.535921 13470586 male
-0.136782 -0.4285218 1.140603 0.6303152 -0.4812272 0.6091988 10054245 male
0.2736187 0.1478517 0.92106 0.4299507 -0.06669244 -0.9003859 9731961 male
0.08546382 0.698878 1.281556 0.752264 0.577082 0.3179236 13337720 male
0.2483951 0.1177675 0.9300323 0.1430502 -0.2209211 0.9647439 11964300 male
0.1273658 0.3769875 1.310198 0.7477374 -0.005341 0.6639733 13536891 male
0.04487516 0.8761692 1.126022 0.9766787 -0.03285516 -0.2121781 11888233 male
0.0836939 -0.00288846 1.360813 -0.2886508 -0.3123851 0.9050394 9604236 male
0.07368317 0.3398176 1.050853 0.4759072 0.04113325 -0.8785332 13010539 male
0.1809658 -0.3919287 1.347293 -0.3235184 -0.1478811 0.9345948 10514025 male
0.1599447 0.08952875 1.204433 0.7083995 0.07355604 -0.7019684 12500418 male
-0.08600787 0.4887715 1.252841 -0.9925039 -0.08734902 0.08547676 14787718 male
-0.06822254 0.6632241 1.243072 -0.9399304 0.331441 -0.08171803 14325111 male
-0.2398429 -0.4472167 1.11199 -0.9195614 0.3765503 0.1123247 12815746 male
-0.05984277 0.4460824 1.308317 -0.8190181 -0.1631739 0.5500762 13734262 male
-0.09323093 0.6423783 1.093383 -0.9398065 0.2364677 -0.2466718 13865848 male
0.182575 -0.2411736 1.25933 -0.8896154 -0.1084547 -0.4436467 12222328 male
0.02376465 0.4433439 1.35685 -0.07106965 -0.1619392 0.9842383 12156795 male
-0.06600221 0.01647711 1.1689 -0.8078992 -0.185366 0.5594093 11380389 male
-0.01445421 0.3388619 1.036861 -0.2270954 0.152186 -0.9619082 12091501 male
-0.08558746 -0.1443227 1.106356 -0.9961746 0.06017156 -0.06337041 13210247 male
-0.1206655 -0.4147026 1.132399 0.6953636 -0.4878685 0.5276873 10580329 male
0.1771956 0.3808796 1.185888 0.9873761 0.125501 -0.09663427 14063227 male
0.1224122 -0.1209351 1.318667 -0.6996838 -0.480725 0.528532 12684161 male
0.07503419 1.002065 1.167073 0.05095591 0.8501591 -0.5240544 7628125 male
-0.2569213 -0.4962125 1.132107 -0.7712361 0.3778802 0.5122517 11566710 male
0.06862148 -0.03386021 1.172572 0.6392078 -0.3087177 0.7043486 11249827 male
0.03569915 0.2133781 1.375022 0.0103308 0.08913932 0.9959657 10262164 male
-0.2665852 -0.5066961 1.103443 -0.9046929 0.3227949 -0.278091 9925483 male
0.2448452 0.2257255 0.9766136 -0.1605728 0.9066744 0.3900743 12419710 male
0.0424218 0.1047421 1.022186 0.2222339 0.02648132 -0.9746338 11512743 male
-0.07220351 0.4010691 1.275328 -0.9340247 -0.1278536 0.333544 14063227 male
0.1927742 -0.5188528 1.323021 -0.02718731 -0.2397762 0.9704475 9198947 male
-0.1078036 -0.3009183 1.049672 -0.1586072 0.228899 -0.9604422 11239280 male
0.1468432 -0.4164399 1.295367 -0.9871153 -0.1404156 0.07672745 11896440 male
-0.2611041 -0.5121118 1.089417 -0.7310128 0.1744926 -0.6596764 11565944 male
-0.03620315 0.3186696 1.041652 -0.4223826 0.06387138 -0.9041647 12682863 male
0.207168 -0.5114078 1.252738 0.3501814 -0.06166598 -0.9346499 11304302 male
0.1743907 0.3141675 1.160856 0.9866109 -0.0317712 -0.1599678 11367776 male
-0.2623857 -0.6595822 1.074658 -0.09641457 0.3749794 -0.9220059 12820626 male
0.1594289 0.5628315 1.278518 0.9442955 0.2956006 0.1446603 12878187 male
0.1936536 -0.01603931 1.215084 0.4831072 0.0520009 -0.8740157 9930625 male
0.01657221 0.9190806 1.280776 -0.430679 0.007032857 0.9024779 7493717 male
-0.08228612 0.5794513 1.30418 -0.946505 -0.03051814 0.3212432 14984324 male
-0.09547634 0.077414 1.102772 -0.8842384 -0.3142819 -0.3454701 12171691 male
-0.2429299 -0.709659 1.100013 -0.343784 -0.9207863 0.1842966 10710386 male
-0.02305979 0.742593 1.10741 -0.4376874 0.8123743 -0.3853281 11634818 male
0.0413005 0.4057888 1.470086 -0.2882545 0.1320622 0.9484035 10971999 male
0.02297075 0.5999642 0.9467528 0.4778977 0.106685 -0.871913 11633513 male
0.2326885 0.1527573 0.9109278 -0.006991937 -0.0968265 -0.9952769 9138273 male
0.3108414 0.1920947 1.424858 -0.08708321 -0.6866515 -0.7217523 13009796 male
0.08516254 -0.07504861 1.118976 0.9107186 -0.3069072 0.2764052 12763323 male
0.1031388 0.1229879 1.076224 0.8560269 0.1346266 -0.4990931 11908782 male
-0.06018286 0.6395402 1.331691 -0.8553756 0.2233926 0.4673633 14130045 male
0.07181915 0.3960947 1.049167 0.4283564 -0.0137194 -0.9035059 11893348 male
0.1678611 0.8551574 1.231213 0.9394358 0.02487652 0.341821 15440012 male
0.1577829 -0.1308006 1.337201 -0.3705592 -0.3294766 0.8684074 12617862 male
0.2604648 0.2252161 1.476225 0.0673309 0.04345562 0.996784 8608340 male
0.1312453 0.08004496 1.189525 0.5533521 -0.7822717 0.2860989 12369340 male
0.1094914 0.4440851 1.070979 0.6287565 -0.03330421 -0.7768888 13142381 male
-0.06932063 0.07885863 1.241586 -0.5486354 -0.8360553 0.003297567 11381930 male
0.03722097 -0.03166784 1.280407 -0.8298848 -0.5576518 0.01777488 12762041 male
0.07909361 0.2963301 0.8960488 -0.08677222 -0.176362 -0.9804934 8673618 male
0.3085952 0.1332839 0.9313139 0.2625538 -0.02928236 -0.9644731 11836050 male
0.1387077 0.7794026 1.221704 0.3360909 -0.7903766 0.512199 10579815 male
-0.1052698 0.1756511 1.099513 -0.8636457 0.05165725 -0.5014459 10132374 male
-0.04428852 0.3787453 0.9387912 -0.9612947 -0.1821836 -0.2066932 11960182 male
0.3307467 0.1890032 1.426418 -0.1396497 -0.636983 -0.7581232 13008516 male
0.03366793 0.2706438 1.038432 0.2300558 -0.06247417 -0.9711701 11365722 male
0.1702725 0.2701333 1.480328 -0.08511844 -0.3211852 0.9431835 10841459 male
-0.08361464 0.3011547 1.179049 -0.9702871 0.1017871 0.2195053 13998200 male
0.0341756 0.06401313 1.202856 0.2250405 -0.1828068 0.9570469 12828099 male
0.01411774 0.4980335 1.024733 0.0750477 -0.1219154 -0.9896994 11430235 male
-0.06362525 0.6527574 1.019791 -0.8294652 0.3720495 -0.4166136 12683367 male
0.1581194 -0.2773251 1.287567 -0.9619303 0.2142148 -0.1697124 12225147 male
0.09271491 1.011799 1.213693 0.2186717 0.9731527 0.07180862 7496026 male
0.00179513 0.5266714 0.936707 0.2456619 0.1713079 -0.9540986 9791316 male
-0.07617829 -0.1984662 1.077647 -0.8018544 0.2100004 -0.559401 12159103 male
0.2893156 -0.2291869 1.267675 0.8447304 -0.3078032 -0.4378217 10776176 male
0.1727341 0.4128278 1.189658 0.9756515 0.1948226 -0.1007402 13865589 male
-0.08178359 -0.1421828 1.087475 -0.9225601 0.04525784 -0.3831905 13145999 male
0.01169233 0.9714313 1.154737 -0.5539109 0.4705899 -0.6868247 8287085 male
-0.003220056 0.6905683 1.365113 -0.4583158 0.6531608 0.6027667 11895411 male
0.01900422 0.5581567 1.025552 0.2672944 -0.3491142 -0.8981498 11038301 male
-0.07069101 -0.2296974 1.060401 -0.5658926 0.254362 -0.7842612 11893364 male
-0.1773776 -0.3171388 1.104403 -0.7951726 0.602152 0.07151008 13277062 male
0.2352977 -0.1360361 1.223543 0.3431967 -0.01674977 -0.9391143 9856352 male
0.05736944 0.2694949 0.9406753 -0.6070918 -0.7901648 0.08413756 9791340 male
0.1863329 0.08363696 1.229842 0.8047261 0.2476289 -0.5395332 13355976 male
0.06278861 0.6955351 1.361732 0.4243879 0.8854115 0.1895826 8936525 male
0.06655206 0.3745763 0.9395351 0.7144144 0.6271154 0.3103843 11892067 male
0.02654182 0.777019 1.150252 -0.3384741 0.2401607 -0.9098123 13276289 male
-0.1020878 -0.3790691 1.14089 0.6565266 -0.3853504 0.6484427 10843499 male
-0.0499729 0.2214713 1.343824 -0.621717 0.1824581 0.7616937 10720922 male
-0.1559703 -0.7096779 1.107113 0.6582825 0.7415827 0.1293032 7164491 male
0.08891471 0.3727519 1.432669 0.659611 0.5522802 -0.5098037 12749431 male
0.01160579 0.5375878 1.372542 -0.3726345 -0.4600396 -0.8059202 11695736 male
0.05623674 0.3121669 1.455592 -0.5877262 -0.708822 0.3900632 12154215 male
0.312033 -0.6747563 1.223939 0.03854967 0.7362515 -0.6756092 6968396 male
0.01113706 0.40955 1.407599 -0.8470327 -0.3533313 -0.3971056 10314595 male
