# .PCD v0.7 - Point Cloud Data file format
VERSION 0.7
FIELDS x y z normal_x normal_y normal_z rgb label
SIZE 4 4 4 4 4 4 4 4
TYPE F F F F F F U U
COUNT 1 1 1 1 1 1 1 1
WIDTH 195
HEIGHT 1
VIEWPOINT 0 0 0 1 0 0 0
POINTS 195
DATA ascii
-0.6503343 -0.6597633 1.510043 -0.09149021 0.1413267 0.9857264 10843500 male
-0.5685995 0.6060092 1.295129 -0.1612236 -0.7557055 0.6347568 12878962 male
-0.6247548 -0.2246117 1.634967 -0.2384406 0.09231573 0.9667596 10120298 male
-0.6971933 -0.4254669 1.4268 -0.9135982 -0.1558018 -0.3755853 11634038 male
-0.4783028 0.7907044 1.52666 0.2459674 0.366696 0.897237 11039078 male
-0.6500365 -0.4718666 1.500935 0.1147518 -0.04386507 0.9924253 12354685 male
-0.6407443 -0.4946386 1.497322 0.3755437 -0.05010016 0.9254497 10448485 male
-0.5211533 -0.7052416 1.504101 0.03899568 -0.1644582 0.985613 8739416 male
-0.5373635 -0.1223378 1.381392 0.7263025 -0.335927 -0.5996982 10909292 male
-0.6962811 0.3044051 1.504283 -0.8724321 0.4883538 0.01931572 13552582 male
-0.6718283 0.2416044 1.341494 -0.6182829 0.09102712 -0.7806668 11250600 male
-0.6880342 -0.5920731 1.469448 -0.9212215 -0.1414536 -0.3624113 11171444 male
-0.5237024 -0.1328034 1.605728 0.8453579 -0.2532444 0.4703589 11038824 male
-0.4821931 0.7705955 1.546871 0.616156 0.5514196 0.5623953 11432300 male
-0.4410263 0.1544358 1.271092 -0.1462873 0.3682601 0.918142 13009540 male
-0.4701896 1.007378 1.379395 -0.3469026 0.5196226 -0.7808017 8418419 male
-0.6017436 0.4944491 1.770078 -0.5804507 0.2832608 0.7634399 11365730 male
-0.5432439 0.3471601 1.645393 0.2277458 -0.07122005 0.9711127 12288107 male
-0.5198831 0.507425 1.310141 0.2540448 -0.2558027 -0.9327521 11232607 male
-0.6628288 -0.05788352 1.378999 -0.8191618 -0.1215183 -0.560542 11174776 male
-0.6608847 0.4729399 1.54059 -0.9861969 0.008077068 0.1653804 14194814 male
-0.5687053 0.08210521 1.496228 0.1289716 0.06491846 0.9895211 11313580 male
-0.6318776 -0.09074532 1.632121 -0.550725 -0.1253717 0.8252176 11632255 male
-0.3588769 1.002303 1.404304 0.5951703 0.5810788 -0.5550855 7561562 male
-0.5033533 0.2374759 1.197191 0.5166189 0.1420867 -0.8443438 10391422 male
-0.4747037 0.6089733 1.299679 0.4473943 -0.6920281 -0.5665117 11037528 male
-0.5768406 0.4893771 1.787467 -0.1750203 0.4612837 0.8698192 11496807 male
-0.7015842 -0.5289778 1.566573 -0.9740145 0.04492571 -0.2219858 11172976 male
-0.6160547 0.0685209 1.492677 -0.2681994 -0.05569307 -0.9617524 11445413 male
-0.7008693 -0.432107 1.568356 -0.9675841 -0.06457146 -0.2441549 11632247 male
-0.5765962 0.2841277 1.25137 -0.6048771 -0.397465 0.690033 8670554 male
-0.4354168 0.7002667 1.532463 0.9364595 0.2971337 0.1864278 13011063 male
-0.5528431 -0.2363385 1.402329 0.7168881 -0.260634 -0.6466386 10052191 male
-0.6837451 -0.6389555 1.595202 -0.4639019 -0.0344566 0.8852164 12222083 male
-0.6149389 0.5288256 1.618667 -0.6237076 -0.08108778 0.7774405 12419438 male
-0.7012503 0.1369048 1.597346 -0.8508627 -0.3886843 0.3534932 11118249 male
-0.5475687 0.7932166 1.434169 -0.6326659 0.7610738 -0.14318 12288898 male
-0.4566672 1.003063 1.373009 -0.1960248 0.4780986 -0.8561521 9404022 male
-0.5982462 0.4815776 1.626367 -0.4592603 -0.07112605 0.8854498 12155755 male
-0.6351268 0.419843 1.350475 -0.6723527 0.1477966 -0.7253264 13010796 male
-0.5370868 0.5488089 1.300048 0.1950697 -0.2079801 -0.9584844 11826266 male
-0.547258 0.7472263 1.311926 -0.2691881 0.7720613 -0.575725 11965829 male
-0.7241289 0.1914841 1.482531 -0.9825787 -0.1591527 0.09596771 13092039 male
-0.4085095 0.01706334 1.245682 -0.5412489 -0.01285835 0.8407642 11834253 male
-0.6514399 -0.1829543 1.480252 -0.778557 0.04263416 0.6261243 10710122 male
-0.6617393 0.4861566 1.519487 -0.9977992 -5.384012E-05 -0.06631011 14326912 male
-0.4965839 0.04070359 1.361967 0.834594 -0.1184916 -0.5379711 10855325 male
-0.6441333 -0.2330799 1.626393 -0.5368219 0.230804 0.8115121 9724250 male
-0.4059044 0.5447022 1.520242 0.9836484 -0.155095 -0.09155083 14127733 male
-0.6311596 -0.3853154 1.385965 0.2089041 -0.1908018 -0.9591424 11637118 male
-0.6972976 -0.4488996 1.45826 -0.9852262 -0.1051747 0.1351583 12882306 male
-0.57708 0.7271366 1.64219 -0.5827782 0.6226878 0.5221395 13076083 male
-0.6581192 0.5558655 1.392225 -0.9795386 0.06195999 -0.1914823 14392193 male
-0.510715 -0.07289129 1.428648 0.9536146 -0.2220622 0.2032432 12618110 male
-0.4770412 -0.6983755 1.537153 -0.01308578 0.9615562 -0.2742963 5461330 male
-0.5763218 0.5440384 1.639204 -0.2554268 -0.1301683 0.9580259 10775389 male
-0.6773937 0.2740276 1.353531 -0.7117072 0.2222548 -0.6663902 10920861 male
-0.6120407 0.5238228 1.23067 -0.8314964 0.191401 -0.5215164 12882044 male
-0.4050267 0.9072547 1.521274 0.1113436 0.05441914 0.992291 12222838 male
-0.6903496 -0.5715202 1.592086 -0.6720215 -0.130807 0.7288873 11435124 male
-0.6653357 0.07824086 1.343351 -0.7020232 -0.2147085 -0.6790168 11710634 male
-0.464462 0.8797081 1.514182 -0.2745282 -0.03399243 0.9609781 11565170 male
-0.3458647 0.8282667 1.438019 0.7277838 -0.4127929 -0.5476614 13535876 male
-0.5367726 0.4821517 1.753506 0.98098 -0.05991226 0.1846322 13339765 male
-0.6369396 -0.216229 1.627734 -0.5368901 0.1757503 0.825143 10973544 male
-0.4205239 0.8708737 1.379146 0.05537362 -0.2537309 -0.9656886 12946819 male
-0.5394013 -0.6947271 1.50326 0.08060267 0.1172915 0.9898213 10841451 male
-0.644861 -0.2987643 1.644823 -0.1259015 0.133597 0.983006 10120812 male
-0.4193934 0.2059003 1.776712 -0.527616 -0.5037521 -0.6839996 13009790 male
-0.6314764 -0.2024333 1.374292 -0.3823947 -0.04731412 -0.9227871 11105127 male
-0.4857613 0.1511564 1.414714 0.9670945 -0.007014922 -0.2543213 12631992 male
-0.698122 0.2798571 1.387841 -0.8487566 0.3629163 -0.3845831 11250080 male
-0.4371693 0.710532 1.430436 0.9376053 0.2931382 -0.1869937 9790043 male
-0.6602659 0.4875985 1.511176 -0.9905269 -0.003814937 -0.1372666 14392193 male
-0.5415974 0.2868517 1.650656 0.3830739 0.2595886 0.8864921 12038316 male
-0.6177224 0.1042285 1.312041 -0.2233995 -0.1105837 -0.9684339 11907757 male
-0.6355017 0.4496252 1.595449 -0.7569854 0.1150428 0.6432253 12419699 male
-0.3856147 0.8228813 1.405003 0.2519137 -0.552552 -0.7944974 13076348 male
-0.5501816 -0.6653382 1.484514 0.3863749 0.8715557 0.3018363 9132634 male
-0.5356843 0.4536992 1.636773 0.1025459 -0.05257481 0.9933381 13800837 male
-0.4967636 0.4614975 1.625186 0.4336729 -0.0670688 0.898571 12681070 male
-0.491137 0.04077861 1.377962 0.9360843 -0.1237883 -0.3292766 11447724 male
-0.5108545 0.2671852 1.346374 0.7007115 0.02121413 -0.7131293 11512999 male
-0.5844836 -0.3447365 1.422204 0.9795455 -0.1261872 -0.1567408 12157557 male
-0.62058 0.3590345 1.227979 -0.9416159 -0.336029 -0.02107805 12025202 male
-0.545488 0.240512 1.195585 -0.4665234 -0.3265018 -0.8220419 12090486 male
-0.3883356 0.1869016 1.828006 0.2367037 0.126882 0.9632614 12165784 male
-0.685245 -0.4497341 1.415568 -0.7066019 -0.2145116 -0.6743136 11239287 male
-0.4967579 0.1278028 1.204347 -0.5301926 -0.1621085 -0.8322362 9330780 male
-0.6143712 -0.4380192 1.40593 0.5532461 -0.2707446 -0.7877921 9596256 male
-0.4642701 0.356401 1.59207 0.7256436 -0.05504378 0.6858658 13208443 male
-0.6186628 -0.2008764 1.498064 0.03226838 -0.05154541 0.9981493 12353409 male
-0.4110736 0.3614281 1.474658 0.9873301 -0.1550322 -0.03383148 13077099 male
-0.5817989 -0.1382139 1.511479 0.1956946 -0.1106981 -0.9743971 9987422 male
-0.4603375 0.2845792 1.573764 0.7488923 -0.251817 0.6129835 12552045 male
-0.6104438 -0.4261207 1.475097 0.8291126 -0.07363039 0.5542122 9660255 male
-0.4264228 0.0800787 1.214462 0.529244 -0.05799234 -0.8464857 12631980 male
-0.4262348 0.6763964 1.51465 0.9658247 0.2362805 0.106557 13536883 male
-0.476249 0.03336553 1.211148 0.03109361 -0.2249295 -0.9738789 14864583 male
-0.4899339 0.4153601 1.61955 0.5321748 -0.03841726 0.8457626 13141614 male
-0.4541604 0.8970028 1.367182 0.9799896 -0.182834 -0.0786919 11888233 male
-0.6205164 -0.0008286238 1.65151 -0.4386738 -0.1282924 0.8894417 10065044 male
-0.6217015 0.3327517 1.325917 -0.441442 -0.00751128 -0.8972585 12747887 male
-0.67567 -0.3972442 1.63484 -0.4675725 -0.1151994 0.8764161 10514025 male
-0.471654 0.07937814 1.572834 0.9962877 -0.0792084 -0.03372151 14013645 male
-0.6596982 0.5140733 1.508644 -0.990854 0.005756885 -0.1348167 14195838 male
-0.6185516 0.723007 1.515969 -0.8522384 0.5024373 -0.1457621 14521987 male
-0.6749928 -0.4567656 1.495252 -0.5555972 -0.05907755 0.8293502 9791841 male
-0.6505448 0.4912955 1.569281 -0.9125645 -0.009428869 0.4088246 13537395 male
-0.5844504 0.7581002 1.383384 -0.7008629 0.6867554 -0.1927652 12155501 male
-0.656091 -0.150166 1.581302 -0.9990684 -0.02796139 0.03287244 12356218 male
-0.5993854 0.4883817 1.626036 -0.467893 -0.07398587 0.8806829 12024429 male
-0.6558324 0.06124046 1.479411 -0.6307446 -0.1021469 0.7692382 10656415 male
-0.655081 0.3671835 1.357117 -0.8376634 0.1059766 -0.535807 13799287 male
-0.6398025 -0.013703 1.345413 -0.5502679 -0.1905966 -0.8129443 11119781 male
-0.6206599 -0.4402563 1.488294 0.7051248 -0.07225396 0.7053925 9988451 male
-0.50005 0.2890937 1.354754 0.6209798 -0.1731377 -0.7644656 11895139 male
-0.6353143 -0.2046681 1.526581 -0.5937721 -0.1093897 -0.797163 9068125 male
-0.4464722 1.038243 1.407547 -0.06772965 0.8912994 -0.4483282 9991027 male
-0.6730778 -0.5549886 1.498067 -0.2874667 0.05699685 0.9560933 10580585 male
-0.5020053 0.0265493 1.44744 0.8745509 -0.1660349 0.4556242 11973038 male
-0.5533472 0.2402113 1.664569 0.1983824 0.1212498 0.972596 13024957 male
-0.6432921 -0.485716 1.410539 0.1052357 -0.2848076 -0.9527908 14270121 male
-0.4593351 0.1637603 1.210195 0.6932157 0.2337423 -0.6817747 9133394 male
-0.6149815 0.08492123 1.312467 -0.2091301 -0.1367322 -0.9682815 11775915 male
-0.6602604 0.4565198 1.545157 -0.9799507 0.01846335 0.1983834 13931901 male
-0.6691135 -0.5252903 1.612472 -0.1807849 -0.229427 0.9563891 9198947 male
-0.614966 -0.3440672 1.384192 0.3853207 -0.09317936 -0.9180663 9729379 male
-0.7035854 -0.4189491 1.578623 -0.9962298 -0.05139847 -0.06989014 11896440 male
-0.6561773 -0.5541022 1.433879 -0.2087827 -0.3138802 -0.9262232 9200227 male
-0.6727061 0.3590977 1.428451 -0.9792702 0.202394 0.008166194 13538939 male
-0.6596593 -0.5141401 1.539605 0.118673 -0.09586422 -0.988295 11041900 male
-0.411332 0.4502411 1.524517 0.9727451 0.05852171 0.2243714 13734002 male
-0.5802841 -0.6902304 1.436828 -0.05980767 0.5020253 -0.8627826 10058614 male
-0.4744319 0.7421931 1.577064 0.7946494 0.577824 0.1861504 12548715 male
-0.4839532 -0.009758258 1.576811 0.9672828 -0.2120686 -0.1392523 13948364 male
-0.4769584 0.9929321 1.507872 -0.4045537 0.3865178 0.8288188 8086371 male
-0.6172204 0.7160149 1.578878 -0.8445073 0.4519471 0.2873179 14327424 male
-0.7082397 0.1193225 1.43829 -0.7876229 -0.5691671 0.2360069 12565694 male
-0.5471204 -0.7222952 1.469327 -0.03615657 -0.9776261 0.2072193 10447470 male
-0.5272394 0.7886803 1.37707 -0.1081392 0.8637464 -0.4921871 10714481 male
-0.5912529 0.5144258 1.767175 -0.4218217 0.3496903 0.8365306 11364698 male
-0.5930099 0.6090518 1.235027 -0.8021188 0.230689 -0.5508071 13999492 male
-0.4462355 0.07590494 1.209145 0.2476464 -0.2327861 -0.940469 10981770 male
-0.392378 0.1697176 1.800848 -0.2958815 -0.4069805 -0.8641882 12549758 male
-0.5449623 -0.05494115 1.47618 0.5505365 -0.1133179 0.8270846 11365995 male
-0.5317518 0.1772244 1.325311 0.6370432 -0.01239345 -0.7707286 10593697 male
-0.6385831 0.6650535 1.580057 -0.9124153 0.2123574 0.3498614 14194814 male
-0.5234671 0.4357856 1.323292 0.2893851 -0.1132402 -0.950491 12417381 male
-0.3410508 0.8268857 1.454535 0.8598855 -0.5097243 0.02789742 13534852 male
-0.6553117 -0.1338185 1.59623 -0.957129 -0.05628673 0.2841411 13474187 male
-0.4573047 0.2492227 1.827426 -0.347636 -0.08087108 0.9341356 11039086 male
-0.4426558 0.2467722 1.466355 0.9111101 -0.3877781 -0.1396666 12960956 male
-0.4711832 0.4518032 1.35038 0.6145151 -0.1525484 -0.7740158 13143149 male
-0.6402337 -0.01234901 1.515121 -0.6363777 -0.1223754 -0.7616088 8616571 male
-0.6260866 0.1865903 1.663502 -0.299046 0.1031736 0.9486448 11642537 male
-0.5293997 0.2457866 1.189801 -0.01974227 -0.1282247 -0.9915488 8412758 male
-0.4171883 0.04087356 1.240302 -0.354849 0.03399848 0.9343054 11308935 male
-0.3793449 0.7939446 1.467829 0.130666 -0.9439014 0.3032763 11106412 male
-0.7228675 0.2413405 1.471648 -0.9746486 0.219047 0.04559261 13157568 male
-0.5633729 0.3482033 1.182641 -0.05421511 0.02062297 -0.9983163 9067339 male
-0.3621187 0.1767211 1.784948 -0.02147492 -0.2957652 -0.9550194 13334912 male
-0.4771413 0.3141541 1.366748 0.63788 -0.1946135 -0.7451408 13536891 male
-0.4996244 0.3374827 1.820105 0.09495496 0.1045315 0.9899783 7688775 male
-0.6676617 0.2869563 1.348282 -0.6762182 0.2541552 -0.6914726 11052188 male
-0.5714704 0.02565473 1.49752 0.1526887 -0.07104629 0.9857175 11377832 male
-0.525896 0.5360192 1.303983 0.2162913 -0.1898989 -0.957683 12219232 male
-0.500043 0.7100261 1.259775 0.2654035 0.76631 -0.5850897 9593424 male
-0.7003237 -0.3460615 1.571633 -0.9558005 0.1665542 -0.2422917 11765630 male
-0.3895421 1.03493 1.433561 0.3781402 0.9194488 -0.1078146 7101786 male
-0.5309253 0.4708793 1.251289 0.9575026 -0.2795131 0.07114327 13670008 male
-0.6483223 -0.1736045 1.388157 -0.6991812 -0.05958586 -0.7124572 12225152 male
-0.5476116 -0.2593625 1.58328 0.8461443 -0.5277178 -0.07452595 10974582 male
-0.4182601 0.3473193 1.434199 0.9457026 -0.1081851 -0.3065012 13668469 male
-0.6446947 -0.01654245 1.350859 -0.6122733 -0.1735001 -0.771375 10791073 male
-0.4715127 1.013224 1.383995 -0.3609293 0.5893643 -0.7227585 7695979 male
-0.5514782 0.7366604 1.653126 -0.4024594 0.7175297 0.5684872 12616557 male
-0.571609 0.5195836 1.303394 -0.1326452 -0.2609199 -0.956204 11567207 male
-0.6402417 -0.2051027 1.38118 -0.5254749 -0.002412835 -0.8508059 11893364 male
-0.6905938 -0.3802781 1.402823 -0.7404961 -0.09008562 -0.6659957 11895161 male
-0.5497108 -0.1511907 1.528336 0.5061623 -0.1859888 -0.8421449 9856352 male
-0.5553809 0.2268264 1.222552 -0.8470548 -0.5313538 0.01270765 11369075 male
-0.4746255 0.06980824 1.558682 0.9697164 -0.1348857 -0.2036076 13552582 male
-0.5656237 0.729808 1.650713 -0.5082397 0.6585425 0.5549903 13010547 male
-0.5519654 0.4009254 1.192446 0.6719974 0.2800706 -0.6855509 7161659 male
-0.4732942 0.8012973 1.39899 0.002143572 -0.03437629 -0.9994068 13540221 male
-0.587324 -0.3543519 1.443292 0.9557178 -0.09859233 0.2772784 11828595 male
-0.6736558 0.2948773 1.612828 -0.7132667 0.3511888 0.6065618 10262164 male
-0.4679928 -0.7031406 1.461281 0.1731187 0.9653704 -0.1951665 8542293 male
-0.5805606 0.4421992 1.713593 0.1057656 -0.295033 -0.9496154 12022125 male
-0.5753756 0.629426 1.648327 -0.5409148 -0.7430988 -0.393974 10378074 male
-0.5912742 0.4037612 1.790021 -0.7301935 -0.2604617 0.6316465 12351852 male
-0.5159874 -0.6928632 1.545284 0.3183686 0.9405835 0.1180856 9200986 male
-0.6080897 0.4684639 1.717881 -0.7244765 -0.2705377 -0.63399 10643040 male
-0.6723407 0.3566697 1.443696 -0.9678284 0.2468177 0.04888272 13800055 male
