# .PCD v0.7 - Point Cloud Data file format
VERSION 0.7
FIELDS x y z normal_x normal_y normal_z rgb label
SIZE 4 4 4 4 4 4 4 4
TYPE F F F F F F U U
COUNT 1 1 1 1 1 1 1 1
WIDTH 194
HEIGHT 1
VIEWPOINT 0 0 0 1 0 0 0
POINTS 194
DATA ascii
-0.7066245 -0.6676852 1.578038 -0.07929093 0.269626 0.9596952 8869980 male
-0.519785 0.5653424 1.340972 -0.5037183 -0.5550761 0.6619355 12681328 male
-0.7080656 -0.2508164 1.667321 -0.3521804 0.1194615 0.928277 9922399 male
-0.7554511 -0.3990377 1.541009 -0.8747607 -0.08104329 0.47773 11106413 male
-0.3578008 0.7016106 1.580547 0.3801549 0.0004497989 0.9249229 11103591 male
-0.5871366 -0.08632293 1.487019 0.9678256 -0.2217905 0.1188392 12879994 male
-0.6898304 -0.6105738 1.56978 -0.0355236 0.3242535 0.9453031 12155255 male
-0.5693454 -0.6913199 1.57806 -0.02150852 -0.1317905 0.9910443 8739416 male
-0.7034845 -0.1821998 1.436213 -0.4160886 -0.07823142 -0.9059528 11894644 male
-0.7725131 0.3017633 1.577652 -0.8342364 0.5514066 -0.0007388592 13355203 male
-0.7451794 0.2451531 1.398128 -0.5767363 0.1851211 -0.7956793 10988196 male
-0.7084606 -0.5181834 1.485603 -0.1082592 -0.3330208 -0.9366841 8675674 male
-0.61718 -0.09371928 1.680314 0.4312168 -0.2819473 0.8570636 9789531 male
-0.4374718 0.7480081 1.572949 -0.1677422 0.9847832 0.04543768 11501683 male
-0.570374 0.09636236 1.261449 -0.3116465 -0.1196041 0.9426407 12617348 male
-0.32219 0.8592737 1.448138 -0.6118752 0.1930677 -0.7670292 7233879 male
-0.6622878 0.4834896 1.831268 -0.873916 0.3582916 0.3284785 12026232 male
-0.5376939 0.4748485 1.696423 0.009509349 -0.07992312 0.9967558 14589584 male
-0.5043397 0.465451 1.368111 0.1830394 -0.370119 -0.9107736 11232607 male
-0.724042 -0.019883 1.414696 -0.6463249 -0.1697987 -0.7439305 11120041 male
-0.6564058 0.5061922 1.576821 -0.9243029 0.3803321 -0.03180742 14392449 male
-0.6975453 0.08479914 1.550637 -0.2115231 0.0002193591 0.9773731 9340296 male
-0.7202045 -0.1584876 1.580752 -0.8995427 -0.04420253 -0.4345909 11632247 male
-0.183454 0.8859121 1.469208 0.6667506 0.5575714 -0.4945279 7694696 male
-0.6025441 0.4322785 1.297018 -0.4058664 -0.07041449 0.911216 11297623 male
-0.4242676 0.5310133 1.362879 0.162371 -0.7465755 -0.6451827 11169117 male
-0.6150253 0.5424196 1.811532 -0.5747581 0.6571694 0.4876285 12745844 male
-0.7298356 -0.5640339 1.569369 -0.5888403 0.02353722 -0.8079068 10446432 male
-0.6729771 0.01455482 1.541335 -0.09107901 -0.1172286 -0.9889199 9142147 male
-0.7251287 -0.4873768 1.566361 -0.5215979 -0.0427627 -0.8521193 10381153 male
-0.6267607 0.2691379 1.259419 -0.4060382 -0.255812 0.8773218 9262931 male
-0.6622784 0.3478877 1.379581 -0.3897338 0.08423984 -0.9170668 12551020 male
-0.6075669 -0.1865688 1.474374 0.9108037 -0.1245218 -0.393613 9592664 male
-0.7005695 -0.6632203 1.610592 -0.2550336 -0.01344042 0.9668388 10976121 male
-0.6263559 0.406415 1.693769 -0.1575159 0.3327079 0.9297819 12023665 male
-0.7977467 0.1727893 1.589866 -0.9182598 -0.3686797 -0.1444797 12171961 male
-0.4172017 0.7465307 1.487267 -0.2608305 0.9426104 -0.208454 13010564 male
-0.3302433 0.8572245 1.454258 -0.6876764 0.1981061 -0.6984664 7562586 male
-0.6482588 0.4396655 1.667968 -0.4955468 0.4548326 0.7399735 12418671 male
-0.6397156 0.4476657 1.404093 -0.6221228 0.2139963 -0.7531064 13339251 male
-0.5044506 0.5096502 1.355999 0.1435274 -0.3027717 -0.9421939 11826266 male
-0.4348474 0.6986126 1.366353 0.104136 0.8047788 -0.5843688 11965829 male
-0.7668693 0.2529417 1.420681 -0.7207043 0.2718573 -0.637714 9802901 male
-0.601597 -0.01633327 1.208552 -0.9423487 -0.1056263 -0.317525 11710642 male
-0.7238072 -0.1467747 1.539107 -0.7248921 0.07742815 0.6844972 9922412 male
-0.6291817 0.5552756 1.5448 -0.8882495 0.3880747 -0.2457867 14261115 male
-0.5709939 0.0214866 1.431989 0.8943536 -0.1555496 -0.4194476 10986663 male
-0.7266787 -0.2253947 1.642816 -0.854537 0.1884623 0.4839924 10251621 male
-0.3725508 0.5796949 1.613943 0.9779634 -0.105965 0.1798868 13471351 male
-0.6603518 -0.3720796 1.463985 0.7402921 -0.152593 -0.6547391 9200734 male
-0.7626067 -0.4070203 1.513298 -0.988204 -0.1432507 0.05415142 12617086 male
-0.38685 0.6171451 1.668391 0.9780042 -0.1554669 0.1390611 13603451 male
-0.6886533 0.4320469 1.492675 -0.9281267 0.3656852 0.06968093 14392449 male
-0.6437089 -0.1906714 1.538525 0.4633173 -0.1436177 0.8744777 8342606 male
-0.5830807 -0.675752 1.55201 0.1343179 0.5978296 -0.7902903 9200215 male
-0.4588729 0.5214112 1.688583 0.1799592 -0.1709083 0.9687132 12417387 male
-0.7171882 0.3414655 1.425375 -0.6990653 0.5234855 -0.4871045 13089712 male
-0.5747985 0.5211252 1.262798 -0.6363474 0.549486 -0.5414124 12882044 male
-0.2513421 0.7866193 1.582979 0.08335093 -0.01824288 0.9963533 12222838 male
-0.7415606 -0.4969298 1.614394 -0.9400678 -0.1536487 0.3044091 12026231 male
-0.7468461 0.07706454 1.402197 -0.7279608 -0.2164652 -0.6505507 11514026 male
-0.3158796 0.7859918 1.57259 -0.3156934 0.06928579 0.9463283 11565170 male
-0.2214505 0.7001517 1.496465 0.5115168 -0.6990725 -0.499648 10837338 male
-0.55217 0.5484536 1.723024 -0.1175713 -0.5557972 -0.8229622 11759972 male
-0.7264634 -0.2361838 1.648236 -0.7852777 0.2110671 0.5820566 10120036 male
-0.2640826 0.7598436 1.43952 0.002770715 -0.2510521 -0.9679697 12946044 male
-0.5586709 -0.7080557 1.56215 0.06256566 -0.9196882 0.3876328 7952722 male
-0.7475134 -0.2902694 1.641629 -0.8925781 0.2199666 0.3935978 11302757 male
-0.6274419 0.0581136 1.913754 -0.9986482 -0.02591236 -0.04506177 11039091 male
-0.6094054 -0.1063966 1.433979 0.6792696 -0.3259949 -0.6575107 10053207 male
-0.5556874 0.1970406 1.468821 0.8565119 -0.3367124 -0.3911679 12829891 male
-0.7112601 0.3196364 1.400484 -0.5607865 0.4234961 -0.7114561 11380901 male
-0.3409095 0.6531557 1.546029 0.6471323 -0.6 0.4703403 14191480 male
-0.6029304 0.604916 1.617115 -0.8981137 0.3836585 0.2149372 13931897 male
-0.5558889 0.135692 1.587262 0.9202563 -0.3036126 0.2468767 12697537 male
-0.6132761 0.1680935 1.379064 0.5795203 -0.07753378 -0.8112614 10658462 male
-0.6367088 0.3543502 1.702934 -0.1412674 0.02712663 0.9895998 14068380 male
-0.2174913 0.7165575 1.480664 0.7774228 -0.4467413 -0.4427598 13271932 male
-0.5991248 -0.6536143 1.555249 0.3187955 0.9015639 0.2924927 9132634 male
-0.6079292 0.5041104 1.672304 -0.6076597 0.1599896 0.777916 12681579 male
-0.5596297 0.3402323 1.688136 0.4518284 -0.1526214 0.8789529 13010292 male
-0.5654596 0.03991399 1.446464 0.9708574 -0.1218885 -0.2063479 12236212 male
-0.5698539 0.2605394 1.405666 0.703819 -0.1408611 -0.6962737 11906732 male
-0.7108365 -0.2630856 1.441591 -0.2176241 0.01144723 -0.9759657 9791067 male
-0.6138074 0.4644281 1.252092 -0.8279781 0.5064532 -0.2407439 11695981 male
-0.6296453 0.2615099 1.196361 -0.5796525 -0.01434504 -0.8147377 12421755 male
-0.6091938 0.1156088 1.919816 0.5429219 -0.1776914 0.8207691 9985373 male
-0.7210909 -0.4205872 1.45738 -0.2246184 -0.2628216 -0.9383345 8346709 male
-0.6425204 0.1067827 1.198523 -0.8852391 0.1839825 -0.4272032 12286581 male
-0.6560638 -0.4121993 1.480688 0.875616 -0.1977658 -0.440665 10121065 male
-0.5145511 0.425651 1.684237 0.3400031 -0.1922257 0.9205691 12746607 male
-0.6840703 -0.2256188 1.5538 0.205034 -0.1207463 0.9712784 10510694 male
-0.5020151 0.239911 1.526725 0.7780033 -0.6263351 -0.04914653 12551788 male
-0.6602114 -0.1538543 1.552261 0.2715077 -0.06462238 -0.9602644 10315877 male
-0.5099509 0.3526309 1.658411 0.5781277 -0.3067221 0.7561019 13733755 male
-0.6577704 -0.4236827 1.518432 0.9356494 -0.06181719 0.3474751 11501169 male
-0.5860795 0.04211506 1.196953 0.5746416 -0.2049002 -0.7923402 11375753 male
-0.6894933 0.3042246 1.37992 -0.3768679 0.2963547 -0.8775789 11578792 male
-0.6453282 0.02277066 1.18869 0.7740639 -0.4266373 -0.467767 12163726 male
-0.5824338 0.3177741 1.693306 0.3306454 -0.2185818 0.9180936 12287337 male
-0.2980549 0.8003169 1.421304 0.3496516 -0.3634712 -0.8635002 13140603 male
-0.7239298 0.04201606 1.691379 -0.6436918 -0.1697926 0.7462114 9604236 male
-0.7836281 0.1869802 1.420833 -0.8034146 0.05903171 -0.5924867 11579051 male
-0.6721326 -0.4163849 1.655056 0.4553747 -0.2203417 0.8626029 9859436 male
-0.5614679 0.09097125 1.595138 0.9361418 -0.1700255 -0.3077824 13618633 male
-0.5479277 0.6538957 1.673751 -0.7837895 0.4431795 0.4350474 13076084 male
-0.5176342 0.6949289 1.518864 -0.6360478 0.7564628 -0.1523395 14589570 male
-0.7387756 -0.3960111 1.560174 -0.5377307 -0.02134022 0.8428467 9266016 male
-0.6247484 0.5509385 1.622665 -0.8731112 0.3704958 0.3168751 13669237 male
-0.5291761 0.6770637 1.394154 -0.6257576 0.6550428 -0.4234932 13865848 male
-0.7071862 -0.28004 1.566786 -0.2991991 0.132793 -0.9449054 11697008 male
-0.6471568 0.4558239 1.656439 -0.6067904 0.4179328 0.6761196 12682098 male
-0.745963 0.03167181 1.520277 -0.8147973 -0.06519319 0.5760691 9999253 male
-0.6506068 0.4086657 1.390932 -0.4031868 0.3725953 -0.8358309 13010283 male
-0.7194803 -0.03323384 1.414155 -0.5895061 -0.1904737 -0.7849857 11705486 male
-0.6564691 -0.3913918 1.517671 0.9239609 -0.0418838 0.3801873 10646376 male
-0.4646806 0.3112546 1.502193 0.8696866 -0.4224266 -0.2553453 13668719 male
-0.7359124 -0.08058206 1.637378 -0.9569288 -0.146484 0.2506588 12684161 male
-0.2314457 0.9256057 1.473121 0.3143736 0.8538394 -0.4148827 9991027 male
-0.7349836 -0.4536851 1.556065 -0.5995017 -0.07931015 0.7964344 9857376 male
-0.5877866 0.01041623 1.515016 0.7917523 -0.1277276 0.5973393 11184292 male
-0.6994655 0.2481463 1.711584 -0.3241594 0.1291423 0.9371462 10853020 male
-0.715607 -0.4881091 1.477012 -0.2007131 -0.3092703 -0.9295517 8805716 male
-0.584388 0.1383461 1.198679 0.7086993 -0.02786345 -0.7049604 9465953 male
-0.6277974 0.146771 1.372304 0.43318 -0.08270193 -0.8975053 11512743 male
-0.646083 0.5266156 1.59253 -0.9057404 0.4007747 0.1378926 14129020 male
-0.7518398 -0.4022352 1.636841 -0.8771115 -0.1632556 0.4516893 12750208 male
-0.6848835 -0.3097731 1.442449 0.2722424 -0.02825076 -0.961814 9793891 male
-0.7524484 -0.4146753 1.590732 -0.9469455 -0.1214559 -0.2975614 11041652 male
-0.7347361 -0.5140111 1.495033 -0.6447713 -0.2979915 -0.7038972 11172468 male
-0.7012458 0.3732527 1.42375 -0.8174497 0.3481087 -0.458908 12551276 male
-0.6674034 -0.5496643 1.578286 0.7646105 0.1430793 -0.6284102 12222579 male
-0.4442812 0.3577583 1.588838 0.8881421 -0.3472623 0.3010195 13471090 male
-0.6631593 -0.7029991 1.512477 -0.3518901 -0.04333996 -0.9350376 8284515 male
-0.393552 0.4845437 1.63278 0.8703667 -0.3564404 0.3397239 12484195 male
-0.5944721 -0.0153542 1.574466 0.6872292 -0.1439263 -0.7120403 9930625 male
-0.2818614 0.8941282 1.570765 -0.252692 0.4998179 0.8284498 8086371 male
-0.4931689 0.7299363 1.587381 -0.4329519 0.9014128 0.002736092 14195325 male
-0.7788632 0.1069111 1.459892 -0.940305 -0.334711 -0.06160569 13222849 male
-0.6944525 -0.6875389 1.585871 0.1018688 0.133271 0.9858305 6308415 male
-0.4378177 0.730821 1.423134 -0.1452127 0.9140686 -0.3786713 11106413 male
-0.6297626 0.5079377 1.8401 -0.36599 0.5155737 0.7747486 11037022 male
-0.521778 0.5837055 1.27119 -0.5126979 0.5146007 -0.6872607 13142648 male
-0.6062977 0.06153886 1.186391 0.1628846 -0.1353852 -0.9773126 9729128 male
-0.6327196 0.1083564 1.913009 -0.8693609 -0.2758821 0.4100012 11702662 male
-0.6648992 -0.06869869 1.549835 0.09757002 0.004635373 0.9952181 8080969 male
-0.5945849 0.1549578 1.397059 0.7497328 0.0003504651 -0.6617407 10985886 male
-0.4858819 0.7326791 1.60499 -0.3613701 0.9260734 0.1086262 13735026 male
-0.4794166 0.3514971 1.442173 0.6370075 -0.4039863 -0.6565185 13338480 male
-0.221621 0.6889468 1.518562 0.5798436 -0.7877421 0.2079515 13535876 male
-0.7259561 -0.09640215 1.652956 -0.8272293 -0.1690182 0.5358402 12091518 male
-0.6553989 0.2835223 1.890116 -0.7486807 0.04986721 0.6610527 10184289 male
-0.474799 0.2874735 1.525559 0.8777372 -0.4786821 -0.02100426 13340787 male
-0.420067 0.4171483 1.513798 0.9458412 -0.3246117 -0.003458738 13733230 male
-0.7270521 0.03336842 1.559957 -0.6568443 -0.1070915 -0.7463826 9932683 male
-0.7315051 0.1198658 1.706272 -0.5301051 -0.1144943 0.8401666 9868178 male
-0.5812048 0.2700393 1.20021 0.7068744 -0.0895898 -0.7016426 9071191 male
-0.5841083 -0.007338921 1.214075 0.8702108 0.02959423 0.4917904 11370879 male
-0.2797928 0.6766399 1.529217 -0.1667234 -0.911073 0.377027 11565163 male
-0.7744877 0.2644738 1.43761 -0.7950858 0.3586352 -0.4891008 11974063 male
-0.6221343 0.3855882 1.204748 -0.3185363 0.2722143 -0.9079837 12087907 male
-0.5754492 0.1282479 1.86202 -0.647745 -0.577034 0.4974518 11695728 male
-0.5944533 0.3122862 1.380454 0.2630457 -0.2448786 -0.933189 11367770 male
-0.5982648 0.3468606 1.843434 0.8394619 -0.2832945 -0.463733 12221547 male
-0.7145615 0.3740759 1.478278 -0.866899 0.4944622 -0.06319368 13536115 male
-0.7392535 0.1102154 1.536049 -0.5289408 -0.2307168 0.8166956 9736340 male
-0.4815104 0.5130917 1.360639 0.2155783 -0.333963 -0.9176028 11498336 male
-0.394448 0.6359678 1.317556 0.7341469 0.4388095 -0.5181454 10051913 male
-0.7509449 -0.3309444 1.587375 -0.8621817 0.1670515 -0.4782644 11764090 male
-0.1819351 0.8990678 1.5006 0.717268 0.694166 -0.06050128 7101786 male
-0.5217597 0.4392538 1.280792 0.7684562 -0.6333199 0.09154856 13670008 male
-0.7426523 -0.2145106 1.494032 -0.9857634 0.1075424 0.12925 11829369 male
-0.609363 -0.2397991 1.614675 0.8786705 -0.4186073 -0.2295787 10776176 male
-0.4413838 0.3513923 1.512924 0.9281033 -0.3552819 -0.1113517 14063480 male
-0.6997654 0.01785582 1.387775 -0.3620473 -0.2306098 -0.9031839 11052453 male
-0.3197731 0.8545405 1.4455 -0.5817906 0.1508576 -0.7992258 7759452 male
-0.4395881 0.7228442 1.663831 0.1133242 0.9126175 0.3927937 11372155 male
-0.5473571 0.4958773 1.357922 -0.1751974 -0.2280086 -0.9577673 11567207 male
-0.6577454 -0.1486597 1.428322 0.177984 -0.2423556 -0.953722 11109487 male
-0.7003804 -0.4200094 1.455193 0.1256117 -0.266101 -0.9557261 12231561 male
-0.593673 -0.1288299 1.595593 0.8886628 -0.1236013 -0.4415897 12222323 male
-0.626202 0.1731716 1.231596 -0.6361879 -0.2488222 0.73031 11565429 male
-0.5588089 0.07654227 1.604959 0.9544295 -0.1267208 -0.270197 13355976 male
-0.4261548 0.7259628 1.651695 0.2431228 0.8647982 0.4393352 11043451 male
-0.5677547 0.2957043 1.229349 0.9753237 -0.1920957 0.1088259 10774356 male
-0.3415241 0.7292485 1.454426 -0.04019327 -0.08671328 -0.9954223 13738383 male
-0.6809458 -0.3278612 1.546299 0.5653153 0.08915786 0.8200426 10054239 male
-0.7074645 0.391304 1.626084 -0.8640611 0.4421622 0.2406058 13274739 male
-0.5298485 -0.6858465 1.533637 0.2002663 0.9664915 -0.1605852 8282205 male
-0.6373568 0.4144916 1.796703 -0.05971833 -0.3526693 -0.9338406 11431788 male
-0.6752233 -0.1126211 1.681297 -0.1792822 -0.1937427 0.964532 9726568 male
-0.6372388 0.4023379 1.882834 -0.2740196 0.2651825 0.9244412 11499880 male
-0.6032187 -0.6840853 1.548024 0.04864328 0.07922627 -0.9956692 11170416 male
-0.6119358 0.5258942 1.756304 -0.7070529 -0.07783613 -0.7028641 9000011 male
