# .PCD v0.7 - Point Cloud Data file format
VERSION 0.7
FIELDS x y z normal_x normal_y normal_z rgb label
SIZE 4 4 4 4 4 4 4 4
TYPE F F F F F F U U
COUNT 1 1 1 1 1 1 1 1
WIDTH 191
HEIGHT 1
VIEWPOINT 0 0 0 1 0 0 0
POINTS 191
DATA ascii
-0.6242417 -0.6344541 1.539512 0.05246143 0.3062022 0.95052 9659490 male
-0.4165197 0.3806462 1.31626 -0.4056905 0.6959348 0.5925286 10051156 male
-0.7245046 -0.2910019 1.62169 -0.8570997 0.1029659 0.5047559 11565680 male
-0.7425519 -0.3159547 1.471387 -0.9925256 0.08516996 0.08740258 12092020 male
-0.09805944 0.3175674 1.58479 -0.09756447 0.304017 0.9476576 11696496 male
-0.6329069 -0.5746989 1.51695 0.4456539 0.3989824 0.8013775 10774626 male
-0.6344835 -0.5935819 1.476683 0.495036 -0.08904371 -0.8642979 11765620 male
-0.4673349 -0.6924465 1.556659 0.06881244 -0.9145246 0.3986347 7034965 male
-0.7362124 -0.2203204 1.451801 -0.9917911 -0.01867452 -0.1264989 12223868 male
-0.8239537 0.2162706 1.590635 -0.9894426 0.08364648 0.118351 12434874 male
-0.7490413 0.324301 1.444687 -0.5722083 0.7895145 -0.2219115 12565687 male
-0.6795233 -0.615088 1.521136 -0.3389213 0.08112653 0.9373106 10579560 male
-0.5925116 -0.1396023 1.577519 0.8667113 -0.02449916 -0.4982084 11696241 male
-0.4534635 -0.6729118 1.551641 0.2394238 -0.1921604 -0.9517094 5394762 male
-0.7912154 0.1668902 1.161644 -0.8343791 0.2660307 0.4827415 13664388 male
0.04697947 0.3498765 1.462955 0.5192896 0.4368441 -0.7345105 8154733 male
-0.6009461 0.4623763 1.84831 -0.04123921 0.8922205 0.4497132 13208959 male
-0.587818 0.4211441 1.630643 -0.1362493 0.8019137 0.5816963 12747375 male
-0.3594724 0.2399697 1.382838 -0.07768271 -0.7751343 -0.6270027 12418920 male
-0.7255045 -0.1012994 1.405895 -0.5743024 -0.2486578 -0.7799656 12948876 male
-0.2960168 0.4500048 1.663833 0.1166299 0.9370881 0.329034 12617078 male
-0.8168389 0.1553954 1.431934 -0.9525993 -0.2732797 -0.1336897 12630714 male
-0.6904473 -0.1287836 1.536118 -0.3787563 -0.02449949 -0.9251723 8870490 male
0.06989567 0.2459709 1.503364 0.8706524 -0.4079607 -0.2748322 8087898 male
-0.647483 0.265104 1.139015 0.2772393 -0.1944381 -0.9409211 16439747 male
-0.4584796 0.3540877 1.350898 -0.2512856 0.1041711 -0.962291 10840411 male
-0.5701849 0.4340293 1.865774 0.3301644 0.3297758 0.8844431 9855315 male
-0.7202778 -0.4102114 1.561232 -0.9124573 -0.1979686 -0.3580927 11107445 male
-0.6843141 0.04150532 1.518754 0.03366507 -0.1022111 -0.994193 9800589 male
-0.722409 -0.2814541 1.566597 -0.8269759 0.2010053 -0.525079 11764089 male
-0.5989468 0.3492194 1.231964 -0.5558436 0.6019145 0.573356 8409935 male
-0.803795 0.2635123 1.447453 -0.8667753 0.4733358 -0.1570162 13487306 male
-0.6588767 -0.1882044 1.406005 0.3180973 -0.1205446 -0.9403634 11699061 male
-0.674851 0.02286633 1.532632 0.03582392 -0.09458371 0.9948722 11442088 male
-0.6565229 0.3123348 1.682444 -0.04847192 0.2938628 0.9546179 12827835 male
-0.8301433 0.3688419 1.944098 0.1794268 0.182036 0.9667829 9067867 male
-0.1966384 0.4043266 1.49699 0.5588478 0.8260458 -0.07305855 12354160 male
0.04334578 0.3621664 1.469925 0.48592 0.594625 -0.6405491 7563619 male
-0.5967191 0.2236946 1.65672 0.6281594 -0.2949292 0.7200227 12169898 male
-0.4680974 0.3169781 1.355855 -0.1702216 -0.2190208 -0.9607574 13537645 male
-0.4453208 0.328468 1.349569 -0.2124724 -0.1562098 -0.9646004 13407607 male
-0.1893354 0.3390679 1.401799 0.7993389 -0.2223666 -0.558221 11435121 male
-0.6800681 0.3569412 1.409439 -0.4672489 0.7566379 -0.4573595 13082250 male
-0.8452014 0.1146414 1.113666 0.5601739 -0.7885056 0.2538985 10913150 male
-0.7031537 -0.09430794 1.52047 -0.3250164 0.01083878 0.9456464 9592670 male
-0.3601203 0.4688925 1.611967 -0.1369334 0.9702812 0.1995086 14654589 male
-0.6671742 -0.0638363 1.525282 0.09802852 0.007946 0.995152 9591636 male
-0.7322848 -0.3026417 1.602776 -0.9841027 0.09342839 0.1510407 11894384 male
-0.7775062 0.2301828 1.379898 -0.5507758 0.3088742 -0.7753986 11052968 male
-0.6772515 -0.3009088 1.407043 0.1698414 0.0369706 -0.9847778 10517870 male
-0.7368664 -0.2740361 1.479592 -0.9381145 0.1586134 0.3078691 10712177 male
-0.3760262 0.2141461 1.569129 0.189152 -0.9759565 -0.1083075 13141099 male
-0.6172711 0.3686659 1.36792 -0.2416595 0.4569076 -0.8560586 13142125 male
-0.6814399 -0.3798896 1.528261 0.2324725 0.08938682 0.9684868 9725018 male
-0.5259301 -0.7010159 1.596741 0.1250623 -0.99133 -0.04030302 8284773 male
-0.2732021 0.3054152 1.71161 0.3103582 -0.891404 0.3302676 14064251 male
-0.3897996 0.4579049 1.495707 -0.06294773 0.9969009 0.04718145 13735286 male
-0.4089012 0.3922338 1.285565 -0.005406459 0.99244 -0.1226115 13535867 male
-0.0478687 0.2567801 1.596015 0.02296695 -0.1865631 0.9821746 11828082 male
-0.7032529 -0.4892175 1.563732 -0.954811 -0.1604424 -0.2501888 11830906 male
-0.6476218 0.171428 1.352192 0.5181478 -0.1621752 -0.8397752 11249826 male
-0.1219853 0.3487304 1.564135 0.1280341 0.7115996 0.6908208 11893612 male
-0.1141013 0.2055197 1.495249 -0.2394915 -0.830177 -0.5034382 13732735 male
-0.5535703 0.4158504 1.782238 -0.2213288 -0.8536333 -0.4715123 14130822 male
-0.7233745 -0.3167953 1.627714 -0.7861382 0.007782913 0.6180019 11302768 male
-0.03132098 0.2825623 1.445445 -0.1497639 -0.2244863 -0.9629003 10450544 male
-0.560178 -0.6699759 1.553434 -0.1124726 0.183007 0.9766569 10841459 male
-0.7199374 -0.3258887 1.633242 -0.6989239 -0.03235117 0.7144641 10776429 male
-0.8308325 0.2756433 1.881673 -0.03368436 -0.05479092 -0.9979296 12549749 male
-0.6903435 -0.1387032 1.398364 -0.1732819 -0.1835247 -0.9676219 11303795 male
-0.6305723 0.2107084 1.349038 0.4310325 -0.1266961 -0.8933976 11578538 male
-0.5536999 0.2642393 1.382919 0.1720848 -0.5411011 -0.8231626 12812392 male
-0.2040554 0.3959447 1.645562 0.7414967 0.5023361 0.4447934 11831425 male
-0.3271427 0.47111 1.602982 0.05121543 0.9916751 0.1181422 15116683 male
-0.7552752 0.2432424 1.672178 -0.4358195 0.2652967 0.8600461 10723491 male
-0.6004012 0.1268538 1.421196 0.9578192 0.1058905 -0.2671514 11382449 male
-0.6183202 0.2010837 1.661088 0.7682993 -0.1687461 0.6174472 11184039 male
-0.07348377 0.2135395 1.472778 -0.07159796 -0.6948546 -0.7155774 15702672 male
-0.5161521 -0.6844735 1.472175 0.07070446 0.7548598 -0.6520641 7821903 male
-0.6437489 0.3394194 1.678114 -0.2349414 0.1688198 0.957237 13211792 male
-0.5305508 0.4042766 1.654074 -0.2254852 0.6017019 0.766232 12156783 male
-0.6121443 -0.004129041 1.503228 0.6627975 -0.0385375 0.7478064 11116183 male
-0.6590675 0.2970226 1.353747 -0.1119667 0.324572 -0.9392107 11645097 male
-0.6288503 -0.2559213 1.49262 0.6507338 -0.2682061 0.7103599 9725277 male
-0.6596005 0.3092664 1.158098 -0.3776599 0.7477373 -0.5461338 13076604 male
-0.6264713 0.3105365 1.148655 -0.03985446 0.4744918 -0.8793574 11895411 male
-0.8397667 0.3862299 1.939859 0.191974 0.6451445 0.7395503 9986659 male
-0.6425424 -0.3881612 1.426377 0.6328864 -0.1306957 -0.7631342 10516840 male
-0.818228 0.1793711 1.130273 -0.4426731 -0.04219557 0.8956899 12421254 male
-0.6909947 -0.3407486 1.406926 -0.08482172 -0.05381778 -0.9949418 9726819 male
-0.481391 0.3868183 1.675441 -0.2093247 0.3524092 0.9121354 11629161 male
-0.6418869 -0.1560381 1.51952 0.3117037 -0.0790232 0.9468877 9196882 male
-0.5491862 0.1824336 1.535816 0.4302756 -0.8999533 0.07033423 9920589 male
-0.6498404 -0.1436415 1.53494 0.3624623 -0.02261221 -0.9317242 10250341 male
-0.4734396 0.3259211 1.6838 -0.09494259 -0.1331779 0.9865342 13010547 male
-0.7007486 -0.5677943 1.486761 -0.9087614 -0.2451182 -0.3377426 11766657 male
-0.7874388 0.1628166 1.110575 0.4013169 -0.280767 -0.8718457 10980471 male
-0.8096126 0.2550771 1.458968 -0.9106542 0.4056569 -0.07843232 13092295 male
-0.8730694 0.1719307 1.101023 0.09241488 -0.8612427 0.4997204 11370101 male
-0.5770472 0.3635664 1.677844 0.09205832 0.2659057 0.9595935 11896435 male
-0.05515494 0.3139046 1.434716 -0.1156603 -0.3983365 -0.9099181 12152687 male
-0.699282 -0.02492572 1.673867 -0.3560286 -0.2192598 0.9083881 9200991 male
-0.7714135 0.3044322 1.443717 -0.6749328 0.7032201 -0.2234888 13355206 male
-0.6589806 -0.4556667 1.622595 0.1190681 -0.2486865 0.9612378 14205103 male
-0.5878701 0.1164756 1.595747 0.9976063 -0.03150839 -0.06155723 14013134 male
-0.2252926 0.4304087 1.616657 0.6145843 0.7622433 0.2031536 12813418 male
-0.6567291 0.3996884 1.531489 -0.4188275 0.8816488 -0.2174372 13539189 male
-0.7335004 -0.3177642 1.499317 -0.8367688 0.1339201 0.5309272 10317419 male
-0.3497879 0.45904 1.640623 -0.1267938 0.9161093 0.3803513 13275509 male
-0.4991331 0.4474473 1.466824 -0.2108019 0.9775252 -0.002661079 14590596 male
-0.7068154 -0.09026635 1.653938 -0.501139 -0.2475312 0.8292094 10580080 male
-0.5933275 0.2128112 1.645624 0.6466858 -0.3843021 0.6588699 12763065 male
-0.760323 -0.0490273 1.472118 -0.952262 -0.1488307 0.2665458 10908783 male
-0.4807236 0.3987635 1.372041 -0.2521393 0.5417845 -0.8018076 13075316 male
-0.7066246 -0.03900728 1.378414 -0.2887127 -0.2427147 -0.9261397 10120808 male
-0.6950344 -0.5864538 1.486045 -0.8157426 -0.2782415 -0.5070957 11570822 male
-0.7622186 0.1814285 1.358672 -0.4181679 0.1185167 -0.9006052 10856101 male
-0.7056559 -0.09990232 1.542507 -0.5397652 -0.07332131 -0.8386166 11566455 male
0.0709058 0.2907714 1.476954 0.8167719 -0.08178567 -0.571135 7628125 male
-0.7384324 -0.4011244 1.476755 -0.980316 -0.1943667 0.03467667 12486271 male
-0.5834243 -0.01402336 1.459723 0.9859985 -0.07116609 0.1508064 12497320 male
-0.7329271 0.3479645 1.596296 -0.5231419 0.8338258 0.1762305 9736332 male
-0.6988419 -0.4627472 1.523432 -0.4101207 -0.1241381 0.9035436 10252651 male
-0.7568741 0.1732535 1.17492 0.5292016 0.1032491 0.842191 12358034 male
-0.601047 0.1351846 1.43247 0.981355 0.1065492 -0.1599681 13027270 male
-0.3095404 0.4511261 1.657503 0.0497739 0.9343314 0.3529128 12813676 male
-0.6715909 -0.5445554 1.594452 -0.3242421 -0.287149 0.9013394 9857390 male
-0.6516708 -0.2847632 1.503836 0.5471718 -0.06085734 0.8348051 10512992 male
-0.7184948 -0.2048419 1.60289 -0.9968504 0.050883 0.06083149 12881026 male
-0.7010616 -0.5415506 1.512757 -0.8012822 -0.05238027 0.5959896 10976117 male
-0.2782322 0.4447896 1.448615 0.3207701 0.9464912 -0.0355072 14195326 male
-0.6087274 -0.5899723 1.5372 0.6169594 0.3933684 -0.6816323 11367787 male
-0.5811761 0.1678262 1.583024 0.7467105 -0.4827979 0.4575258 13552326 male
-0.5830505 -0.6780691 1.480012 -3.985026E-05 0.3270195 -0.9450177 11637384 male
-0.2656629 0.2555258 1.5678 0.4059909 -0.8916367 0.2003881 13667443 male
-0.6595476 -0.0485341 1.532369 0.1786257 -0.06824108 -0.9815479 9791076 male
-0.00737421 0.3627762 1.587066 0.04500234 0.5633206 0.825012 7493717 male
-0.3920678 0.4602308 1.538171 -0.0881407 0.9642723 -0.2498203 14458235 male
-0.7258276 0.1598756 1.342814 -0.1879231 0.01435933 -0.9820789 11907757 male
-0.5970845 -0.6982365 1.536187 0.1390714 -0.789348 0.5979874 10315115 male
-0.2087188 0.4010389 1.422149 0.6090598 0.7191799 -0.3344048 11302250 male
-0.557682 0.4801686 1.817531 -0.09647356 0.9703102 0.2217903 9919826 male
-0.3672133 0.3688049 1.259408 0.2249574 0.6371821 -0.737152 12945011 male
-0.7706237 0.1805403 1.114437 0.3619874 -0.2627588 -0.8943843 10988180 male
-0.8390194 0.2637244 1.903207 -0.379763 0.01091311 0.9250196 11498352 male
-0.6031396 -0.03035574 1.497945 0.722055 -0.02100036 0.6915171 11235436 male
-0.615687 0.1007618 1.385414 0.74527 0.0005769339 -0.6667627 10527136 male
-0.3223482 0.4621155 1.547751 0.1172993 0.9342189 -0.336862 15180934 male
-0.4167478 0.2080695 1.511008 0.1344719 -0.9665279 0.2184976 13009516 male
-0.08856554 0.2080263 1.568056 -0.05878185 -0.7585953 0.6489051 14390409 male
-0.7381113 -0.09518956 1.597306 -0.9677631 -0.2469389 -0.04955679 12487806 male
-0.5353816 0.4773797 1.777175 -0.1978894 0.804844 -0.559523 10512473 male
-0.5540318 0.1887613 1.53093 0.2550612 -0.9635514 0.08069986 13011051 male
-0.3281362 0.2286281 1.521401 0.2719505 -0.9582835 0.08795199 13141101 male
-0.8082198 0.177138 1.519737 -0.6104095 -0.5926532 -0.5255116 11447214 male
-0.766637 0.1825559 1.680272 -0.4924869 0.1041854 0.8640615 10064785 male
-0.6292934 0.264952 1.145929 0.3584342 -0.4020648 -0.8425373 15324348 male
-0.8463994 0.1331226 1.104557 -0.2245183 0.4338835 -0.8725462 10652291 male
-0.1107259 0.2181895 1.574306 -0.2008036 -0.5408758 0.8167812 12879226 male
-0.634007 0.4078468 1.501691 -0.3827716 0.9195962 -0.08848083 13077360 male
-0.5494207 0.3363133 1.170011 0.2330057 0.3618629 -0.9026427 11038818 male
-0.3953889 0.4345807 1.78395 0.377701 0.5737154 0.7267686 13010547 male
-0.4553936 0.2926494 1.67642 -0.1157714 -0.3467806 0.930774 12219237 male
-0.6883882 0.3744013 1.857616 -0.01813048 -0.8360573 -0.5483425 12944755 male
-0.3516861 0.4573076 1.474083 0.05269925 0.9962896 0.06804213 14590596 male
-0.7914874 0.1485234 1.381321 -0.7078356 -0.09716719 -0.6996623 10988445 male
-0.410703 0.2917621 1.357848 -0.07731003 -0.3980738 -0.91409 11891549 male
-0.2760549 0.2578091 1.34244 0.2784352 -0.954801 -0.1040622 14062451 male
-0.7161141 -0.2256327 1.582414 -0.9153225 0.1509928 -0.3733443 10513251 male
-0.1021268 0.360541 1.553827 -0.2319598 0.7677909 0.597237 12090990 male
-0.4124306 0.3195646 1.23781 0.3131888 -0.4647735 -0.82819 9198666 male
-0.7285239 -0.2217573 1.496406 -0.9305593 -0.1453584 0.3360516 12749192 male
-0.6636566 -0.3403861 1.530904 0.300526 0.1354116 -0.9441123 10712939 male
-0.8036778 0.1673315 1.392228 -0.784381 -0.07350616 -0.6159086 11973555 male
-0.7126554 -0.04161124 1.382041 -0.3580875 -0.2368146 -0.9031569 10449519 male
0.04146724 0.3472904 1.458077 0.4491802 0.4036489 -0.7970602 8616053 male
-0.4046378 0.2106875 1.58743 0.01556982 -0.9983338 0.05556302 14062453 male
-0.4333227 0.3220047 1.349421 -0.1734603 -0.2261095 -0.9585334 11368286 male
-0.7298511 -0.1904472 1.432708 -0.8251763 -0.075024 -0.5598712 11371123 male
-0.6688446 -0.3788438 1.411268 0.2636113 -0.1498859 -0.9529132 12624014 male
-0.5900727 -0.09443104 1.583408 0.930516 -0.02882225 -0.3651159 12156532 male
-0.7025119 0.258827 1.188536 -0.5225021 0.05332594 0.850969 12095879 male
-0.6065062 0.08436984 1.547556 0.7638075 -0.1309918 -0.6320122 11381421 male
-0.4433968 0.2061692 1.548838 0.2706975 -0.959074 0.08306596 13141101 male
-0.5312143 0.2954148 1.193763 0.4828784 -0.8701264 -0.09853169 9526096 male
-0.1352016 0.3205659 1.464936 -0.0248872 0.2223259 -0.9746549 12617333 male
-0.6157354 -0.2002622 1.503203 0.6109376 -0.1581954 0.7757124 9592927 male
-0.6351336 0.4169635 1.552918 -0.456097 0.8715053 -0.1801502 13998715 male
-0.4753401 -0.6699188 1.553154 0.1553966 0.4658102 -0.8711331 12474193 male
-0.557319 0.3959717 1.844523 0.2614245 -0.9364362 0.2339754 9986386 male
-0.6767126 -0.1844777 1.653109 -0.2483099 -0.07948565 0.9654141 10579567 male
