# .PCD v0.7 - Point Cloud Data file format
VERSION 0.7
FIELDS x y z normal_x normal_y normal_z rgb label
SIZE 4 4 4 4 4 4 4 4
TYPE F F F F F F U U
COUNT 1 1 1 1 1 1 1 1
WIDTH 194
HEIGHT 1
VIEWPOINT 0 0 0 1 0 0 0
POINTS 194
DATA ascii
0.7168165 -0.652308 1.053693 0.193293 0.1684335 0.9665756 9066836 male
0.5340918 0.5210904 0.92726 -0.1194017 -0.5499024 0.8266504 12878193 male
0.4668348 -0.1917565 1.324961 -0.4083071 0.1736923 0.8961677 9264724 male
0.6344635 -0.3523175 1.080371 -0.4755493 0.02219978 0.879409 9463909 male
0.534871 0.8359719 1.205373 -0.3404822 -0.1596996 0.9265895 11498347 male
0.7195262 -0.06736239 1.064775 0.97075 0.1314739 0.2008966 12879994 male
0.6726285 -0.6142294 1.049788 -0.2281787 0.05567985 0.972026 11368048 male
0.8956323 -0.7037595 1.035552 0.6071668 -0.6927729 -0.38912 8213840 male
0.6551579 -0.1844711 0.9887112 -0.3210744 -0.0279085 -0.9466429 11894644 male
0.4294861 0.3432652 1.138556 -0.9834473 0.07993148 -0.1626119 13537139 male
0.4409801 0.1747762 0.9993851 -0.6166716 0.006599642 -0.7871931 10328981 male
0.670023 -0.528747 0.9869437 -0.05663771 -0.1872379 -0.9806806 8938334 male
0.5380263 -0.1358939 1.326635 0.3165282 -0.1960835 0.9280956 9198418 male
0.5787122 0.7251205 1.075147 0.7630528 0.5941973 -0.2543228 11892591 male
0.8550844 0.2750798 0.8413339 -0.05815946 -0.8942437 0.4437856 13533828 male
0.5173658 1.005025 1.099844 -0.2909196 0.6655082 -0.6873608 8943479 male
0.5050073 0.4290911 1.409044 -0.418021 0.08596355 0.9043611 10970966 male
0.6002709 0.2937045 1.271644 0.5672908 -0.08609969 0.8190044 12224109 male
0.6057389 0.5564836 0.9818157 0.4348415 -0.08486224 -0.8964996 11432287 male
0.6000329 -0.01434731 0.9694136 -0.09300345 -0.158953 -0.9828959 11185063 male
0.4228565 0.357004 1.173171 -0.991516 -0.01465139 -0.1291574 14392449 male
0.5924965 0.007851005 1.141006 -0.04706054 -0.182051 0.9821624 10852005 male
0.44086 -0.09478775 1.291258 -0.8541092 0.02944738 0.5192596 12422019 male
0.6127629 1.013067 1.130224 0.4619422 0.7896338 -0.4038415 7561562 male
0.742793 0.3624197 0.7979602 0.4042442 0.5487704 -0.7317362 13485496 male
0.479889 0.4932674 0.9680026 -0.4051037 -0.221187 -0.887112 12551019 male
0.5291625 0.4315125 1.416411 0.002325604 0.3298153 0.9440427 10906463 male
0.2877838 -0.4093376 1.264505 -0.872931 0.3622052 -0.3268014 11831675 male
0.4732191 0.08216009 1.139631 -0.02839263 -0.3478049 -0.937137 11053995 male
0.3579617 -0.285062 1.261182 -0.7088599 0.5950325 -0.3787535 11172461 male
0.6183597 0.3590329 0.8452497 -0.4742564 -0.8258684 0.304996 7622995 male
0.4798502 0.2504635 0.9798059 -0.4508977 0.1544847 -0.8791052 11578792 male
0.7073621 -0.2250714 0.9948936 0.4060867 0.05752329 -0.9120225 9727322 male
0.1860404 -0.5826631 1.276747 -0.5495903 0.6441967 0.5319409 11301241 male
0.541638 0.4665826 1.293644 0.1237695 -0.1111658 0.9860647 13733502 male
0.3861342 0.1593091 1.173283 -0.9834398 -0.1326759 -0.1234643 13552070 male
0.463392 0.7528674 1.090892 -0.7514398 0.6591768 -0.02871215 11368819 male
0.5279238 1.011342 1.101888 -0.1625466 0.739165 -0.6536159 8811629 male
0.4964704 0.4724677 1.290796 -0.2360469 -0.1872382 0.9535323 11959675 male
0.4382163 0.4405243 1.019616 -0.8347794 -0.1736722 -0.5224763 12551533 male
0.5325584 0.5331869 0.9566087 0.2164386 -0.1227377 -0.9685505 11367773 male
0.4673344 0.7174537 0.9900409 -0.635241 0.6142402 -0.4681645 12553082 male
0.4302617 0.1822622 1.009518 -0.703114 0.03215911 -0.7103497 9802901 male
0.9506012 0.2336996 0.8106236 0.1950576 -0.104771 -0.9751799 9991792 male
0.6428698 -0.1597939 1.11281 -0.2196326 -0.1244469 0.9676129 10251111 male
0.4236729 0.3673276 1.170328 -0.9886365 -0.039726 -0.1449821 14195582 male
0.680946 0.0697261 1.083317 0.907649 0.229125 0.3516748 13223617 male
0.456715 -0.1998165 1.3176 -0.5634615 0.2593862 0.7843661 10711920 male
0.6139058 0.6467571 1.227946 0.8732061 0.4373509 0.2150243 13471351 male
0.69121 -0.3557522 0.973653 0.3886911 0.02335363 -0.9210722 10847851 male
0.6105309 -0.4121248 1.026562 -0.9824163 -0.1843768 -0.02938926 12617086 male
0.5701416 0.6880128 1.278176 0.8031918 0.5915537 0.07033765 13274227 male
0.4280184 0.3827099 1.070318 -0.9883252 -0.1277867 -0.08297056 14392193 male
0.7085309 -0.1953681 1.094307 0.4334981 -0.173751 0.8842456 8342606 male
0.3445466 -0.6851756 1.261593 0.5026591 0.5821791 -0.6390629 6049616 male
0.5750737 0.5442385 1.292842 0.2500403 -0.1231545 0.9603713 12417387 male
0.4372129 0.2899998 1.038234 -0.902578 0.2157415 -0.3725703 13608855 male
0.5042429 0.5627582 0.8804342 -0.8260988 -0.01272367 -0.5633819 11893099 male
0.5424605 0.8967509 1.242796 0.5148432 -0.143392 0.8452074 13013903 male
0.2478627 -0.5525348 1.3027 -0.1210824 0.04880666 0.991442 11770762 male
0.5188158 0.02237624 0.9885383 -0.5695642 -0.380785 -0.7284226 10658974 male
0.5285746 0.7687492 1.210061 0.05522773 0.4503506 0.8911422 10972005 male
0.6709418 0.8768146 1.15598 0.6560377 -0.2700798 0.7047493 10905956 male
0.5461739 0.5134676 1.320324 0.5559195 -0.2253492 -0.8001072 11762023 male
0.4476385 -0.1973368 1.306944 -0.7009788 0.3229146 0.6358892 10974320 male
0.5819545 0.8934874 1.077608 0.09297433 -0.01510134 -0.9955541 12617342 male
0.873558 -0.7068437 1.031907 0.1783963 -0.9814992 -0.06952635 7231831 male
0.4006324 -0.2499578 1.311788 -0.5605546 0.6054251 0.5650125 10644836 male
0.7330621 0.2069963 1.427173 -0.2947797 -0.3997566 0.8679284 10052197 male
0.7102367 -0.08479457 1.007159 0.7930401 0.05375693 -0.6067932 10053207 male
0.6234626 0.2055783 1.032491 0.9250075 0.1374899 -0.3542006 11382445 male
0.4665369 0.2778258 0.9946808 -0.6112704 0.183853 -0.7697707 11247000 male
0.5875294 0.7163289 1.074494 0.7529939 0.6318508 -0.1837527 11299934 male
0.4226289 0.3933077 1.161918 -0.9708622 -0.1186273 -0.2082173 14260602 male
0.5611425 0.2746057 1.297109 0.4047118 0.2211916 0.8872896 7887706 male
0.5887101 0.1682968 0.9738902 0.4769522 0.1187541 -0.8708699 11381413 male
0.448559 0.4283563 1.252987 -0.74633 -0.1435362 0.6499146 12813944 male
0.646148 0.8591293 1.105573 0.6982363 -0.04390909 -0.7145196 14588556 male
0.8104501 -0.6932471 0.9564552 0.01211019 0.3809082 -0.9245337 8808541 male
0.5584576 0.3628222 1.293272 0.2833996 0.1119303 0.9524477 13009523 male
0.6144236 0.4139601 1.259663 0.606176 -0.006719993 0.7953024 13206899 male
0.6905699 0.06241238 1.044441 0.9531275 0.2863802 -0.0976454 12236212 male
0.6393946 0.2908883 1.037872 0.7444158 -0.124764 -0.6559567 13340787 male
0.7156872 -0.349067 1.045727 0.8749099 -0.05883387 0.4806989 11040619 male
0.6567734 0.3389256 0.8178473 -0.4743025 -0.8339488 -0.2820757 12485500 male
0.6918402 0.3593769 0.7862923 -0.04600139 -0.1396005 -0.989139 10644071 male
0.7864923 0.1762883 1.430323 0.08370618 -0.0226555 0.996233 8872027 male
0.6776833 -0.4445601 0.9750213 0.1949471 -0.1150836 -0.9740388 14007707 male
0.863447 0.2589477 0.823022 0.01651808 -0.4610511 0.88722 12813441 male
0.7191738 -0.4077913 1.000296 0.9072633 -0.08908308 -0.4110203 10121065 male
0.6345147 0.3023344 1.245292 0.6624318 -0.05746998 0.7469146 13603702 male
0.6782514 -0.2395577 1.100549 0.1605098 -0.2432741 0.9565848 10510694 male
0.6564817 0.1806734 1.185766 0.9184714 0.0305278 0.3943076 13158088 male
0.523928 -0.1724756 1.204482 0.3909893 -0.2521418 -0.8851848 9987422 male
0.6333562 0.4212304 1.243832 0.688239 -0.003011372 0.7254778 13141872 male
0.7153482 -0.4255765 1.03549 0.916027 -0.08706548 0.3915539 11501169 male
0.8714446 0.3118779 0.8348145 0.3286409 0.8864518 -0.3258809 12809584 male
0.5043765 0.2934514 0.9753768 -0.2606491 0.002793233 -0.9654297 12419691 male
0.8946232 0.2112501 0.7975064 0.3666969 0.04042304 0.9294621 12226959 male
0.6072567 0.3950964 1.265825 0.5919278 -0.005145331 0.8059748 13536891 male
0.5418327 0.8965493 1.06228 0.4988672 0.03599348 -0.8659309 13140603 male
0.4502549 0.01805758 1.299959 -0.7684966 -0.03894777 0.6386676 9604236 male
0.4489365 0.1257356 0.9970319 -0.6052267 -0.105592 -0.789019 11250859 male
0.4148231 -0.3641973 1.330136 0.4484226 -0.3475616 0.8234794 8871509 male
0.6186367 0.03163089 1.290858 0.8750204 -0.09262489 0.4751422 12828859 male
0.4119608 0.4800453 1.186334 -0.9883977 -0.1230692 0.08901763 14523779 male
0.4313982 0.7075863 1.18625 -0.8877877 0.4530702 -0.08099741 13535867 male
0.6313345 -0.4083215 1.076052 -0.5800967 -0.1783452 0.7947835 9266016 male
0.4214889 0.3534489 1.191111 -0.9999594 0.005878 -0.00684768 13867641 male
0.4129599 0.6119974 1.024234 -0.9463881 0.02483322 -0.3220763 14259574 male
0.4038247 -0.288227 1.231301 -0.2243883 0.2789012 -0.9337366 10907244 male
0.4701556 0.4810393 1.282004 -0.4507364 -0.2348677 0.861205 11695207 male
0.5406252 -0.05852579 1.086074 -0.8041959 -0.4415926 0.3978256 9202531 male
0.4758003 0.3859747 0.9912463 -0.529434 0.0822373 -0.8443559 13339755 male
0.5825356 -0.02137872 0.9731793 -0.2632301 -0.2201815 -0.9392711 11382184 male
0.7051788 -0.4433958 1.047112 0.8244906 -0.08967324 0.5587255 10120032 male
0.6814944 0.3674404 1.102526 0.9727535 0.03637328 -0.2289711 13668719 male
0.4539624 -0.1766044 1.220903 -0.7606696 0.06380225 -0.6459962 11894905 male
0.564984 1.021586 1.115168 0.09879643 0.8531644 -0.512201 7628123 male
0.63121 -0.4681827 1.055285 -0.7731794 -0.2097692 0.5984906 10581103 male
0.6773523 0.01589565 1.10514 0.7381098 0.08128273 0.6697665 11184292 male
0.5928964 0.1748053 1.300106 0.6725959 0.1321287 0.7281188 11053218 male
0.6625033 -0.4841705 0.9806352 -0.1313539 -0.1561551 -0.9789597 8805716 male
0.8588977 0.305082 0.8712969 -0.3858485 0.148587 0.9105181 12090483 male
0.5729238 0.1663174 0.9678904 0.3280035 0.0807137 -0.9412221 12434101 male
0.4174716 0.2970318 1.176345 -0.9549832 0.2853235 -0.081227 12290674 male
0.3042492 -0.3977903 1.317331 -0.6813654 0.211812 0.7006262 10974579 male
0.7116627 -0.2949384 0.991068 0.6463394 0.1000194 -0.7564666 9792096 male
0.2403089 -0.5347481 1.249594 -0.2314923 0.08057743 -0.9694942 10709601 male
0.6321086 -0.5475847 1.021074 -0.9742537 -0.1488348 -0.1693463 10912629 male
0.4267265 0.4193629 1.110398 -0.9692659 -0.1320732 0.207558 14129273 male
0.3559913 -0.446622 1.256253 0.6456245 -0.5309742 -0.5488493 10647401 male
0.6767183 0.2859923 1.150332 0.9908736 -0.0956971 0.09493023 10316627 male
0.7125986 -0.6944318 0.9857587 -0.2636897 0.1814075 -0.947396 8544851 male
0.6464799 0.5809563 1.22434 0.9084915 0.3414481 0.2409495 13009766 male
0.608726 -0.0407589 1.276033 0.955142 -0.2700528 0.1215537 13948364 male
0.5048159 0.9654067 1.224541 -0.4425326 0.1775523 0.8789997 8020578 male
0.4328984 0.6915644 1.259405 -0.8262479 0.4556346 0.3312277 13931391 male
0.4570726 0.05255943 1.076808 -0.6911322 -0.7030299 0.1675866 11380388 male
0.7901344 -0.7132918 1.003691 0.05304744 -0.9984977 0.01372338 9792363 male
0.489713 0.7622724 1.037998 -0.3780938 0.8206412 -0.4284779 11634818 male
0.5474324 0.3978254 1.429318 0.1101953 0.3509983 0.9298695 10054764 male
0.5194662 0.5902191 0.8685346 -0.5445064 0.1105564 -0.8314387 12945011 male
0.8644421 0.2659178 0.7902201 0.1609005 0.2257152 -0.9608142 11045754 male
0.7400673 0.1937056 1.392659 -0.4865927 -0.42019 -0.7659426 12485244 male
0.6382803 -0.09012382 1.119681 0.02473507 -0.1261309 0.9917053 8080969 male
0.6210737 0.1626538 1.00699 0.7585207 0.3218844 -0.5666013 10394782 male
0.4371778 0.697673 1.260369 -0.7880391 0.5126222 0.3409004 13602677 male
0.6487196 0.4016044 1.040941 0.7689994 -0.01579559 -0.6390545 13338480 male
0.6624998 0.8504322 1.165849 0.8089713 -0.3005992 0.5051788 10314081 male
0.4365935 -0.2352266 1.2362 -0.710005 0.2672561 -0.6515115 12222328 male
0.7426316 0.2599532 1.406062 0.5468945 0.8338718 0.07459372 10773605 male
0.6577945 0.1562859 1.190913 0.8854977 0.03949998 0.462962 13421770 male
0.6630099 0.4890725 1.103905 0.980468 0.1933471 -0.03605115 13799025 male
0.5008657 -0.0861527 1.181959 -0.06731354 -0.2322515 -0.9703238 10120289 male
0.4538608 -0.03444794 1.190226 -0.6988555 -0.1260171 -0.7040744 11315360 male
0.708126 0.3598053 0.7866067 0.08689883 0.0414788 -0.9953533 7885383 male
0.935863 0.2549047 0.8119662 0.4865609 0.7826468 -0.38823 10779507 male
0.6407042 0.8277772 1.191805 0.5639819 -0.3582918 0.7440104 12353907 male
0.4177229 0.1903597 1.025271 -0.8148833 0.08558636 -0.5732718 11974063 male
0.6292018 0.4180979 0.7916539 -0.07667813 0.1723615 -0.9820449 10248538 male
0.8467014 0.1788392 1.391263 -0.2912385 -0.5956646 -0.7485746 13466500 male
0.5217918 0.2323716 0.9645703 -0.1078248 0.09723417 -0.9894037 11776171 male
0.6038676 0.3069268 1.432479 -0.2190363 -0.2530961 0.9423193 11498346 male
0.4299634 0.330925 1.097493 -0.997618 0.06863376 -0.006933212 13670517 male
0.5143117 0.06170908 1.138965 -0.3195061 -0.2881906 0.9026972 9209737 male
0.5389678 0.5085113 0.9594318 0.1810096 -0.1480783 -0.9722698 11564378 male
0.4566104 0.6261513 0.9551116 -0.8662225 -0.1739051 -0.4684184 13076076 male
0.3934577 -0.2492382 1.264939 -0.6758713 0.6570497 -0.333892 12026740 male
0.5697212 1.032368 1.167324 0.1271458 0.9811194 0.1457351 7496026 male
0.5794002 0.5556523 0.8554523 0.5168975 0.4088353 -0.7521109 9198666 male
0.6234721 -0.2285895 1.038476 -0.9945963 -0.08756655 0.05577219 11829369 male
0.5223136 -0.2860964 1.284165 0.6583432 -0.7492678 -0.07198799 10776176 male
0.6802361 0.4184726 1.112492 0.983545 0.1548052 -0.09313852 14063480 male
0.5867177 -0.1358637 1.025254 -0.8362602 -0.4189324 -0.3537862 13473163 male
0.5066607 1.005698 1.10504 -0.4101436 0.6666054 -0.6224304 8418159 male
0.5072649 0.7188228 1.303135 -0.05959428 0.8658813 0.496687 11305863 male
0.5470618 0.5523874 0.9607283 0.3432 -0.08776927 -0.9351526 11891552 male
0.6853952 -0.1585565 0.9884793 0.2803452 0.04165666 -0.9589951 12226691 male
0.6769769 -0.4129796 0.9712042 0.1932034 -0.09881645 -0.9761701 12231561 male
0.5487938 -0.1869235 1.229764 0.6475249 -0.3451627 -0.6793926 9856352 male
0.7460797 0.3096239 0.8389278 -0.15693 -0.6760238 0.7199756 13542562 male
0.6194353 0.02479367 1.222919 0.9255211 -0.2914625 -0.2417859 13486789 male
0.5057824 0.7285752 1.287166 0.001399926 0.8597848 0.5106546 11899540 male
0.6972798 0.3973314 0.8470463 0.5164495 0.5628131 0.6453848 11892325 male
0.5523891 0.7824923 1.082166 0.1530172 0.1489339 -0.9769363 12420722 male
0.6961758 -0.3209385 1.072096 0.5851719 -0.08496834 0.8064456 10513765 male
0.4079266 0.1633192 1.260765 -0.7952451 0.03214798 0.6054354 10853796 male
0.8462826 -0.6821112 1.04174 0.1984073 0.9682666 -0.1519681 11097174 male
0.5412484 0.4059232 1.341428 0.4878216 -0.09904156 -0.8673068 13207675 male
0.5054572 0.472515 1.318665 -0.008183856 -0.3377745 -0.9411916 12088172 male
0.5437196 0.3508067 1.425429 -0.352483 -0.1303428 0.9266967 11300962 male
0.3440398 -0.693639 1.315712 0.4892792 0.8331814 0.2577104 9203034 male
0.4999144 0.3650792 1.357975 -0.6746307 -0.4635121 -0.5744824 9854292 male
