# .PCD v0.7 - Point Cloud Data file format
VERSION 0.7
FIELDS x y z normal_x normal_y normal_z rgb label
SIZE 4 4 4 4 4 4 4 4
TYPE F F F F F F U U
COUNT 1 1 1 1 1 1 1 1
WIDTH 194
HEIGHT 1
VIEWPOINT 0 0 0 1 0 0 0
POINTS 194
DATA ascii
0.3094327 -0.65797 1.299976 0.4965421 0.08527682 0.8638136 10381926 male
0.3095927 0.5755298 1.112501 -0.3405208 -0.4348024 0.8336622 11890272 male
0.5991364 -0.2098575 1.357671 -0.2869923 0.02636476 0.9575702 10316647 male
0.2768097 -0.4362393 1.29734 -0.4785048 0.003903806 0.8780764 10646381 male
0.4501008 0.8403389 1.305256 -0.1469459 0.09354642 0.9847112 12026477 male
0.4450824 -0.1298056 1.204228 0.968731 -0.1924284 0.1566263 11497837 male
0.4342982 -0.1874716 1.189679 0.9614736 -0.227417 -0.1544353 12288121 male
0.3833961 -0.6974277 1.254176 0.5326406 0.3548163 0.7683746 11037802 male
0.4176517 -0.1161059 1.135209 0.4736611 -0.3566546 -0.8052596 11237226 male
0.3468138 0.2180562 1.398074 -0.72595 0.1360334 0.67416 12827832 male
0.2755188 0.1702957 1.186242 -0.9322397 -0.00658265 -0.3617818 10921888 male
0.274749 -0.5594018 1.234298 -0.4631756 -0.2603079 -0.8471767 11636354 male
0.6590087 -0.09705198 1.287706 0.9729271 0.2031658 -0.1101677 11236203 male
0.4669617 0.765521 1.353738 0.6242938 0.7088504 0.3283113 12746865 male
0.530351 0.1855746 0.989154 -0.0796137 -0.6026482 0.7940258 12813444 male
0.4124714 1.012598 1.191576 -0.5356178 0.5936303 -0.600597 8943479 male
0.41022 0.4635938 1.532859 -0.6956183 0.1781071 0.6959836 12088422 male
0.5343025 0.3287713 1.37702 0.8000197 -0.07753978 0.5949422 12614509 male
0.443496 0.5997671 1.093236 0.4045292 -0.1388115 -0.9039291 12419176 male
0.3058513 0.008491335 1.148496 -0.8765747 -0.1407513 -0.460224 10920869 male
0.3429374 0.3789483 1.342436 -0.9359984 -0.05607266 0.3475096 14195838 male
0.4513889 0.05644252 1.2548 0.6097106 0.0004305749 0.7926242 10589857 male
0.5699428 -0.08748538 1.376062 0.03885455 -0.2421986 0.9694485 11632255 male
0.5237055 1.023152 1.195097 0.4287752 0.7974489 -0.4245315 9269604 male
0.4260228 0.2550005 0.9533632 -0.3537404 -0.1318395 -0.9260057 7820622 male
0.4088473 0.5627156 1.095006 -0.04916257 -0.1242973 -0.9910266 11629152 male
0.4444951 0.4370593 1.557617 -0.1198948 0.2590576 0.9583917 11169893 male
0.6511098 -0.5207562 1.316098 -0.9028971 -0.3314922 0.2736604 11172976 male
0.4739896 0.02269459 1.251443 -0.5565416 -0.2358635 -0.7966368 10786452 male
0.6147573 -0.4317646 1.323835 -0.8637949 -0.4413004 0.2431304 11632247 male
0.4381636 0.2773095 1.014351 0.5359494 0.003560673 0.8442428 11500907 male
0.5105106 0.7145962 1.273948 0.8643935 0.4792108 -0.1522535 12021343 male
0.3904959 -0.2508275 1.161719 0.3106256 -0.3014794 -0.9014555 10052191 male
0.7055479 -0.596659 1.322344 -0.2329898 -0.1510984 0.9606692 12618887 male
0.4194507 0.5013443 1.426143 -0.1351233 -0.200496 0.9703315 12090475 male
0.3393115 0.1316667 1.36713 -0.8190295 -0.421546 0.389217 12895428 male
0.3788695 0.7892694 1.223607 -0.609323 0.7832822 -0.1232666 12290933 male
0.423216 1.018041 1.18804 -0.4013534 0.660175 -0.6348894 8811629 male
0.4618326 0.4313496 1.415292 0.1725595 -0.07426248 0.9821959 11696233 male
0.3884724 0.3969029 1.110318 -0.1003542 0.04539978 -0.9939156 12352091 male
0.3405946 0.5165006 1.109024 -0.3388987 -0.2062403 -0.9179394 13012592 male
0.3736965 0.7670902 1.152942 -0.004384751 0.7893397 -0.6139411 11893099 male
0.291549 0.1899618 1.311973 -0.835044 -0.04278787 0.5485171 13025469 male
0.5899972 0.1270937 0.9360136 0.7004429 0.7119229 0.05045408 11177094 male
0.3283367 -0.1709585 1.261303 -0.6817609 0.06451531 0.728725 11830136 male
0.3287688 0.4840955 1.348855 -0.9311039 -0.1238902 0.3430699 14589566 male
0.4330769 -0.003597335 1.103352 0.397043 -0.184986 -0.8989646 10460575 male
0.6125916 -0.2201101 1.360439 -0.1318035 0.1113868 0.984998 9724250 male
0.5324754 0.4800542 1.183323 0.8445398 0.2397206 -0.4788391 14061427 male
0.2743802 -0.3649087 1.190178 -0.5842412 -0.03223727 -0.8109397 10583145 male
0.2496098 -0.4086332 1.264891 -0.9403753 0.01908679 0.339603 11698547 male
0.4682924 0.739623 1.421977 0.1212571 0.8507695 0.5113592 11502985 male
0.2797771 0.5068377 1.238128 -0.9764365 -0.07540193 0.2022046 14326400 male
0.4336377 -0.09512821 1.137483 0.6427326 -0.344001 -0.6845132 11763056 male
0.857107 -0.6292669 1.186273 0.05520748 0.9952949 0.0796264 8215899 male
0.427844 0.543254 1.433875 -0.06669106 -0.2652674 0.9618658 11894123 male
0.3079209 0.294343 1.292815 -0.8265333 0.3441005 0.4454635 12754580 male
0.2856818 0.5331259 1.085295 -0.9446735 -0.1263956 0.302682 12878962 male
0.4933897 0.9132459 1.311189 0.6863214 -0.1657004 0.7081713 12808057 male
0.688382 -0.5522106 1.33014 -0.1567803 -0.2572424 0.9535442 11435124 male
0.2989334 0.1521629 1.142629 -0.8150625 0.02244552 -0.5789384 11578792 male
0.4500122 0.7986474 1.318988 0.191583 0.5272705 0.8278176 10710881 male
0.571681 0.8783631 1.190619 0.0963936 -0.6896359 -0.717712 13009531 male
0.4485672 0.5525514 1.434162 -0.09200131 -0.3593898 -0.9286414 12154726 male
0.6536365 -0.1884153 1.341168 0.7445862 0.1482179 0.6508633 10449263 male
0.4429853 0.8916655 1.167867 -0.2461275 -0.1492319 -0.9576802 13668481 male
0.3748194 -0.6917468 1.257825 0.5992999 0.4235481 0.6792987 10446700 male
0.6554785 -0.1948505 1.339775 0.753377 0.1570185 0.6385676 10646128 male
0.5783371 0.0723571 1.52193 -0.4829879 -0.2724218 -0.8321714 12486532 male
0.3061866 -0.1988889 1.193557 -0.9365492 0.1194828 -0.329545 11894139 male
0.4813087 0.2058326 1.142908 0.5675611 -0.1112983 -0.815774 12829891 male
0.2712103 0.2523062 1.212989 -0.9808704 0.172124 -0.09092212 10790048 male
0.4629538 0.6794102 1.145009 0.7800991 0.4089302 -0.4735205 12878953 male
0.3287201 0.5186985 1.356565 -0.9083977 -0.09653255 0.4068112 14786436 male
0.5075158 0.2840394 1.410653 0.5353257 0.2823454 0.7960576 11906733 male
0.3931307 0.1587137 1.09092 0.05167112 0.02658507 -0.9983103 10658462 male
0.4429005 0.390661 1.420274 0.0005172199 0.2069598 0.9783494 12352626 male
0.485218 0.8324636 1.176239 -0.2240484 -0.5842302 -0.7800497 12814200 male
0.3561676 -0.7113414 1.169393 -0.2021885 0.8035357 -0.5598663 7821903 male
0.4854591 0.3741361 1.4151 0.3917483 0.1862419 0.9010258 12618878 male
0.5434923 0.4701847 1.35711 0.8573181 -0.05252192 0.5121009 13337459 male
0.4749121 0.03523637 1.226628 0.8654931 -0.1577311 0.4754397 10856101 male
0.3754786 0.238846 1.095834 -0.05828553 0.1768647 -0.982508 11381413 male
0.3111026 -0.3147904 1.173714 -0.2257027 -0.01133407 -0.9741304 9202268 male
0.3320909 0.3260537 1.01117 -0.8045022 -0.5921918 -0.04566562 12419699 male
0.3692628 0.288988 0.9795734 -0.713857 -0.5143234 -0.4752681 13273984 male
0.5993193 0.1350749 1.51009 0.856205 0.3569113 0.3735337 12942207 male
0.2499674 -0.4178058 1.224921 -0.9222631 -0.07730272 -0.3787549 10646126 male
0.5344487 0.1379594 0.9554003 0.2297974 -0.2376308 0.9437823 12359315 male
0.3098752 -0.4436225 1.194755 0.1248474 -0.3015341 -0.9452462 9596256 male
0.5589806 0.2791051 1.307817 0.9850065 -0.03453919 0.169025 12827055 male
0.3969605 -0.2042568 1.264882 0.7354443 -0.1593403 0.6585837 8342092 male
0.5509291 0.1504515 1.228288 0.9578767 -0.05670574 -0.2815262 12763330 male
0.5914026 -0.2362126 1.2603 -0.4291734 -0.3174832 -0.8455855 9923682 male
0.5655869 0.3640733 1.302557 0.9570694 0.05423807 0.2847394 13208435 male
0.3461327 -0.4219265 1.267205 0.9374822 -0.1965177 0.2872419 10054245 male
0.539506 0.1636053 0.9284133 0.0300438 0.1795009 -0.9832991 10985116 male
0.3762196 0.3286083 1.108213 -0.1301076 -0.07900533 -0.9883474 12155239 male
0.547646 0.06043498 0.9377899 0.950618 -0.1902885 0.2451851 11961474 male
0.53543 0.4703939 1.370493 0.8097896 -0.05627526 0.5840155 12943730 male
0.4216707 0.9001844 1.168924 0.8812945 -0.05398706 -0.4694738 11888233 male
0.5333977 -0.002528731 1.397963 -0.02350903 -0.2447175 0.9693094 9735824 male
0.3482796 0.349961 1.115754 -0.3699903 0.05623242 -0.9273323 14131073 male
0.6526169 -0.3819768 1.372557 0.07360565 -0.1620987 0.9840256 10514025 male
0.6135151 0.1065231 1.287209 0.9016714 0.3288412 -0.2808064 12828859 male
0.3230059 0.5487194 1.348965 -0.939505 -0.0630483 0.3366831 14852999 male
0.3291551 0.6021259 1.371396 -0.9126189 -0.03459204 0.4073455 14786692 male
0.3061531 -0.4386783 1.303139 0.1621955 -0.07664376 0.9837778 9200736 male
0.3470182 0.414945 1.363467 -0.8460252 -0.1327612 0.5163489 14063229 male
0.2756545 0.643972 1.220705 -0.9698929 0.1578409 0.1854569 15378055 male
0.5490856 -0.1561966 1.336776 -0.7457138 -0.4137048 0.5222637 12356218 male
0.4478613 0.4456398 1.418906 0.05799907 -0.1377775 0.9887637 12418414 male
0.3509393 0.04121328 1.277423 -0.3602235 -0.1606135 0.9189356 10853021 male
0.2858205 0.3423647 1.181859 -0.9757127 -0.02619403 -0.2174832 13404529 male
0.3144973 0.008917651 1.136689 -0.79711 -0.1559314 -0.5833535 10658717 male
0.3508577 -0.410444 1.249214 0.9729776 -0.2001298 0.115164 9923172 male
0.4971918 0.3190348 1.13276 0.3864002 -0.09056377 -0.9178743 13340017 male
0.5599582 -0.2040107 1.272829 -0.8092589 -0.4201352 -0.410593 9068125 male
0.4624355 1.026401 1.183221 -0.1013794 0.7654494 -0.63546 7628123 male
0.2640454 -0.5282453 1.297493 -0.5978251 0.1071664 0.7944311 11566710 male
0.452356 -0.0001543509 1.118057 0.6740443 -0.2032139 -0.710189 12170929 male
0.4592817 0.2616029 1.433364 0.114731 0.1231689 0.9857314 10656406 male
0.2913748 -0.4755204 1.205437 -0.1296709 -0.278263 -0.9517118 10386796 male
0.5127659 0.2171535 0.9857347 0.05369103 0.5729433 0.8178347 12422796 male
0.4047959 0.1693236 1.092538 0.2089169 0.061602 -0.9759914 10527904 male
0.3471976 0.3533445 1.351438 -0.9110847 0.004649443 0.4121935 13998203 male
0.6965408 -0.5002574 1.34146 0.381798 -0.1556152 0.9110513 9198947 male
0.2938408 -0.3037704 1.181044 -0.4803602 0.08451864 -0.8729897 10582892 male
0.6123092 -0.419338 1.335004 -0.8107506 -0.4173498 0.4104909 11896440 male
0.2494339 -0.5466284 1.265075 -0.9879142 -0.08669211 -0.1284918 12093305 male
0.3067273 0.3313212 1.142964 -0.7547629 -0.07713541 -0.6514471 12682605 male
0.6834108 -0.4943205 1.27077 0.005797564 -0.03163471 -0.9994828 11304302 male
0.5513675 0.2723225 1.203518 0.8708733 -0.2430124 -0.4272293 11895411 male
0.3101289 -0.6949925 1.216895 -0.4895727 0.4407106 -0.7523916 11637384 male
0.545126 0.6568227 1.33559 0.9272839 0.3573847 -0.1114492 13536883 male
0.5377795 -0.07046462 1.246824 -0.4194358 -0.197853 -0.8859615 9922662 male
0.4523557 0.9903387 1.314923 -0.02174119 0.3300425 0.9437158 8020578 male
0.3462839 0.6774418 1.383178 -0.8228212 0.3204423 0.4693422 15313806 male
0.2814954 0.09739162 1.221043 -0.9126236 -0.400839 0.08029002 13422020 male
0.322255 -0.7155383 1.282469 0.4295711 -0.7620962 0.484436 9591137 male
0.3860897 0.7803924 1.182791 -0.01872888 0.8396182 -0.5428541 10709850 male
0.4334277 0.4634385 1.545183 -0.1851613 0.2373788 0.9536073 11036248 male
0.3352472 0.626416 1.018474 -0.1688568 0.1682494 -0.9711744 12558212 male
0.5322962 0.2102405 0.9558255 0.3434449 0.7300875 -0.5907774 12416106 male
0.595524 0.0437647 1.515625 -0.3802869 0.004389866 -0.9248582 12614015 male
0.4328911 -0.0866455 1.242939 0.7841077 -0.1327664 0.6062577 10248543 male
0.3660221 0.1001966 1.092061 -0.2372139 -0.0241082 -0.9711583 11447981 male
0.3395234 0.6230822 1.391697 -0.8431642 0.02632295 0.5370117 15115651 male
0.3972006 0.4102077 1.110298 -0.03239827 0.01016015 -0.9994234 12877930 male
0.5696968 0.8568932 1.212779 0.8921988 -0.4346818 0.1226102 12155255 male
0.5482293 -0.1467135 1.344011 -0.6751805 -0.4125639 0.6114919 13211265 male
0.5178302 0.1988555 1.562189 -0.2485632 -0.1220178 0.9608997 10913148 male
0.5446044 0.2064673 1.206855 0.9030203 0.06800374 -0.4241816 13619407 male
0.465443 0.455398 1.122823 0.3634569 -0.01136002 -0.9315419 13010539 male
0.488719 -0.03385901 1.266604 -0.673196 -0.37329 -0.6383275 9005419 male
0.4722314 0.05169214 1.408227 -0.2624568 -0.3952595 0.8802764 11249835 male
0.3783776 0.2812674 0.9751586 -0.6731457 -0.5034853 -0.5416433 13340545 male
0.6152233 0.07501994 0.9352594 -0.6017661 -0.7986723 -0.0003119111 11770261 male
0.5451056 0.8205022 1.251555 0.4933134 -0.662066 0.5641902 10842724 male
0.264791 0.183714 1.253936 -0.9845946 -0.03012585 0.1722389 11578792 male
0.4338739 0.3190049 0.9954467 0.8625094 0.4954154 0.1031567 12481895 male
0.5693483 0.1245633 1.490294 -0.5089483 -0.5985817 -0.6186047 13008766 male
0.4444664 0.3299049 1.116709 0.2564461 -0.03953357 -0.9657499 13536883 male
0.4769391 0.269403 1.563233 -0.3667468 -0.236063 0.8998729 12419699 male
0.2974394 0.3018652 1.266 -0.8719139 0.2675697 0.410089 12096131 male
0.4402298 -0.002127804 1.257155 0.6159821 -0.1455266 0.7742018 11245226 male
0.3648126 0.525487 1.101306 -0.1691949 -0.1501855 -0.9740726 11430235 male
0.3340065 0.7113178 1.080032 -0.5251338 0.7116967 -0.4666073 10779756 male
0.5740137 -0.2817588 1.327835 -0.9833936 -0.05452389 0.1731023 12225147 male
0.4888213 1.043401 1.226311 0.2059408 0.9753175 -0.07964967 7496026 male
0.3576975 0.5087152 1.017578 0.5001311 0.1652481 -0.8500366 10971736 male
0.3053228 -0.177061 1.200431 -0.9733371 0.05208751 -0.223388 12159103 male
0.6670756 -0.2196307 1.265067 0.5609949 -0.2622609 -0.7851778 10647152 male
0.5565634 0.4121074 1.199345 0.8882004 0.1328835 -0.4398206 13601645 male
0.3127818 -0.01376591 1.144959 -0.8271506 -0.1411155 -0.5439748 11053218 male
0.4048556 1.014931 1.200572 -0.6164917 0.6120254 -0.4953414 8418159 male
0.4345265 0.7065371 1.449531 -0.3301286 0.5671012 0.7545935 12879217 male
0.373458 0.583915 1.097519 0.04423419 -0.3945927 -0.9177909 11038301 male
0.3079663 -0.2099517 1.183466 -0.8539406 0.09724593 -0.5112033 11893364 male
0.2584695 -0.3329475 1.259038 -0.8622276 0.2947346 0.4119408 13277062 male
0.6450863 -0.04100459 1.331911 0.9053478 0.06681207 0.4193827 9591644 male
0.4167268 0.2497628 1.008162 -0.2367179 -0.6422876 0.7289934 10782075 male
0.6252677 0.08586372 1.299433 0.9473126 0.3032548 -0.1031291 10462366 male
0.4227012 0.7061749 1.443869 -0.4084698 0.5482809 0.7297539 13076346 male
0.3794502 0.3989533 0.9932575 0.7647747 0.565505 -0.308746 9392965 male
0.4317409 0.7896284 1.193268 -0.2454818 0.04355315 -0.9684224 12420722 male
0.3670016 -0.3391385 1.203198 0.8965088 -0.3135371 -0.3129963 12092022 male
0.3936769 0.1728509 1.429616 -0.3197305 -0.03603242 0.9468232 10458257 male
0.4528883 -0.7140313 1.202083 -0.01102885 0.9387773 -0.3443482 6310992 male
0.4259453 0.3950649 1.480846 -0.1835576 -0.2204067 -0.9579811 12352626 male
0.4336157 0.584893 1.437931 -0.4081902 -0.4739859 -0.780204 11893112 male
0.4580318 0.3575929 1.567515 -0.0977721 0.08401279 0.9916565 11301736 male
0.8338751 -0.6242997 1.204952 -0.01364438 0.9849001 -0.1725854 9134425 male
0.4032318 0.4747592 1.483951 -0.9326968 -0.1817557 -0.3115151 13804193 male
