# .PCD v0.7 - Point Cloud Data file format
VERSION 0.7
FIELDS x y z normal_x normal_y normal_z rgb label
SIZE 4 4 4 4 4 4 4 4
TYPE F F F F F F U U
COUNT 1 1 1 1 1 1 1 1
WIDTH 256
HEIGHT 1
VIEWPOINT 0 0 0 1 0 0 0
POINTS 256
DATA ascii
1.341099 0.2052784 -1.319478 0.3948469 0.904074 0.1635427 11973063 male
1.344134 0.3062808 -1.08267 -0.5935875 0.8042892 0.0277988 6450041 male
1.747366 0.3434173 -1.198957 0.9292686 0.2959585 0.2210619 526600 male
1.41796 0.2065183 -1.078699 0.8476563 -0.4708924 0.2444164 7304583 male
1.35321 0.2052393 -1.309972 0.379458 0.9230123 0.06371711 14538992 male
1.656078 0.3136349 -1.278778 0.5934371 -0.01273788 -0.8047795 526600 male
1.335698 0.04111767 -1.393762 -0.2892833 -0.7770559 -0.5590163 7039091 male
1.322385 0.01649229 -1.308679 -0.4303003 -0.8995734 -0.07489499 7370118 male
1.303776 0.5649177 -1.531444 0.6087935 -0.2947158 -0.7365549 16171708 male
1.515927 0.2407231 -1.243268 -0.6024171 0.7869316 0.1335372 5724513 male
1.462941 0.3912378 -0.9494541 0.7720203 0.6294606 0.08811304 526600 male
1.26952 0.6953686 -1.495694 -0.008944048 0.997499 -0.07011135 526600 male
1.329146 0.3539103 -1.380457 0.8812472 0.2425002 0.4057055 15855296 male
1.417117 0.1024124 -1.335265 0.06353122 0.627272 -0.7762046 7107194 male
1.288338 0.07187546 -1.161812 -0.5734537 -0.5191365 0.6337573 12436176 male
1.401088 0.3743677 -1.016715 -0.002411067 -0.5463574 -0.8375486 526600 male
1.529073 0.1008761 -1.310446 0.5905248 -0.321233 -0.7403309 4145479 male
1.180627 0.432918 -1.28943 0.09634638 0.7614569 0.6410155 13480629 male
1.66189 0.2342637 -0.8244577 -0.951784 0.1544404 0.2650575 855053 male
1.366818 0.2778418 -1.376251 0.6954389 0.4778292 0.5366971 15267812 male
1.350232 0.4914884 -1.454634 0.9885652 -0.03338625 0.147052 16768477 male
1.404712 0.2347143 -1.15533 0.6747 0.4935786 -0.5487805 3026230 male
1.833153 0.2244212 -0.9883237 -0.03731439 0.9855664 -0.1651254 526600 male
1.584803 0.2426066 -1.385981 0.9578931 -0.2637133 0.1135609 15318712 male
1.742735 0.2328261 -1.102839 -0.8657242 0.3115439 0.3917422 526600 male
1.275927 0.1656023 -1.49846 -0.3650924 -0.6275601 -0.6876597 8354184 male
1.172609 0.4157344 -1.481496 -0.7733315 0.3089712 -0.5536202 13816290 male
1.132797 0.4082876 -1.386185 -0.9936047 0.08913105 -0.06932142 9867166 male
1.769714 0.259055 -1.089536 -0.5274781 0.7839013 0.3275143 526600 male
1.31088 0.4935577 -1.167564 0.1757012 -0.9044141 -0.3887984 10853021 male
1.257924 0.06305548 -1.342468 -0.5696298 -0.7320981 -0.3735695 14406884 male
1.652209 0.2285356 -0.7768046 0.6146001 -0.7602187 0.2105572 526600 male
1.347127 0.3956367 -0.9780019 -0.8851876 -0.3944411 0.2466961 526600 male
1.142708 0.3832225 -1.327459 -0.8584149 -0.4997965 -0.1154437 8486025 male
1.372883 0.6288096 -1.439495 0.5696122 0.6432367 0.5116526 13148063 male
1.533647 0.3314938 -1.45059 0.6488812 0.5805084 -0.4918975 13144709 male
1.366161 0.1869282 -1.232761 0.3660182 0.6324894 -0.6826329 5922155 male
1.172031 0.2822132 -1.17415 -0.111846 -0.9768893 -0.1821474 15706013 male
1.63008 0.3274527 -1.226326 -0.5591476 -0.3914267 0.7308483 526600 male
1.292614 0.2356319 -1.548679 -0.2852907 -0.5009047 -0.8171313 10130853 male
1.239513 0.2282307 -1.509218 -0.7632446 -0.4138331 -0.4961854 12434125 male
1.570613 0.2660778 -1.415921 -0.2656585 0.1750761 -0.9480368 16240072 male
1.297653 0.5122327 -1.508909 -0.1370522 -0.4333875 -0.8907254 16771297 male
1.226015 0.2525232 -1.504392 -0.7951837 -0.3802539 -0.4723237 11973060 male
1.217527 0.6369991 -1.431952 -0.4464832 0.33396 0.8301346 9933206 male
1.634557 0.2885681 -1.239105 -0.1995829 -0.847454 0.4919231 526600 male
1.479005 0.4523478 -1.390226 0.5538155 0.8325975 -0.008359417 16634324 male
1.492738 0.3077892 -1.46427 0.09955249 -0.9183074 -0.3831459 16440788 male
1.232345 0.3289853 -1.539992 -0.8230264 -0.07710491 -0.5627455 15723262 male
1.394787 0.3074077 -1.488011 0.9389983 -0.1965645 -0.2822132 8157060 male
1.225264 0.2100776 -1.463452 -0.6492144 -0.4911491 -0.5807694 12630481 male
1.715385 0.3680296 -1.197515 0.3408716 0.7331256 0.588501 526600 male
1.257058 0.1625447 -1.183464 -0.9107873 0.324346 0.2554725 3552566 male
1.412145 0.004259911 -1.235893 0.1257674 -0.8373683 0.5319746 8883624 male
1.190966 0.3494618 -1.194591 0.495466 0.8261873 0.2681937 14527405 male
1.190312 0.6483449 -1.461712 -0.7322918 0.5038301 0.4581528 526600 male
1.464036 0.3530923 -0.9761757 0.611717 -0.2351845 -0.7553082 526600 male
1.544432 0.3082234 -0.840641 0.2949451 0.1839241 -0.9376456 526600 male
1.332442 0.432947 -1.572476 0.2384487 0.6086825 -0.756735 6513003 male
1.511737 0.07023982 -1.310382 0.6731597 -0.3992049 -0.6224881 3752266 male
1.266999 0.1653096 -1.153683 -0.9141082 0.1896853 0.3583651 4802899 male
1.818513 0.2023601 -0.9441288 -0.5131304 -0.0441821 0.8571727 526600 male
1.655905 0.3457644 -1.271935 0.4990726 0.5145827 -0.6972312 6777717 male
1.377376 0.03143625 -1.382372 0.2044667 -0.8046619 -0.557416 8486281 male
1.332827 0.06931123 -1.142697 -0.03515491 -0.5846023 0.810558 9410213 male
1.885984 0.1480635 -1.049914 0.05310613 -0.9734932 0.2224651 526600 male
1.511871 0.3272215 -1.425714 0.0183479 0.8976438 0.4403395 16434885 male
1.592126 0.3138098 -0.7508188 -0.06608818 0.8356521 0.5452687 526600 male
1.742964 0.2465717 -1.098969 -0.7152302 0.4884881 0.499825 526600 male
1.76816 0.2205892 -1.090234 -0.7995051 0.4639365 0.3815161 526600 male
1.219672 0.3571512 -1.248029 0.9433272 -0.2274504 -0.2416609 2566446 male
1.21315 0.3136618 -1.152954 -0.2869772 -0.08315352 -0.9543216 15185589 male
1.313415 0.3858143 -1.375747 0.7198199 0.4747026 0.5064746 13023867 male
1.241325 0.6675832 -1.543136 -0.1944248 0.6317585 -0.7503867 526600 male
1.664841 0.2776173 -0.7795364 0.5130892 0.5976825 -0.6160479 526600 male
1.33062 0.03278241 -1.376696 -0.3596591 -0.8057939 -0.4704697 9144474 male
1.686448 0.3930584 -1.259546 0.5143197 0.7589195 0.3993953 526600 male
1.208435 0.1686432 -1.285123 -0.8443512 0.4891048 0.218741 5854554 male
1.312365 0.4913035 -1.196721 0.9937692 0.04459279 -0.102148 528400 male
1.245989 0.4769064 -1.469475 -0.9335439 0.2330798 -0.2723407 15644328 male
1.369927 0.3630667 -0.9720989 -0.706081 -0.7025558 0.08868402 526600 male
1.227856 0.06864531 -1.266044 -0.7753331 -0.6078111 0.171535 9608106 male
1.158929 0.3334102 -1.167514 -0.6149771 0.710784 0.3414516 14855581 male
1.202887 0.3924138 -1.235208 0.401432 0.8382219 0.3691022 16770786 male
1.409223 0.4061796 -0.9220885 -0.1863896 0.3130319 0.9312732 526600 male
1.693732 0.3006469 -1.134728 -0.5459836 0.4662592 0.6960633 526600 male
1.157746 0.374864 -1.342924 -0.1982717 -0.8587458 -0.472487 5789794 male
1.363514 0.4359739 -0.9887608 -0.6168836 0.3689522 0.6952185 789516 male
1.322044 0.6716943 -1.503372 0.6434299 0.6670803 -0.3755022 15319481 male
1.204862 0.1050332 -1.268834 -0.9040915 -0.3081861 0.2960402 7696502 male
1.261072 0.45518 -1.514713 -0.7808231 0.3084164 -0.5433182 12038593 male
1.150148 0.4034241 -1.275321 -0.8280112 0.3541041 0.4347503 16505041 male
1.732179 0.2619276 -1.104497 -0.5909739 0.5470524 0.5928603 526600 male
1.541303 0.5198828 -1.366891 -0.7644429 -0.4819622 0.4281815 4011320 male
1.225359 0.3394227 -1.326287 -0.4374898 0.07859035 0.8957825 526344 male
1.729234 0.3616577 -1.19614 0.4825977 0.6844564 0.5464602 526600 male
1.372609 0.1262225 -1.096295 0.1770378 -0.6853734 0.7063433 7633549 male
1.61745 0.322479 -1.26209 -0.05900413 0.8431039 -0.5345038 7831440 male
1.286867 0.6443627 -1.417414 -0.1709889 0.5274739 0.8321863 13412256 male
1.183186 0.3473808 -1.290951 0.3264058 -0.8701016 -0.3692997 7234401 male
1.546273 0.1208793 -1.188941 0.3712299 -0.5592514 0.7412329 2171945 male
1.353849 0.06872857 -1.424009 0.02065042 -0.5118672 -0.8588163 6841198 male
1.689479 0.3953327 -1.223198 0.07499436 0.7490289 0.6582793 526600 male
1.796638 0.1987518 -1.098831 -0.1239022 -0.7340677 -0.6676772 526600 male
1.176341 0.4158498 -1.265648 -0.137476 0.8516209 0.5058085 15711935 male
1.335147 0.2653273 -1.048713 -0.7598395 0.01285464 0.6499836 4277321 male
1.524671 0.3165794 -1.460094 0.7796181 -0.08201123 -0.620862 16502726 male
1.340272 0.4704483 -1.453655 0.9498777 -0.05076724 0.3084718 15060438 male
1.764793 0.2498571 -1.120512 0.8440512 -0.4338132 -0.3152519 526600 male
1.274315 0.2800332 -1.561021 -0.4930094 -0.4274654 -0.7577697 11052214 male
1.203126 0.5992468 -1.553786 -0.5044252 -0.1388847 -0.8522125 6578276 male
1.196195 0.424062 -1.282635 0.3492054 0.8108941 0.469581 14927307 male
1.252643 0.572152 -1.553799 0.04676104 -0.5133942 -0.8568779 7103849 male
1.28525 0.5478136 -1.546425 0.8284771 0.5322511 0.1741674 16168372 male
1.371237 0.3868921 -1.023996 -0.01359709 -0.8498045 -0.5269226 526600 male
1.399629 0.09556649 -1.210151 0.9926237 0.06021077 -0.1052272 526344 male
1.286629 0.2659843 -1.304621 0.215946 0.3066452 0.9270038 8684176 male
1.165652 0.3341447 -1.480843 -0.700669 -0.200123 -0.6848457 13486295 male
1.362875 0.1417923 -1.082466 0.001628518 -0.6765961 0.7363525 11713489 male
1.428281 0.1148767 -1.316771 -0.3198406 0.4497008 -0.8339492 12764117 male
1.18957 0.5557792 -1.480345 -0.789717 -0.6098419 0.06663284 9735828 male
1.388775 0.6002825 -1.442855 0.8475296 0.3302836 -0.4154592 13544617 male
1.576168 0.2946935 -1.209658 -0.5499471 0.6102735 0.5701969 3948098 male
1.347586 0.2711249 -1.34707 0.7044948 0.4440354 0.553642 12641720 male
1.766985 0.1769269 -0.8948802 0.3263997 -0.7185156 0.614165 526600 male
1.455133 0.3240647 -1.444428 -0.7056928 -0.454354 0.5436543 1382170 male
1.395768 0.1076468 -1.127854 0.6217113 -0.6044471 0.4981151 2828851 male
1.433845 0.4072072 -0.9235076 0.3455786 0.6111131 0.712121 526600 male
1.348532 0.1890056 -1.515476 0.4331018 -0.5579028 -0.7079318 4210502 male
-2.604624 0.4403831 -1.504227 -0.1849476 -0.2649012 -0.946373 5985360 male
-2.582584 0.02344981 -1.407822 -0.9227904 -0.1340448 -0.3612343 2698289 male
-2.708757 0.01646513 -1.397683 -0.5421175 -0.244766 -0.8038647 4145735 male
-2.480946 0.1209836 -1.340012 0.7080054 -0.1523635 0.6895753 2302507 male
-2.591957 0.3021638 -1.462543 -0.036782 -0.1540392 -0.9873801 7564394 male
-2.684038 -0.1154003 -1.283667 -0.2000279 0.310455 0.9293045 2500138 male
-2.62768 0.2263966 -1.237422 0.04809424 -0.04763339 0.9977065 3751233 male
-2.548983 0.6414449 -1.520115 -0.2028926 0.7063771 -0.6781343 4603450 male
-2.622866 0.862359 -1.560459 -0.6744876 0.6064538 0.421047 14399152 male
-2.629413 0.09331523 -1.391046 0.6322462 -0.1146467 -0.7662383 3091247 male
-2.517687 -0.3490708 -1.381492 -0.4012595 0.2280643 -0.8871176 2697257 male
-2.605625 0.8708072 -1.479761 -0.7656895 0.3831587 0.5166327 7365728 male
-2.714109 0.4931926 -1.337373 -0.9055121 0.02753083 0.4234267 3486773 male
-2.614722 0.2312096 -1.461235 -0.006916136 0.03546616 -0.9993471 11710378 male
-2.467574 0.23942 -1.360043 0.9762779 0.1226191 0.178455 8682867 male
-2.535563 -0.04479312 -1.325013 -0.2204111 -0.05991374 0.9735655 3092018 male
-2.698846 0.01826146 -1.296611 -0.5523863 -0.2276931 0.8018887 2170917 male
-2.536156 0.6329067 -1.572813 -0.9068674 0.4157336 0.06897503 4538429 male
-2.531462 -0.4266382 -1.369783 -0.9701232 0.1758068 -0.1671922 2170913 male
-2.522879 0.6518424 -1.560817 0.09272348 0.9807937 -0.1715987 7432034 male
-2.620469 0.7528347 -1.560387 -0.3036587 -0.4251139 -0.8526839 12496806 male
-2.516075 0.1156531 -1.471671 0.1864083 -0.07002786 -0.9799736 3752010 male
-2.67439 -0.446272 -1.514605 -0.2816891 -0.8741646 -0.3955852 2632493 male
-2.666417 0.607531 -1.630922 0.1741331 -0.971085 0.1633146 8418160 male
-2.653985 -0.2399878 -1.350455 0.5793245 -0.1582985 -0.7995781 2434343 male
-2.690437 0.6912876 -1.352259 -0.2778563 0.6254388 0.7291243 11248803 male
-2.471209 0.6179615 -1.441001 0.8844139 0.3366951 0.3231854 8945788 male
-2.457391 0.5346402 -1.496411 0.7319903 -0.6813149 -0.0006295443 5723217 male
-2.630991 0.02574244 -1.381233 0.7635517 -0.06051929 -0.6429048 2368807 male
-2.483244 0.5648395 -1.563636 0.3044842 -0.9286699 0.211806 6051924 male
-2.48396 0.2571491 -1.308151 0.8047925 0.0804637 0.5880773 8616307 male
-2.529406 0.6895395 -1.455952 0.6205685 0.6017329 0.5028046 9604234 male
-2.474729 -0.219407 -1.363226 0.9606409 -0.07602412 -0.2671884 2631465 male
-2.608198 0.6114371 -1.58704 -0.3076511 0.949077 0.0678511 11116698 male
-2.612926 0.8093399 -1.601344 -0.1053539 0.1704411 -0.9797196 14339776 male
-2.744003 0.7104632 -1.449366 -0.9713515 0.2348956 -0.03606582 9275264 male
-2.53279 0.1942372 -1.468315 0.007952392 0.1912572 -0.9815079 3027253 male
-2.488225 0.5736571 -1.542387 -0.4381791 -0.7152954 0.544382 920334 male
-2.710257 -0.06407234 -1.382593 -0.8975903 -0.06613906 -0.4358413 3289397 male
-2.59713 0.5756867 -1.314063 0.4743207 0.0966721 0.8750285 8748669 male
-2.55184 0.6834754 -1.409303 0.6745335 0.5359203 0.5077343 11315105 male
-2.708718 0.6487907 -1.694624 -0.8886415 0.458411 -0.01326638 16642533 male
-2.6054 0.7476811 -1.456136 -0.2627364 0.1560885 0.9521587 12101279 male
-2.580165 0.3447089 -1.288155 0.3497138 0.4716989 0.8094447 13944260 male
-2.484715 0.7957442 -1.529729 0.7438469 -0.4220212 -0.5182568 3814449 male
-2.685765 -0.06453703 -1.401238 -0.1918395 -0.2001525 -0.9608001 4278352 male
-2.678965 0.7139733 -1.514936 0.417362 0.871662 -0.2569326 6841440 male
-2.711304 0.658252 -1.390181 -0.1328347 -0.9853281 -0.1071607 789259 male
-2.638131 0.3356308 -1.263557 0.05868289 0.4972096 0.8656439 8089450 male
-2.712664 0.5447512 -1.343116 -0.9453872 0.02480874 0.3250042 2632488 male
-2.553416 0.4534677 -1.330113 0.3168234 0.09797697 0.9434108 8617082 male
-2.653841 0.02085849 -1.401441 0.4666303 -0.05103653 -0.8829788 3619136 male
-2.461853 0.215337 -1.404862 0.9876305 0.08149559 -0.1339579 2699313 male
-2.709461 0.3288052 -1.372708 -0.8614691 0.2516713 -0.4410587 4669758 male
-2.675632 0.5236056 -1.567391 -0.1318076 -0.4070325 0.9038537 14600134 male
-2.486314 0.7746207 -1.497935 0.7401628 -0.6613842 -0.1213681 5524040 male
-2.553439 -0.09778848 -1.335889 -0.659979 -0.04005421 0.7502158 2499627 male
-2.512404 -0.4319661 -1.467757 0.1088399 0.9491981 -0.2952572 3158067 male
-2.637998 0.7028447 -1.459955 -0.8936802 0.4474331 -0.03375816 4933179 male
-2.693918 0.1525376 -1.259562 -0.3355048 -0.2506812 0.9080726 3092022 male
-2.512512 0.2277722 -1.461622 0.1443804 0.1956051 -0.9699966 2105119 male
-2.708239 -0.4232555 -1.351459 0.9973303 -0.07294245 -0.003474176 921102 male
-2.648476 -0.1226894 -1.288478 0.5612199 0.2513217 0.7885872 2303275 male
-2.665839 0.2688561 -1.249891 -0.4094048 0.1168692 0.9048369 6249047 male
-2.55653 0.1419725 -1.311918 -0.229884 -0.2400886 0.943139 2105893 male
-2.763133 -0.4472919 -1.416691 -0.6878862 -0.7002915 0.1907997 2236962 male
-2.71781 0.7513806 -1.453092 -0.2362446 0.9558779 -0.1746019 7368296 male
-2.530963 -0.4161097 -1.361415 -0.9932685 0.07789332 -0.08573538 2039585 male
-2.656746 -0.2207869 -1.355152 0.4706641 -0.1313472 -0.8724813 2434858 male
-2.727538 -0.4206801 -1.285992 0.1176298 0.001203952 0.993057 6053476 male
-2.687845 0.534612 -1.563224 -0.3665702 0.01829849 0.9302106 16374744 male
-2.866313 0.4409435 -1.703406 -0.07227289 -0.8833998 0.4630135 6115925 male
-2.473136 0.595432 -1.568837 0.8316831 0.08835806 -0.5481755 13486015 male
-2.544839 0.921904 -1.488061 -0.06439421 0.9495993 0.3067811 5525067 male
-2.630556 0.6671192 -1.479828 -0.5866246 0.4162291 -0.6947123 8485240 male
-2.665009 0.255153 -1.247394 -0.3983122 0.1110527 0.9105027 7103068 male
-2.685928 -0.1617264 -1.271681 -0.2016727 0.1147465 0.9727085 3158840 male
-2.474378 0.3376938 -1.386606 0.9045871 0.424132 -0.04283041 4340793 male
-2.567971 0.552406 -1.60694 0.2819604 -0.7354392 -0.6161394 5392457 male
-2.538631 0.7022095 -1.476835 0.854257 0.2778479 0.4393698 14400439 male
-2.482524 -0.2843467 -1.35603 0.976481 -0.1627479 -0.1414154 2236706 male
-2.504851 0.3498223 -1.332482 0.5252077 0.5754417 0.6269161 9340030 male
-2.721808 0.5128579 -1.64594 0.4929144 -0.02584714 -0.869694 16704989 male
-2.506508 0.6081473 -1.618967 0.2314925 0.02654282 -0.9724747 10590864 male
-2.482997 -0.27572 -1.366495 0.9191557 -0.1581775 -0.3607396 2499884 male
-2.635978 0.09110352 -1.395795 0.5674855 -0.09749036 -0.8175918 3091247 male
-2.49705 -0.1363224 -1.311296 0.5159917 0.3159797 0.7961844 2697257 male
-2.562208 -0.08707967 -1.389795 -0.7725611 -0.2820189 -0.5688716 2368036 male
-2.541688 0.9169546 -1.54631 0.09592534 0.8697649 -0.4840532 8353135 male
-2.46955 0.296315 -1.413992 0.9584285 0.1235179 -0.2572128 4209976 male
-2.621115 0.7200551 -1.429864 -0.5094811 0.856515 0.08253053 4340793 male
-2.556744 0.6083574 -1.617437 -0.1633227 0.4879873 -0.8574348 10457988 male
-2.61753 -0.02222721 -1.355165 0.9496077 -0.0312601 -0.3118784 2104096 male
-2.704173 0.6017669 -1.868165 -0.6679459 0.7440295 -0.01638791 13942450 male
-2.710249 0.3195804 -1.289036 -0.7414795 0.2674483 0.6153697 3945779 male
-2.660037 0.03589071 -1.405435 0.3884272 -0.05780971 -0.9196645 3749945 male
-2.482248 -0.01313107 -1.387581 0.9769293 -0.2107874 -0.03432429 2368807 male
-2.714179 -0.2032679 -1.35957 -0.6911552 -0.06973013 -0.7193349 2170913 male
-2.526881 0.8703837 -1.572786 0.4353679 0.2275168 -0.8710288 5590085 male
-2.488953 -0.1305176 -1.321051 0.7339244 0.3036366 0.6075853 2237220 male
-2.613524 0.04057136 -1.349603 0.9579897 -0.1485024 -0.245363 1841436 male
-2.492852 0.6579027 -1.523771 0.1886967 0.8176332 -0.5439389 6775134 male
-2.639961 -0.09910696 -1.308624 0.8189699 0.1197103 0.5612112 2566695 male
-2.729437 -0.383893 -1.312216 -0.5853041 -0.1340906 0.7996494 2960429 male
-2.508307 0.6025087 -1.618548 0.2443148 -0.02630754 -0.9693392 10262673 male
-2.549867 -0.2543513 -1.36973 -0.7066057 -0.1257542 -0.6963437 1711394 male
-2.704122 0.6399278 -1.758366 -0.7322888 0.6593427 -0.1703539 16770008 male
-2.641804 0.6447697 -1.484511 -0.4915186 0.3373006 -0.8028935 7564651 male
-2.697248 0.01310115 -1.402203 -0.3843795 -0.1940243 -0.9025559 3948357 male
-2.547817 0.6280823 -1.368479 0.7282429 0.3054138 0.6135023 10262417 male
-2.515079 0.8622183 -1.419367 0.1648504 0.3242959 0.931481 3814706 male
-2.529902 0.645478 -1.609315 -0.3657883 0.7475573 -0.5543981 5591117 male
-2.563206 0.8593024 -1.428604 -0.4299449 0.2725123 0.8607466 4406329 male
-2.616413 0.8675671 -1.540362 -0.5571632 0.7547928 -0.3462037 13809581 male
-2.530432 -0.0196928 -1.323518 -0.04191455 -0.05832253 0.9974177 3158067 male
-2.51702 -0.1579994 -1.298927 0.02405322 0.216545 0.9759765 3487031 male
-2.563707 0.3921954 -1.483922 0.1347643 -0.3498598 -0.9270583 5722703 male
-2.50573 0.5590152 -1.376623 0.5786685 0.0584634 0.8134649 9209471 male
-2.463306 0.07525024 -1.410915 0.9803066 -0.1224996 -0.1548976 2236450 male
-2.704346 0.1793948 -1.260673 -0.5626068 -0.1197561 0.818005 3222578 male
-2.488716 0.7978141 -1.441317 0.5703837 -0.4608158 0.6799349 10195339 male
-2.651326 0.8253621 -1.547893 -0.9482149 0.3153333 0.03812635 16245718 male
-2.693183 0.1669862 -1.411801 -0.1472303 0.1125361 -0.9826796 3684929 male
-2.73096 0.2701579 -1.359522 -0.8384365 0.1615043 -0.5205201 5788752 male
-2.757992 -0.4425543 -1.319122 -0.5404471 -0.7919694 0.2840801 3092271 male
-2.720983 0.6739575 -1.569562 -0.9585209 0.2106767 -0.1919724 16772063 male
-2.575368 0.2085256 -1.283566 -0.8476281 -0.3451298 0.4030042 2764335 male
