# .PCD v0.7 - Point Cloud Data file format
VERSION 0.7
FIELDS x y z normal_x normal_y normal_z rgb label
SIZE 4 4 4 4 4 4 4 4
TYPE F F F F F F U U
COUNT 1 1 1 1 1 1 1 1
WIDTH 255
HEIGHT 1
VIEWPOINT 0 0 0 1 0 0 0
POINTS 255
DATA ascii
1.33963 0.1948785 -1.330036 0.6143097 0.6964322 0.3709524 12499662 male
1.3391 0.308394 -1.080387 -0.5879184 0.8088586 0.009982973 6450041 male
1.726251 0.3691186 -1.191848 0.5087651 0.6809977 0.5266879 526600 male
1.390447 0.2108495 -1.05046 0.4454417 -0.6759852 0.5870483 7764103 male
1.351881 0.200912 -1.289753 0.1553013 0.9850575 0.0744528 13025749 male
1.637612 0.2940035 -1.266433 0.5628304 0.08949213 -0.8217134 591113 male
1.358573 0.03452866 -1.386851 0.005643427 -0.8234645 -0.5673398 5789272 male
1.345365 0.004659361 -1.300408 -0.3131513 -0.949181 -0.03149205 12369615 male
1.304201 0.5566235 -1.530198 0.4803649 -0.2910838 -0.8273571 14792887 male
1.525578 0.2485193 -1.24809 -0.4607614 0.8685487 -0.1825434 132619 male
1.479313 0.3622094 -0.9068673 0.7130321 0.6587418 0.2400925 526600 male
1.319253 0.6383092 -1.53316 0.596406 0.2605628 -0.7592146 15190982 male
1.341087 0.3261726 -1.386143 0.6186376 0.3269384 0.714422 15509729 male
1.41797 0.1117113 -1.345115 0.3074584 0.6980035 -0.6467305 10066600 male
1.268872 0.07297713 -1.175618 -0.6969633 -0.4842924 0.5288697 4869725 male
1.395328 0.376508 -1.013808 0.009977728 -0.5531441 -0.8330258 526600 male
1.527856 0.1011175 -1.301887 0.6113825 -0.3240525 -0.7219428 4145479 male
1.179035 0.4332879 -1.291383 0.09314668 0.765211 0.6370054 13480629 male
1.633307 0.249323 -0.7794331 -0.6252887 0.7777601 0.06405583 526600 male
1.322371 0.3563087 -1.36783 0.8376092 0.3625855 0.4085861 16248783 male
1.349822 0.4885476 -1.455129 0.9867125 -0.04566988 0.1559254 16768477 male
1.400537 0.2358109 -1.151316 0.6887071 0.4842349 -0.5396286 3026230 male
1.812922 0.2210312 -0.9541147 -0.3746608 0.914799 0.1509043 526600 male
1.584676 0.2414253 -1.388122 0.9827203 -0.08219502 -0.1658456 12290442 male
1.718297 0.2378718 -1.10297 -0.9581808 -0.2653776 -0.1070717 526600 male
1.277267 0.1634332 -1.496784 -0.3540478 -0.6366382 -0.6850853 8354184 male
1.195379 0.4233667 -1.498086 -0.6156325 0.313342 -0.7230583 13816291 male
1.140439 0.4273551 -1.396478 -0.8585737 0.5025803 -0.1013125 9867939 male
1.755619 0.2605968 -1.078044 -0.5529606 0.7579097 0.346132 526600 male
1.296152 0.4879327 -1.163819 -0.3223203 -0.5478562 -0.7719865 5193796 male
1.264229 0.06214739 -1.352701 -0.5584638 -0.7302478 -0.393518 10196139 male
1.639633 0.232722 -0.763119 0.6018542 -0.7751025 0.1923218 526600 male
1.340236 0.4047133 -0.9671441 -0.8704462 -0.2637802 0.415624 526600 male
1.139548 0.3867032 -1.329288 -0.9017549 -0.426028 -0.07306361 8683404 male
1.389862 0.5989381 -1.432339 0.7590859 0.6191222 0.2011874 13084320 male
1.530089 0.3296031 -1.449464 0.7046303 0.498911 -0.5045632 13211015 male
1.383943 0.1778939 -1.223584 0.6286837 0.5015411 -0.5943175 7106683 male
1.169552 0.2833757 -1.175055 -0.1144156 -0.9780661 -0.1740566 15706013 male
1.620094 0.3480198 -1.207936 -0.6116009 0.1158228 0.7826426 526600 male
1.294047 0.2333225 -1.547743 -0.2753784 -0.5084443 -0.8158745 10130853 male
1.242456 0.2179954 -1.505001 -0.7579251 -0.4262532 -0.4938194 13617632 male
1.543923 0.2776576 -1.396528 -0.7411684 -0.03412381 -0.6704513 16370123 male
1.295282 0.528941 -1.512939 0.1820792 -0.6066435 -0.7738416 16439509 male
1.226803 0.2555895 -1.508402 -0.7959571 -0.3672768 -0.4812069 12958157 male
1.219144 0.6359423 -1.432229 -0.447725 0.3346012 0.8292071 9933206 male
1.640816 0.3228894 -1.240203 -0.5828847 -0.7385999 0.3386968 526600 male
1.470932 0.4480816 -1.388129 -0.1189479 0.7000926 0.704075 1051656 male
1.492385 0.301827 -1.456634 0.0362939 -0.9468018 -0.3197643 16769495 male
1.229905 0.310216 -1.532795 -0.8082231 -0.1412547 -0.5716838 12564939 male
1.384197 0.2504906 -1.508503 0.9129292 -0.181087 -0.3657429 4999500 male
1.212483 0.2282484 -1.470578 -0.5282069 -0.521933 -0.6697636 11577784 male
1.718688 0.358924 -1.175769 0.3909166 0.7011169 0.5963383 526600 male
1.25282 0.1643853 -1.181786 -0.9137211 0.332073 0.2341824 3552566 male
1.392323 0.01000249 -1.224556 -0.01092258 -0.6208696 0.7838377 8225169 male
1.188767 0.3503958 -1.195943 0.4961325 0.8267623 0.2651728 14527405 male
1.192525 0.648243 -1.462135 -0.7254993 0.515165 0.4563504 526600 male
1.457442 0.3552404 -0.9719473 0.6242199 -0.2445948 -0.7419723 526600 male
1.540554 0.3079613 -0.8200898 0.2803769 0.1848177 -0.9419295 526600 male
1.319423 0.453132 -1.55543 0.3551723 0.8411601 -0.4078018 6840936 male
1.510381 0.07043931 -1.302255 0.6898179 -0.4023045 -0.6019155 3752266 male
1.26226 0.1673987 -1.151795 -0.9197259 0.1987935 0.3385043 4802899 male
1.835019 0.2028053 -0.99782 -0.7196891 0.3612399 0.5929193 526600 male
1.653881 0.3459824 -1.259956 0.5206629 0.5125779 -0.6827693 6777717 male
1.377627 0.03634794 -1.385489 0.235466 -0.7804818 -0.5791408 6250087 male
1.327357 0.07094228 -1.138678 -0.05318889 -0.5774112 0.8147191 9410213 male
1.855826 0.1512645 -1.033826 -0.2426376 -0.7291326 0.6399161 526600 male
1.508452 0.3143285 -1.4177 -0.1543493 0.8562909 0.4928917 14195360 male
1.609294 0.2826538 -0.7425864 -0.5289506 0.6779029 0.5105477 526600 male
1.755783 0.2417349 -1.073604 -0.8172159 0.504003 0.2795338 526600 male
1.773092 0.2140392 -1.068998 -0.8191596 0.4653717 0.3352712 526600 male
1.217789 0.3577316 -1.249284 0.9445859 -0.2297124 -0.2344988 2566446 male
1.205154 0.3036818 -1.151787 -0.1463495 -0.1209437 -0.9818119 14594484 male
1.288656 0.4017559 -1.364838 0.5826493 0.6186351 0.5270774 14535293 male
1.244832 0.6672424 -1.542794 -0.1720382 0.6445398 -0.7449639 526600 male
1.634215 0.2928419 -0.761553 0.3182542 0.8929589 -0.3183373 526600 male
1.303276 0.0447359 -1.368335 -0.5140792 -0.7444826 -0.4259911 11116209 male
1.676185 0.3892001 -1.245625 0.3905689 0.8315423 0.39496 527368 male
1.214871 0.1796239 -1.282788 -0.7291615 0.6434149 0.233111 5262416 male
1.293546 0.4700004 -1.176251 0.6685219 -0.7285713 0.1492056 14674677 male
1.252552 0.4936176 -1.459262 -0.9896937 -0.02720227 0.1405927 16368565 male
1.363297 0.3657356 -0.9696999 -0.7114923 -0.6979833 0.08122781 526600 male
1.227242 0.07093256 -1.251548 -0.7960202 -0.5340326 0.2848878 5199972 male
1.162337 0.3484839 -1.181878 -0.572639 0.7451285 0.3418598 14459802 male
1.193282 0.4037492 -1.248364 0.2060984 0.8973931 0.3901398 14592677 male
1.392674 0.4240859 -0.9284121 -0.1496135 0.4428743 0.8840125 526600 male
1.533846 0.262055 -1.231799 -0.569914 0.8159134 0.09738213 5791079 male
1.188779 0.3464796 -1.28239 0.4923492 -0.7837238 -0.3786414 657673 male
1.357553 0.4385927 -0.9870847 -0.6271069 0.378877 0.6805799 789516 male
1.312733 0.679877 -1.501351 0.5518174 0.7516549 -0.3612649 13478563 male
1.195417 0.1134477 -1.294519 -0.9721633 -0.2327527 -0.02692142 6907505 male
1.257416 0.450854 -1.51395 -0.7570222 0.3367549 -0.5599228 14341352 male
1.151586 0.3952254 -1.263688 -0.8302718 0.3658113 0.4205125 14397868 male
1.591605 0.3187613 -1.233091 -0.4108543 0.9069563 0.09289271 921358 male
1.532777 0.531665 -1.364678 -0.4218258 -0.2235259 0.8786918 788492 male
1.227527 0.3392469 -1.325279 -0.4329602 0.06410632 0.8991305 4145477 male
1.722542 0.3430541 -1.159084 0.3853092 0.6841707 0.6192312 526600 male
1.366619 0.128022 -1.091974 0.1586598 -0.6810141 0.7148755 7633549 male
1.615119 0.3227535 -1.251235 -0.04184124 0.842257 -0.53745 7831440 male
1.316293 0.6690568 -1.447144 0.6806038 0.4751533 0.5576807 10520709 male
1.166625 0.3610052 -1.321838 -0.06067531 -0.90411 -0.4229699 11902620 male
1.541441 0.1213717 -1.179796 0.3478111 -0.5580717 0.7533814 2171945 male
1.352885 0.08264916 -1.432031 0.4001865 -0.6076783 -0.6859869 6315621 male
1.692149 0.4033946 -1.221693 0.1060014 0.6837089 0.7220151 526600 male
1.816141 0.1828053 -1.074942 0.1335046 -0.6278138 -0.7668288 526600 male
1.18341 0.4071371 -1.251949 -0.003193125 0.8986632 0.4386277 15116968 male
1.329161 0.2677836 -1.046282 -0.7720654 0.02360113 0.6351047 4277321 male
1.531312 0.3217231 -1.452183 0.7724254 0.1779775 -0.6096581 14527392 male
1.312095 0.4728451 -1.426141 0.3292664 0.1261254 0.9357755 15654106 male
1.743566 0.3022656 -1.162537 0.9910415 -0.1090155 -0.07715133 526600 male
1.253687 0.2802736 -1.545992 -0.625367 -0.3461396 -0.6993592 11776194 male
1.24404 0.5423851 -1.53113 -0.0655385 -0.7440712 -0.664878 13616328 male
1.182842 0.4300399 -1.287195 0.1524998 0.7947741 0.5874335 13086128 male
1.242674 0.5498409 -1.537794 -0.05823296 -0.6897686 -0.7216843 10590109 male
1.288664 0.5490046 -1.544255 0.5876401 -0.154105 -0.7943114 14384508 male
1.366085 0.4019262 -1.023869 -0.03102821 -0.6249803 -0.7800236 526600 male
1.395582 0.0928755 -1.201088 0.9952517 0.0531238 -0.08156079 526344 male
1.295547 0.2073707 -1.306162 0.1025828 0.6387159 0.7625738 9736095 male
1.161707 0.347091 -1.480897 -0.7443973 -0.09769503 -0.6605515 14276329 male
1.356713 0.1437689 -1.078466 -0.0173324 -0.670772 0.741461 11713489 male
1.416446 0.1265334 -1.300348 -0.4427962 0.5577882 -0.7019998 7962513 male
1.189888 0.5559079 -1.481848 -0.8039154 -0.5925323 0.05123964 9735828 male
1.384406 0.579276 -1.460299 0.883569 -0.02818471 -0.4674521 12558229 male
1.629939 0.3789167 -1.217524 -0.3762487 0.6464953 0.6636872 1908256 male
1.360708 0.2443706 -1.349237 0.7186504 0.3798595 0.5824503 10279828 male
1.852087 0.1746712 -0.986998 -0.3141972 -0.488911 0.8137851 526600 male
1.472436 0.3096829 -1.421257 -0.763299 -0.2709256 0.5864929 15201023 male
1.390278 0.1090522 -1.122928 0.6077443 -0.6046853 0.5147839 2828851 male
1.426559 0.409925 -0.920292 0.3357516 0.6150371 0.7134426 526600 male
1.341933 0.1906855 -1.520169 0.3303349 -0.5964292 -0.7315402 3947842 male
-2.594176 0.3868214 -1.492359 0.05579549 -0.2123583 -0.9755979 5985359 male
-2.582606 0.005673504 -1.415906 -0.927147 -0.1470442 -0.34464 2697513 male
-2.642253 0.02873733 -1.409074 0.6561003 -0.03982756 -0.7536223 2829615 male
-2.481392 0.005438896 -1.378617 0.9498498 -0.1351809 0.281978 1908259 male
-2.604789 0.4359512 -1.506382 -0.1474747 -0.2477357 -0.9575377 6380883 male
-2.652251 -0.0977581 -1.312678 0.5626215 0.2206635 0.7967215 2829102 male
-2.632743 0.2057402 -1.252974 0.06032413 -0.1716807 0.9833041 4474188 male
-2.703166 0.4015299 -1.41121 -0.9324785 -0.1063301 -0.3452218 6380119 male
-2.617449 0.8649948 -1.531598 -0.598716 0.7799008 -0.182466 16440016 male
-2.712464 0.0975359 -1.426229 -0.3772151 -0.05580663 -0.9244429 4278095 male
-2.499888 -0.3417952 -1.381722 0.7483211 -0.06177342 -0.6604543 2368811 male
-2.582598 0.910876 -1.481514 -0.6149022 0.745069 0.2583945 6575441 male
-2.71146 0.4831121 -1.339461 -0.8934581 -0.006014452 0.4491068 3685176 male
-2.608802 0.2616458 -1.472094 -0.01584998 -0.06085355 -0.9980209 8156273 male
-2.470762 0.2282359 -1.356034 0.9522082 0.09447818 0.2904716 11314587 male
-2.547093 -0.06917247 -1.340289 -0.4355302 -0.0372567 0.899403 2500398 male
-2.689232 0.03390377 -1.30177 -0.3555339 -0.2316281 0.9055079 4079174 male
-2.523919 0.6041564 -1.548908 -0.8829834 -0.4235765 -0.2022954 5064773 male
-2.476654 -0.4626782 -1.445274 0.05373053 -0.9924181 -0.1105411 526344 male
-2.486904 0.6259617 -1.587115 0.7242333 0.4156493 -0.5502019 6315864 male
-2.610653 0.7599934 -1.550978 -0.2608415 -0.3925069 -0.8819865 12496806 male
-2.575456 0.1312438 -1.469631 -0.601141 -0.1812682 -0.7783134 3026222 male
-2.667135 -0.4495805 -1.506853 0.1325252 -0.9899952 -0.04844312 789516 male
-2.669146 0.577944 -1.649407 0.2959297 -0.9440127 0.1458274 13679031 male
-2.689888 -0.2996202 -1.370509 0.1463286 -0.02552389 -0.9889069 2500142 male
-2.643996 0.6332631 -1.312229 0.06500208 0.3910466 0.9180727 7432551 male
-2.480946 0.6291943 -1.419535 0.7556644 0.3497488 0.5537574 9735812 male
-2.497502 0.5153459 -1.508059 0.3616717 -0.3778828 -0.85229 3420460 male
-2.629668 -0.00710142 -1.393189 0.7959503 -0.07996057 -0.600058 2303014 male
-2.521542 0.5640118 -1.587338 0.3257161 -0.8355229 -0.4425049 8091763 male
-2.502469 0.2756512 -1.306265 0.5595329 0.2105166 0.801627 9866375 male
-2.479088 0.6751757 -1.484392 0.7263049 0.6618301 -0.1856399 8156523 male
-2.473154 -0.2187103 -1.354592 0.9966537 -0.08169036 0.002902627 2302499 male
-2.580775 0.6237974 -1.58868 -0.2446841 0.9322744 -0.2664475 9276289 male
-2.613706 0.8150976 -1.588868 -0.0285148 0.2507043 -0.9676439 13745584 male
-2.747171 0.7031904 -1.422599 -0.9882433 -0.01186725 0.1524292 8025970 male
-2.531672 0.1925741 -1.483492 0.02597013 0.184021 -0.9825793 3027253 male
-2.599087 0.1896016 -1.354733 -0.9260987 -0.2553156 0.2777686 526600 male
-2.712786 -0.08655327 -1.383915 -0.9593958 -0.05073107 -0.277464 2632496 male
-2.649107 0.6507138 -1.321808 0.008502811 0.5124282 0.8586882 8419186 male
-2.597737 0.6612638 -1.338397 0.4558439 0.4631792 0.7600471 8354167 male
-2.712387 0.6044755 -1.703103 -0.9820005 0.08854975 -0.1668364 16771814 male
-2.593283 0.7709169 -1.448271 -0.3621154 -0.1932274 0.911886 3288362 male
-2.585008 0.3160254 -1.283162 0.3622191 0.4100661 0.8370444 9735300 male
-2.476659 0.8014613 -1.51126 0.768732 -0.4096155 -0.4911891 3814449 male
-2.708028 -0.1253021 -1.382666 -0.7647104 -0.1408027 -0.6288027 4408392 male
-2.65599 0.6836498 -1.496965 0.9956507 0.09210185 0.01404107 6709597 male
-2.740163 0.1033214 -1.323118 -0.8538001 -0.1450005 0.5000007 1908257 male
-2.635962 0.3181496 -1.26901 0.05566615 0.3817497 0.9225881 7367272 male
-2.716738 0.5479318 -1.370165 -0.9822622 0.09774328 0.1600237 3486253 male
-2.559198 0.3970641 -1.327325 0.3832443 0.1102874 0.9170392 9800581 male
-2.643814 -0.2553039 -1.337804 0.9620641 -0.2496442 -0.1100488 1841436 male
-2.461845 0.2145284 -1.418503 0.9892701 0.08463538 -0.119087 2699313 male
-2.730942 0.3093466 -1.342962 -0.9458286 0.3148063 0.07940757 3749944 male
-2.679608 0.5238295 -1.560965 -0.1101813 -0.5458667 0.8305961 12956335 male
-2.479804 0.7795433 -1.48015 0.7456511 -0.6586287 -0.1010584 5524040 male
-2.560336 -0.1385798 -1.351166 -0.9678712 0.05423483 0.2455281 1973534 male
-2.486147 -0.4474834 -1.478972 0.1277605 0.9875423 -0.09185669 3092015 male
-2.632579 0.7014157 -1.446097 -0.7658309 0.6106051 -0.2016549 4604734 male
-2.703475 0.208755 -1.274768 -0.6039152 0.03037183 0.7964698 2697772 male
-2.511844 0.2268258 -1.476218 0.1605365 0.1959766 -0.9673787 2105119 male
-2.708098 -0.4248914 -1.362434 0.9961056 -0.08740788 0.01157576 921102 male
-2.727991 -0.2036828 -1.340468 -0.9981514 -0.05926171 -0.0134961 1973536 male
-2.656682 0.2150421 -1.255087 -0.2055501 -0.0008092518 0.9786464 2764082 male
-2.549923 0.1541057 -1.324494 -0.1756641 -0.3226025 0.9300914 5724511 male
-2.767073 -0.4524752 -1.398122 -0.3511551 -0.8971863 0.2678562 1447190 male
-2.715164 0.7465003 -1.426076 -0.08640675 0.976545 0.1972155 9078140 male
-2.518014 -0.4180436 -1.420612 -0.6439804 0.5667749 -0.5138635 1974307 male
-2.719167 -0.343709 -1.359783 -0.94981 -0.02210913 -0.3120456 1644569 male
-2.722492 -0.4049078 -1.299933 0.1056209 0.2640384 0.9587117 2697262 male
-2.711253 0.5488169 -1.57418 -0.442027 0.7102776 0.5478303 16774890 male
-2.849049 0.5109268 -1.663085 -0.3547869 0.6319011 0.6890773 16772063 male
-2.480177 0.6225359 -1.568166 0.7134759 0.4216686 -0.5595963 9076602 male
-2.538706 0.926646 -1.469577 -0.07937694 0.9420686 0.3258926 5525067 male
-2.613129 0.6730682 -1.496433 -0.6572477 -0.07630201 -0.7498025 7367528 male
-2.688771 0.2342888 -1.26982 -0.5054725 0.1411522 0.8512192 7170661 male
-2.706808 -0.2196767 -1.298925 -0.6026301 -0.1330261 0.7868553 2499110 male
-2.501599 0.3236542 -1.458251 0.5220015 0.3478075 -0.7788097 4602421 male
-2.564049 0.5779707 -1.61316 0.1839331 -0.3272574 -0.926861 10525079 male
-2.53628 0.7149759 -1.473726 0.9014937 -0.06600313 0.4277301 16773086 male
-2.491992 -0.2838324 -1.381926 0.7145184 -0.1553548 -0.6821501 2367780 male
-2.47824 0.2494826 -1.332476 0.8853586 0.05218363 0.4619712 7959145 male
-2.759011 0.5434092 -1.64187 0.03125027 0.7645764 -0.6437752 15190715 male
-2.478544 0.5962375 -1.592978 0.743574 -0.1561246 -0.6501718 11314075 male
-2.483299 -0.2814848 -1.364336 0.9671335 -0.1603764 -0.1973132 2499624 male
-2.689101 0.1022158 -1.430426 -0.03443488 -0.03573503 -0.998768 4013896 male
-2.485379 -0.1383005 -1.331689 0.8208147 0.2715194 0.5025343 2170403 male
-2.552328 -0.07847182 -1.419118 -0.6990939 -0.3222568 -0.6382935 2369322 male
-2.522225 0.9271975 -1.514434 0.2753248 0.9155393 -0.2932305 7168860 male
-2.46595 0.3034654 -1.403872 0.9901423 0.1227935 -0.06738102 5590348 male
-2.592204 0.711342 -1.377341 0.4605437 0.7439191 0.4842355 10722712 male
-2.552433 0.5998961 -1.616891 0.02071241 0.163707 -0.9862917 9538178 male
-2.619533 0.02253818 -1.377046 0.9135687 -0.08062717 -0.3986126 1974049 male
-2.677165 0.5727439 -1.833759 -0.3181555 0.9219677 -0.2208 16309711 male
-2.713448 0.3417608 -1.336339 -0.8132645 0.5530625 0.1808949 2697513 male
-2.639551 -0.2098945 -1.358139 0.7562425 -0.1288383 -0.6414814 2039842 male
-2.485786 -0.03578654 -1.39446 0.9798164 -0.1433472 -0.1393253 2302501 male
-2.669727 -0.1551712 -1.287802 0.1540497 0.1743537 0.9725584 2698289 male
-2.50833 0.8604448 -1.552994 0.5081167 0.07321389 -0.858171 5459015 male
-2.49941 -0.1393558 -1.317353 0.4779996 0.3204276 0.8178281 2303014 male
-2.64952 0.01711633 -1.304379 0.3708574 -0.2101296 0.9046052 2697259 male
-2.521655 0.6562737 -1.533466 -0.1450249 0.9893835 -0.00937736 5722703 male
-2.631374 -0.1040397 -1.341635 0.9373365 -0.08849586 0.3370003 1777185 male
-2.73023 -0.3848011 -1.324369 -0.5937602 -0.1193802 0.795737 2960429 male
-2.485716 0.6046737 -1.604282 0.5433644 -0.1038696 -0.8330466 10262416 male
-2.555187 -0.2722301 -1.361037 -0.9444492 -0.1875551 -0.2698873 1579035 male
-2.656623 0.6033669 -1.591148 0.7479612 -0.6272201 0.2171383 15717326 male
-2.596339 0.6551536 -1.508364 -0.4644518 0.3676774 -0.8056663 7103067 male
-2.648141 -0.2388229 -1.357848 0.7319469 -0.206485 -0.6493212 2434343 male
-2.56296 0.5848106 -1.333451 0.6981809 0.0695951 0.7125309 7038307 male
-2.512399 0.8652803 -1.400906 0.1193337 0.3014989 0.9459694 3814706 male
-2.528468 0.6540243 -1.588892 -0.2256604 0.8871155 -0.4026206 6051917 male
-2.560019 0.8626692 -1.412586 -0.4714982 0.2518202 0.8451487 4406329 male
-2.621183 0.8635781 -1.494508 -0.7704276 0.5829488 0.2580932 16243662 male
-2.484694 0.009397178 -1.368088 0.9074617 -0.116154 0.4037597 2959661 male
-2.476734 -0.1618316 -1.340605 0.952064 0.1643761 0.2579826 2303016 male
-2.539387 0.4080259 -1.48955 0.3752424 -0.3139668 -0.8721343 4933187 male
-2.532874 0.6369907 -1.380129 0.5948377 0.3611899 0.7181297 5328969 male
-2.466185 0.05296206 -1.420853 0.9779022 -0.174121 -0.1157129 2303275 male
-2.705164 0.2244354 -1.278714 -0.6242045 0.1014767 0.7746428 2632232 male
-2.485005 0.8013589 -1.423117 0.5365962 -0.4777682 0.695559 10195339 male
-2.636487 0.8434168 -1.534693 -0.862688 0.505466 -0.01654392 15849930 male
-2.750623 0.1366941 -1.375367 -0.9902621 0.01142223 -0.1387477 2697257 male
-2.686223 0.258471 -1.418046 -0.6185915 0.04176012 -0.7846022 7695208 male
-2.758376 -0.4431381 -1.330626 -0.5563308 -0.781406 0.2826674 3092271 male
-2.714346 0.6525843 -1.578377 -0.9342044 0.2982737 -0.195692 16769753 male
