# .PCD v0.7 - Point Cloud Data file format
VERSION 0.7
FIELDS x y z normal_x normal_y normal_z rgb label
SIZE 4 4 4 4 4 4 4 4
TYPE F F F F F F U U
COUNT 1 1 1 1 1 1 1 1
WIDTH 247
HEIGHT 1
VIEWPOINT 0 0 0 1 0 0 0
POINTS 247
DATA ascii
1.325435 0.1869712 -1.223211 0.3936046 0.4251816 0.8150436 9144216 male
1.526489 0.2063798 -1.110204 0.06799863 0.8695109 -0.4892105 3356994 male
1.961139 0.1865935 -1.357931 0.6239442 0.1720012 -0.7623052 526600 male
1.496559 0.03736863 -1.146842 0.4566971 -0.8544602 0.2476397 12238802 male
1.326823 0.195016 -1.225922 0.4311046 0.3800186 0.8183732 9999265 male
1.739499 0.2945159 -1.425401 0.5291108 0.7821685 0.32902 526600 male
1.403418 -0.0155052 -1.333173 -0.1728737 -0.9762769 -0.1303764 5330273 male
1.283291 0.4477296 -1.285913 0.6446285 0.6089327 0.4622286 14999541 male
1.332503 0.6098719 -1.338684 0.903747 0.3787713 -0.1994331 14921897 male
1.561836 0.185366 -1.34922 -0.259425 0.9506831 0.1700008 6580088 male
1.70579 0.1936396 -1.004396 0.1620335 -0.8596475 0.4845116 526600 male
1.3017 0.7005814 -1.322588 0.7085252 0.7055007 -0.01614767 15922162 male
1.313298 0.2470256 -1.462005 0.375793 -0.2566723 -0.8904487 4143935 male
1.424267 0.1531116 -1.237773 0.01195432 0.8341255 0.5514452 7172742 male
1.267821 0.06269662 -1.233203 -0.7599963 -0.5873737 0.2782047 9144212 male
1.564676 0.1493481 -1.047497 0.4324892 -0.8988981 -0.07025285 6186351 male
1.587881 0.1405134 -1.416247 0.08921394 0.1352828 -0.9867823 4146507 male
1.148726 0.4687589 -1.21393 -0.4439955 0.8434755 0.3023525 7039347 male
1.808154 0.1814887 -1.045051 -0.3171311 0.8318641 -0.4554448 526600 male
1.209707 0.4614206 -1.236736 0.5623055 0.7801627 0.2741506 10787498 male
1.299726 0.494352 -1.347507 0.9623403 -0.271799 -0.005141705 16574948 male
1.436846 0.1737678 -1.139674 -0.3849586 0.9225365 -0.02707933 8357784 male
2.085364 0.2406517 -1.222262 0.6995486 -0.7130576 0.04669738 526346 male
1.231305 0.2686941 -1.641226 0.5648399 0.8162674 -0.121093 15119797 male
1.911033 0.1661103 -1.346077 0.3131905 -0.6863174 -0.6564146 526600 male
1.19289 0.4095828 -1.463796 -0.799395 0.1757305 -0.5745316 10789042 male
1.162165 0.4146971 -1.367147 -0.7549282 0.1927095 -0.6268544 15196402 male
1.300484 0.3495547 -1.231778 0.613299 -0.02319146 0.7895103 8156804 male
1.581622 0.1949107 -1.360713 -0.2231296 0.9743267 -0.03001256 8292245 male
1.180802 0.06930946 -1.149415 0.5175426 -0.7875077 -0.3346362 7034456 male
1.325563 0.007118871 -1.253431 -0.476598 -0.8790504 -0.01116906 7963026 male
1.17352 0.489004 -1.30875 -0.7387819 0.6734913 0.02471676 9013649 male
1.644708 0.20551 -0.9762655 -0.07812744 -0.931728 0.3546534 526600 male
1.122622 0.3515674 -1.183674 -0.03146932 0.2882993 0.9570231 16633289 male
1.336699 0.5460817 -1.297459 0.5427386 -0.2858607 0.7897584 11506572 male
1.261726 0.4516657 -1.536962 0.4481701 0.294043 -0.8442051 12298665 male
1.422187 0.1380885 -1.234815 -0.05040024 0.91303 -0.4047667 4672087 male
1.165294 0.3949829 -1.243699 -0.5435801 -0.8361528 0.07327491 657674 male
1.679037 0.1702152 -1.420978 0.03318311 -0.8814617 -0.4710881 526344 male
1.19095 0.417154 -1.45847 -0.8297167 0.2526388 -0.4977387 11117490 male
1.179865 0.4404249 -1.381558 -0.9252333 0.2945617 -0.2391165 15001077 male
1.190794 0.3040397 -1.642994 0.6224115 0.7507586 0.2212811 16705764 male
1.216473 0.6066317 -1.401009 -0.2184828 -0.2600445 -0.9405541 10721690 male
1.313846 0.0463735 -1.366583 -0.6978222 -0.617759 -0.3625163 10261924 male
1.198582 0.6414682 -1.267629 -0.4341427 -0.08421738 0.8968989 12431281 male
1.693075 0.2001598 -1.436652 -0.2157622 -0.8763638 -0.4306196 526600 male
1.247853 0.400338 -1.574581 0.6513075 0.4483704 -0.6121785 16037554 male
1.215387 0.3972453 -1.498018 -0.1758975 -0.7193435 0.6720157 591881 male
1.283398 0.07407107 -1.348154 -0.7916278 -0.5224782 -0.3167682 11381438 male
1.339082 0.3576403 -1.445382 0.6659665 -0.1702642 -0.7262911 11840949 male
1.302553 0.02620823 -1.234016 -0.6329267 -0.7301762 0.2573839 8028302 male
1.996428 0.1920246 -1.359597 0.4316878 0.7223541 -0.5402316 526600 male
1.359711 0.1025612 -1.141265 -0.5900674 0.4463367 0.6727585 5526364 male
1.367801 0.2497769 -1.288417 0.8751092 0.3655734 0.3170805 12499919 male
1.111917 0.300607 -1.245819 0.6336062 -0.3634188 -0.6829861 1053712 male
1.189256 0.5762071 -1.305917 -0.5781397 -0.6396678 0.5065369 11971502 male
1.546455 0.1172411 -1.05676 0.159132 -0.8441315 0.5119756 8159884 male
1.939091 0.1782078 -1.083758 0.5165896 0.1594103 -0.8412631 526600 male
1.269105 0.4843996 -1.433989 0.4511535 0.8905928 -0.0574906 10196383 male
1.444276 0.04631623 -1.405589 0.05787835 -0.243028 -0.968291 4869714 male
1.368263 0.05600052 -1.139561 -0.4568469 -0.3180395 0.8307476 3092536 male
2.052197 0.1916774 -1.332224 -0.2496114 0.9609311 0.1196063 526600 male
1.781678 0.2676136 -1.43946 0.6458098 0.5361063 -0.5436172 526600 male
1.38025 0.02371874 -1.39005 -0.1260522 -0.6233616 -0.7717067 7698824 male
1.491309 0.02767614 -1.211678 0.7732215 -0.5882983 -0.2367141 6185835 male
2.089805 0.1148463 -1.361612 -0.01586618 -0.8747672 -0.4842834 526600 male
1.220909 0.4748218 -1.503832 -0.8233286 0.4326874 -0.3673033 6446443 male
1.867101 0.1383058 -1.050672 -0.3732416 -0.4547739 -0.8086232 1052688 male
1.909232 0.151962 -1.338416 -0.2730353 -0.9615386 -0.02991952 526600 male
2.013098 0.1136504 -1.357568 -0.2282206 -0.6676096 -0.7086697 526600 male
1.137883 0.3282286 -1.239195 0.6626328 -0.4698791 -0.5832078 9604756 male
1.122926 0.100964 -1.168209 0.2824637 -0.5658796 -0.7745932 14205122 male
1.144199 0.4579911 -1.277041 -0.7242531 0.6883476 -0.04043576 8553355 male
1.279308 0.7156803 -1.314153 0.3968038 0.9097221 0.1222801 526600 male
1.342239 0.4237902 -1.41574 0.8485112 0.5212207 0.09141988 15853048 male
1.407916 -0.008305794 -1.358604 -0.1300233 -0.8664819 -0.4819784 3290170 male
1.699087 0.2199444 -1.415876 -0.7132986 -0.6830997 0.1567802 526600 male
1.350113 0.162649 -1.214259 0.177118 0.822953 0.5397938 6841458 male
1.131307 0.4131204 -1.262984 -0.6552241 0.003070973 -0.7554283 8814990 male
1.256002 0.7125004 -1.288052 0.09485273 0.8261571 0.5553984 2960173 male
1.680595 0.2664276 -0.9783113 0.7131803 0.6483372 0.2665198 526600 male
1.253789 0.08250497 -1.276877 -0.8578427 -0.4701472 -0.2075268 11446971 male
1.023277 0.2147519 -1.221527 -0.8966857 -0.4321979 0.09570697 15184047 male
1.117591 0.4343251 -1.225141 -0.920458 0.3395181 0.1936092 6117983 male
1.672711 0.270199 -0.9673263 0.7081733 0.6320792 0.3145893 526600 male
1.568813 0.1756083 -1.324898 -0.172905 0.8022602 0.5713864 6119276 male
1.568836 0.2609136 -0.9831551 -0.7891809 -0.1791649 -0.5874465 526600 male
1.591401 0.2870057 -0.97763 0.5218639 0.8084581 -0.2721276 1184530 male
1.312722 0.683838 -1.320688 0.8414394 0.540111 -0.01611474 7758949 male
1.297034 0.0548407 -1.202443 -0.515321 -0.513737 0.6859436 7040892 male
1.209369 0.4909251 -1.419515 -0.6838067 0.6850342 -0.25127 10130338 male
1.142073 0.410872 -1.192745 -0.2283571 0.1327663 0.9644823 12954799 male
1.771961 0.2620374 -1.350639 -0.01453909 0.6945843 0.7192644 526600 male
1.362643 0.1400529 -1.706561 -0.4390953 -0.6783848 -0.589058 14072506 male
1.45026 -0.0131342 -1.353916 0.1236107 -0.8734638 -0.4709368 10067890 male
1.90289 0.2129547 -1.3454 0.2614671 0.9567955 0.1271897 526600 male
1.473994 0.06881184 -1.089483 -0.05026239 -0.6173056 0.7851163 5132890 male
1.783658 0.2542475 -1.445743 0.590242 0.2081138 -0.7799377 526600 male
1.256535 0.6613414 -1.257079 0.08310771 0.1511048 0.9850179 11906994 male
1.570196 0.2402597 -0.9680736 -0.7603561 -0.6249579 -0.1768789 526600 male
1.526994 0.03776472 -1.263943 0.3427866 -0.2870263 0.8944905 2632238 male
1.273912 0.4072158 -1.226443 0.6197372 0.4883454 0.6143651 12300997 male
1.81316 0.253077 -1.416029 0.7086201 0.5633882 -0.4247956 526600 male
1.973354 0.1533196 -1.356458 0.3205107 -0.6216336 -0.7147338 526600 male
1.134371 0.4418568 -1.198982 -0.7094462 0.2229178 0.6685759 7697278 male
1.625449 0.293031 -0.9225697 0.7937897 0.4923381 0.3570728 526600 male
1.191219 0.3009743 -1.663289 0.6371169 0.6140481 -0.4658614 12623255 male
1.307517 0.4444144 -1.338477 0.7665142 0.5326837 0.3587533 14209772 male
1.963746 0.161845 -1.356029 0.3928196 -0.5177887 -0.7599919 526600 male
1.171595 0.3198744 -1.393998 -0.9309933 -0.237568 -0.2771515 11578813 male
1.203444 0.684675 -1.393892 -0.2591608 0.4696513 -0.8439569 4802633 male
1.135446 0.4603857 -1.2016 -0.7876818 0.3718527 0.4912056 6906737 male
1.227172 0.7080054 -1.373975 0.005305618 0.7976027 -0.6031598 5262410 male
1.324819 0.6229337 -1.345492 0.948451 0.2393498 -0.2077311 14529713 male
1.571275 0.1578381 -1.060581 0.6302277 -0.6639218 -0.4025181 8487825 male
1.600811 0.2542513 -0.9120122 0.04329091 -0.5670441 0.8225491 526600 male
1.256778 0.1641831 -1.207319 -0.2573515 -0.06602782 0.9640594 7302262 male
1.160032 0.3536067 -1.3741 -0.8319837 -0.05055558 -0.5524918 12235204 male
1.460075 0.02685935 -1.135333 0.1804837 -0.7875376 0.5892454 9672867 male
1.456596 0.02964365 -1.397693 0.09415355 -0.4406686 -0.8927185 4804439 male
1.163691 0.6750659 -1.301522 -0.8322634 0.3036944 0.4637968 526344 male
1.33828 0.5921195 -1.34072 0.9034076 0.2829578 -0.322164 13805729 male
1.54153 0.1477225 -1.300097 -0.1235042 0.7432274 0.6575407 3816771 male
1.413192 0.1083435 -1.391364 0.08509617 0.7355459 -0.6721092 11513010 male
-2.47911 0.1312405 -1.399018 0.956284 -0.2077319 0.2058362 4340793 male
-2.516539 -0.08159036 -1.440098 -0.121631 0.4876234 -0.86454 4342856 male
-2.699003 -0.2918005 -1.542096 0.6772828 -0.3971192 -0.6193421 2106151 male
-2.536437 -0.1090794 -1.271465 -0.02505581 -0.7591019 0.6504896 4607058 male
-2.475686 0.1284903 -1.420884 0.9476952 -0.2669349 0.1749851 4998462 male
-2.709306 -0.1520061 -1.602514 0.6837134 -0.42935 -0.5900805 2368292 male
-2.73537 0.04906591 -1.235558 -0.8890966 0.2391428 0.3902795 8090995 male
-2.482046 0.09798626 -1.570089 0.5693851 -0.7710429 -0.2851201 7895157 male
-2.584974 0.009942459 -1.799035 -0.7807049 -0.6144482 0.1138122 14206391 male
-2.673028 -0.142167 -1.525784 0.9165818 -0.1308561 -0.3778289 2302499 male
-2.509323 -0.305073 -1.488808 -0.9368725 -0.1958153 -0.2897007 1841948 male
-2.546586 0.0008957284 -1.868669 -0.3705595 -0.6531566 -0.6603577 12760235 male
-2.697163 0.1876582 -1.377883 -0.8829633 0.4406135 0.1619747 6576467 male
-2.568181 0.07719057 -1.372038 0.316251 -0.8962157 -0.3110994 7893616 male
-2.548186 0.1275792 -1.209983 0.2793711 0.554621 0.7838032 7761257 male
-2.509039 -0.1999928 -1.488822 -0.8929341 0.2213052 0.392037 2237218 male
-2.758375 -0.1098033 -1.399237 -0.99511 -0.09864306 0.005103707 1908771 male
-2.415846 0.2406964 -1.650007 0.7407736 0.5325872 -0.4093967 11247770 male
-2.540437 -0.4688072 -1.487743 -0.1016947 -0.9490907 -0.2981361 1183764 male
-2.441065 0.146052 -1.631201 0.3869213 -0.830208 -0.401306 7104356 male
-2.529144 0.04426689 -1.690266 0.6025491 -0.2972546 0.740658 12035479 male
-2.594651 -0.05193048 -1.32943 -0.893919 0.04505951 -0.4459583 2105378 male
-2.72907 -0.4337767 -1.547108 0.03246926 0.9891108 -0.1435471 2961461 male
-2.632662 -0.3501763 -1.683424 0.9591483 0.1364266 -0.2478356 16768467 male
-2.761295 -0.2777213 -1.550937 -0.8561832 -0.4163442 -0.3059544 2105380 male
-2.688381 0.1567039 -1.629924 -0.5112981 0.674358 -0.5327435 9932935 male
-2.589214 0.2465711 -1.578607 -0.4723777 0.8562135 -0.2091838 8813950 male
-2.509649 0.2619249 -1.558554 0.1876017 0.961022 0.2030821 7103587 male
-2.681031 -0.2163792 -1.564435 0.9712361 -0.1214104 -0.2048418 1974306 male
-2.433884 0.08692045 -1.341805 -0.538283 -0.04406559 0.8416116 5984336 male
-2.541164 0.05440212 -1.18239 0.3956791 0.1480235 0.9063815 3355703 male
-2.594705 0.04382291 -1.61381 0.524042 -0.7844845 -0.3316083 8025201 male
-2.425825 -0.1962664 -1.487001 0.8755704 0.1226429 0.4672639 2367780 male
-2.367923 0.2184418 -1.550048 0.8722473 -0.08538777 -0.4815533 16770260 male
-2.542089 0.02504537 -1.689091 0.130402 -0.1502792 0.980006 11510934 male
-2.716682 0.0004811519 -1.642764 -0.952389 0.001504164 -0.3048823 8420983 male
-2.475571 0.01450772 -1.322735 0.7944674 0.4743921 -0.3791752 3487806 male
-2.411769 0.2590688 -1.549934 0.1219686 0.9646798 0.2334878 4932158 male
-2.763231 -0.1368139 -1.470652 -0.9336688 -0.001489089 0.3581351 2236706 male
-2.70264 0.151095 -1.621248 -0.5969178 0.6143304 -0.5160306 10459794 male
-2.634865 0.198617 -1.59681 -0.4722452 0.8002228 -0.3696323 9735820 male
-2.684336 -0.3192698 -1.688305 -0.8063629 -0.1416823 -0.5741998 16773095 male
-2.574579 0.03677726 -1.872373 -0.7021487 -0.2999986 -0.6457462 3222825 male
-2.631423 0.09723312 -1.200324 -0.146791 0.4188832 0.8960969 9404798 male
-2.455371 0.08489569 -1.820715 0.9879974 0.1411737 0.06269974 4868418 male
-2.714895 -0.07562063 -1.448628 -0.2235422 0.5331137 -0.8159773 4079942 male
-2.635235 -0.06018237 -1.666643 0.6683372 -0.2807906 -0.6888268 7827822 male
-2.693665 0.002314103 -1.581805 0.04208653 -0.7659344 0.6415398 723211 male
-2.654711 0.1217044 -1.218934 -0.1483376 0.6204099 0.7701219 10786958 male
-2.731011 0.09371136 -1.494673 -0.907185 -0.3693287 0.201524 8156529 male
-2.607589 0.1592605 -1.243065 -0.169054 0.783559 0.5978764 10392721 male
-2.696101 -0.3376208 -1.485887 0.961915 0.04505803 -0.2696099 1579549 male
-2.506189 0.05910501 -1.282675 0.4760887 0.5266518 -0.7042567 8618620 male
-2.745893 0.07880504 -1.293347 -0.9886371 0.1488082 -0.02128327 3223593 male
-2.456115 0.2261843 -1.574243 -0.8630889 -0.1759539 0.4734111 5721672 male
-2.497492 0.1299579 -1.7665 0.578719 0.6326513 0.514623 7432551 male
-2.480661 -0.1434245 -1.45558 0.09509927 -0.204845 0.9741638 2500654 male
-2.529438 0.1408862 -1.682684 0.8606921 0.2247419 -0.4568375 4275000 male
-2.617404 0.07365563 -1.681449 -0.6905642 -0.6997233 -0.1830531 11773081 male
-2.710982 -0.08448315 -1.23223 -0.4606431 -0.7610386 0.4567584 3158835 male
-2.4689 -0.01278456 -1.246076 0.9507632 -0.0497469 0.3059002 2829359 male
-2.69487 -0.3877284 -1.452811 0.9466237 0.05408615 -0.317771 2236708 male
-2.782299 -0.1612263 -1.579422 -0.993634 0.1112453 0.01777738 1842980 male
-2.739549 0.0749523 -1.259227 -0.9421419 0.1793831 0.2831798 5394250 male
-2.562816 -0.00489282 -1.175196 0.04169783 -0.4965677 0.8669959 3421492 male
-2.753535 -0.4110078 -1.403408 -0.5364453 -0.6711043 0.5117087 789516 male
-2.638485 -0.01101842 -1.671236 0.6178199 -0.1331893 -0.7749577 7698034 male
-2.550398 -0.4597226 -1.421507 -0.2182471 -0.959021 -0.1806848 986895 male
-2.737091 -0.3315062 -1.471049 -0.8913345 -0.04504908 0.4511027 1776155 male
-2.711434 -0.3579856 -1.415023 -0.5491355 0.3537019 0.7571958 3420980 male
-2.340691 0.2293776 -1.499532 0.3432878 -0.6970547 -0.6294985 15717318 male
-2.379686 0.1715776 -1.385508 -0.8467589 0.4229975 -0.322603 16772065 male
-2.452605 0.1378966 -1.617896 0.3370949 -0.8552571 -0.3935763 4342073 male
-2.532281 0.03756992 -1.893754 -0.1258631 -0.3201101 -0.9389827 4932930 male
-2.571448 0.04083224 -1.519031 0.7097759 -0.6931491 0.1255494 8814201 male
-2.718416 0.1481489 -1.356546 -0.9955665 -0.09249397 -0.01710343 3289393 male
-2.72504 -0.1385828 -1.54751 0.2981134 0.5071649 0.8086485 3026222 male
-2.483044 0.07871434 -1.294541 0.8047879 0.1710759 -0.5683746 5328201 male
-2.480013 0.09961376 -1.364179 -0.5770859 -0.4156994 0.7029694 4929593 male
-2.492916 0.02144039 -1.878106 0.5102168 -0.4483706 -0.733923 6708568 male
-2.431093 -0.2619167 -1.515514 0.9213769 -0.3005843 -0.246402 2434085 male
-2.583228 0.1854349 -1.272678 -0.1004853 0.8662089 0.4894742 10064523 male
-2.36219 0.2582188 -1.502109 0.5666322 0.8235369 -0.02674186 16504786 male
-2.413925 0.1959367 -1.619622 0.6224722 -0.7792672 -0.07260233 7236457 male
-2.428509 -0.2598054 -1.498932 0.9736367 -0.224476 0.04052484 2105120 male
-2.674402 -0.1524441 -1.53623 0.9545569 -0.2200316 -0.2010158 1775899 male
-2.475647 0.2421302 -1.578485 0.3210656 0.2652632 0.9091493 591369 male
-2.512412 -0.1949435 -1.511932 -0.9828354 0.1534369 -0.1024302 1841436 male
-2.55953 -0.004537253 -1.850741 -0.56002 -0.7124704 -0.4228047 7431009 male
-2.528972 0.06730267 -1.189252 0.5645397 0.2465655 0.7877188 8748921 male
-2.632797 0.1239868 -1.698983 -0.1680428 0.3965415 -0.9025058 4998724 male
-2.395013 0.2089149 -1.592744 0.7776176 -0.4619422 -0.4265216 7366751 male
-2.679741 -0.1393031 -1.538883 0.8787184 -0.1567565 -0.4508676 2302505 male
-2.634701 -0.4837449 -1.652706 0.8065598 0.1050338 -0.5817471 16771038 male
-2.742653 0.05008095 -1.250631 -0.948428 0.1722733 0.2660949 4998980 male
-2.694424 -0.3515972 -1.475228 0.955412 0.1828213 -0.2318721 1579032 male
-2.499345 -0.06276491 -1.228181 0.6113621 -0.5655547 0.55352 1710627 male
-2.783035 -0.1766586 -1.581219 -0.9971128 0.02333126 -0.07226455 2105895 male
-2.464529 0.04645665 -1.859088 0.8497574 -0.2755405 -0.449433 3749169 male
-2.474581 0.2496561 -1.599166 -0.008841574 0.4060508 0.913808 921102 male
-2.657198 -0.129502 -1.324394 0.628094 -0.736397 0.251431 2631464 male
-2.508659 0.21885 -1.65701 0.1015061 0.6256251 -0.7734921 10129801 male
-2.750314 -0.2391176 -1.596152 -0.2407562 -0.5203897 -0.819287 2566444 male
-2.739591 -0.3638037 -1.460207 -0.998373 0.0126408 0.05560476 2697257 male
-2.394849 0.2192816 -1.602502 0.8982674 -0.2255992 -0.3771217 10261388 male
-2.440009 -0.1926735 -1.559355 0.5833365 -0.2041738 -0.78615 2830132 male
-2.638496 -0.2131747 -1.629885 0.69343 -0.006992086 0.7204902 15717326 male
-2.648794 0.03260421 -1.467682 -0.2539636 -0.9667557 -0.02976381 5722700 male
-2.711325 -0.2841519 -1.554448 0.4740007 -0.4391723 -0.7631849 2499881 male
-2.659458 0.200035 -1.325167 -0.3682276 0.6893356 0.623879 6511705 male
-2.561594 0.1469295 -1.824184 -0.4712451 0.8748259 -0.1122842 4932154 male
-2.410968 0.2338384 -1.642188 0.8744653 0.2925675 -0.3869303 10590607 male
-2.58083 0.1131914 -1.858399 -0.7866564 0.4545564 -0.4177922 6511192 male
-2.589128 0.01574157 -1.806368 -0.8930425 -0.4314307 -0.1278394 14206391 male
-2.501628 -0.1473946 -1.446747 -0.4108536 -0.3796912 0.8288752 2500654 male
-2.442803 -0.1407554 -1.47727 0.9350922 0.003837465 0.3543843 2235938 male
-2.498945 0.22188 -1.45681 0.6094815 0.730626 0.3077628 4999238 male
-2.636134 0.2087002 -1.57439 -0.5251932 0.7987214 -0.2936261 7630442 male
-2.51975 -0.06841645 -1.222893 0.362475 -0.7139545 0.5990669 1645858 male
-2.707486 -0.07359832 -1.221508 -0.4373779 -0.7674205 0.4687925 3948356 male
-2.476021 0.1196182 -1.863808 0.7069561 0.5527139 -0.4412715 7037274 male
-2.586857 0.007486133 -1.752958 -0.8352029 -0.5373031 0.1172249 16771294 male
-2.648309 -0.0302828 -1.361508 0.7359136 0.4211621 -0.5301452 3224632 male
