# .PCD v0.7 - Point Cloud Data file format
VERSION 0.7
FIELDS x y z normal_x normal_y normal_z rgb label
SIZE 4 4 4 4 4 4 4 4
TYPE F F F F F F U U
COUNT 1 1 1 1 1 1 1 1
WIDTH 254
HEIGHT 1
VIEWPOINT 0 0 0 1 0 0 0
POINTS 254
DATA ascii
1.35156 0.1915498 -1.34497 0.6430289 0.6085892 0.4649011 12301516 male
1.340871 0.3074794 -1.081012 -0.5898973 0.8073148 0.01624754 6450041 male
1.727551 0.3690524 -1.196769 0.513195 0.6816461 0.521526 526600 male
1.392643 0.2099792 -1.051717 0.4510072 -0.6765651 0.58211 7764103 male
1.34286 0.203737 -1.302138 0.2107229 0.9620559 0.1733326 13354457 male
1.638231 0.2938438 -1.270422 0.5542486 0.09019424 -0.8274499 591113 male
1.358692 0.03455904 -1.38836 0.002065316 -0.8217883 -0.5697891 5789272 male
1.321189 0.01618679 -1.305569 -0.429762 -0.8999265 -0.07373573 7370118 male
1.31605 0.5756882 -1.530172 0.4239485 -0.3305213 -0.843222 11309972 male
1.526445 0.2482356 -1.250923 -0.4635408 0.8680428 -0.1778526 132619 male
1.458465 0.3925606 -0.9466781 0.7730157 0.6273349 0.09432775 526600 male
1.271649 0.6939241 -1.495689 0.005804798 0.9978938 -0.06460958 526600 male
1.341276 0.326148 -1.38649 0.6217684 0.3254755 0.7123691 15509729 male
1.416606 0.1021176 -1.331811 0.07730588 0.622752 -0.778591 7107194 male
1.265432 0.07063305 -1.185297 -0.7093992 -0.4617625 0.5324736 3421500 male
1.397372 0.3755301 -1.01461 0.006082594 -0.5509311 -0.8345286 526600 male
1.528336 0.1008484 -1.304706 0.6044596 -0.3233047 -0.7280815 4145479 male
1.179671 0.432865 -1.290775 0.09470701 0.7649549 0.6370829 13480629 male
1.649898 0.2377542 -0.8096077 -0.6065112 0.7451493 -0.2773027 526600 male
1.37796 0.2502444 -1.372447 0.7972239 0.3445673 0.4956889 14873566 male
1.349901 0.4892374 -1.455284 0.9875808 -0.04054591 0.1517897 16768477 male
1.402024 0.2352637 -1.152547 0.6839563 0.4875755 -0.5426544 3026230 male
1.816782 0.2211357 -0.9600676 -0.3749561 0.9139757 0.1551014 526600 male
1.586452 0.240572 -1.384319 0.9903463 -0.1352749 0.03024855 13212827 male
1.737869 0.2330006 -1.093263 -0.8730934 0.3128876 0.3739106 526600 male
1.27678 0.1637374 -1.497295 -0.3580683 -0.6342462 -0.6852144 8354184 male
1.192895 0.4202098 -1.497931 -0.6287528 0.2951226 -0.7194251 13420763 male
1.140614 0.4272149 -1.39587 -0.8598431 0.5016009 -0.09521696 9867939 male
1.7646 0.2592267 -1.079462 -0.5331475 0.7848613 0.3158269 526600 male
1.304765 0.4901065 -1.164671 0.189002 -0.9100024 -0.3690177 9600122 male
1.257213 0.06250148 -1.340634 -0.5651481 -0.7346485 -0.3753656 14406884 male
1.627536 0.2432743 -0.7361272 0.6076221 -0.7942171 -0.003823757 526600 male
1.342509 0.4035008 -0.9675345 -0.8673658 -0.2666389 0.4202144 526600 male
1.143582 0.3800035 -1.33789 -0.7215784 -0.6523892 -0.2317606 8749712 male
1.386705 0.6013228 -1.430173 0.6748582 0.6576765 0.3347059 12295062 male
1.512481 0.3506009 -1.458464 0.6361316 0.6854658 -0.3542219 15970985 male
1.364184 0.187315 -1.230211 0.377391 0.6278312 -0.6807378 5922155 male
1.170645 0.2828506 -1.174588 -0.1135933 -0.977976 -0.175098 15706013 male
1.627776 0.3276592 -1.218998 -0.5738429 -0.3897372 0.7202842 526600 male
1.293485 0.2336307 -1.548074 -0.2791477 -0.5066766 -0.8156931 10130853 male
1.242031 0.2182866 -1.505147 -0.7604827 -0.4246274 -0.4912817 13617632 male
1.572401 0.2546917 -1.417118 -0.1208678 0.1746168 -0.9771897 16371916 male
1.297446 0.5104997 -1.50978 -0.1383232 -0.4270259 -0.8935969 16771297 male
1.226432 0.255823 -1.508381 -0.7981036 -0.3661867 -0.4784746 12958157 male
1.218449 0.6359683 -1.43256 -0.4462625 0.3358298 0.8294987 9933206 male
1.641696 0.3227251 -1.244225 -0.5784086 -0.7393738 0.3446301 526600 male
1.462923 0.4439006 -1.390147 -0.7630364 -0.1134271 0.6363252 6704979 male
1.493605 0.3019736 -1.45734 0.03808226 -0.9469626 -0.3190794 16769495 male
1.229505 0.310395 -1.532718 -0.8104103 -0.1406048 -0.56874 12564939 male
1.383834 0.2506766 -1.509187 0.911242 -0.1807808 -0.3700763 4999500 male
1.225669 0.2084745 -1.463145 -0.6437322 -0.4969093 -0.5819707 12630481 male
1.720165 0.3588487 -1.180612 0.3960818 0.7015864 0.5923645 526600 male
1.254322 0.1635916 -1.182259 -0.9127779 0.3294988 0.2413856 3552566 male
1.393716 0.009646313 -1.22637 -0.004386455 -0.6229224 0.7822714 8225169 male
1.189733 0.3499421 -1.195439 0.4958825 0.8272075 0.2642502 14527405 male
1.191573 0.6478674 -1.462404 -0.7274547 0.511853 0.4569641 526600 male
1.459768 0.3542725 -0.9731733 0.6202143 -0.2413789 -0.7463714 526600 male
1.55851 0.3055235 -0.7958109 0.3243741 0.3539508 -0.8772116 526600 male
1.320058 0.4556994 -1.545298 0.4422299 0.8690554 -0.2217553 5525592 male
1.510923 0.07017181 -1.304902 0.6843725 -0.4013367 -0.6087389 3752266 male
1.263935 0.1665199 -1.152328 -0.9178746 0.1956924 0.3452692 4802899 male
1.81049 0.2026381 -0.9327576 -0.5298932 -0.04250496 0.8469986 526600 male
1.654507 0.3458387 -1.264114 0.5130266 0.5131106 -0.6881288 6777717 male
1.377753 0.03638351 -1.387119 0.2317284 -0.7786307 -0.5831264 6250087 male
1.329295 0.07020919 -1.139919 -0.0469051 -0.5797853 0.8134181 9410213 male
1.889771 0.1548729 -1.031474 0.3949644 -0.6982123 -0.5970786 723467 male
1.509899 0.3146517 -1.418677 -0.1537327 0.8564731 0.4927677 14195360 male
1.612904 0.2812202 -0.7448688 -0.5280622 0.6746961 0.5156893 526600 male
1.738028 0.2467627 -1.089401 -0.7247268 0.4897137 0.484718 526600 male
1.775794 0.2141401 -1.074385 -0.8163207 0.4638325 0.3442093 526600 male
1.218593 0.3573176 -1.248845 0.9439695 -0.2289743 -0.2376812 2566446 male
1.21514 0.32477 -1.155678 -0.4574352 0.01369716 -0.8891375 14857399 male
1.296486 0.3995381 -1.370135 0.6047846 0.5819795 0.5436317 15392142 male
1.243309 0.6668151 -1.543441 -0.1811781 0.6386002 -0.7479066 526600 male
1.653081 0.2817337 -0.7664415 0.5888678 0.5572906 -0.5853733 526600 male
1.303521 0.04467684 -1.369431 -0.5166608 -0.7435533 -0.4244879 11116209 male
1.684816 0.3931528 -1.251199 0.5064898 0.7592393 0.4086854 526600 male
1.215651 0.17925 -1.28285 -0.7278768 0.6422024 0.2403568 5262416 male
1.295196 0.476919 -1.179242 0.657675 -0.6870862 0.3088303 14080999 male
1.252662 0.4938491 -1.458988 -0.9889071 -0.0315708 0.1451417 16368565 male
1.365627 0.3645765 -0.9703323 -0.7095681 -0.6996481 0.08369857 526600 male
1.226075 0.06871871 -1.264699 -0.7781045 -0.6059745 0.165373 9608106 male
1.163358 0.3479939 -1.181288 -0.5717831 0.7445216 0.3446035 14459802 male
1.194065 0.403313 -1.247811 0.2067942 0.8973317 0.3899128 14592677 male
1.404449 0.4078279 -0.9200726 -0.1968247 0.3187696 0.927171 526600 male
1.689541 0.300887 -1.126189 -0.5594569 0.4674185 0.684491 526600 male
1.189493 0.346055 -1.281854 0.4915759 -0.7832631 -0.3805943 657673 male
1.359631 0.4374667 -0.9874898 -0.6237724 0.3755084 0.6854935 789516 male
1.32385 0.6695443 -1.503217 0.6550646 0.6598497 -0.3680879 15319481 male
1.19616 0.1131034 -1.294637 -0.9721957 -0.2332742 -0.02045986 6907505 male
1.263101 0.4574443 -1.514545 -0.8055496 0.2546609 -0.5350118 11447991 male
1.149149 0.4034552 -1.276588 -0.8291956 0.3565488 0.4304737 16505041 male
1.592542 0.3185508 -1.236608 -0.4108735 0.906513 0.09704192 921358 male
1.539037 0.531681 -1.363104 0.09212533 0.1523945 0.9840167 1117454 male
1.227972 0.3391769 -1.325154 -0.4293013 0.06284896 0.9009719 4145477 male
1.72421 0.3429846 -1.163967 0.3907247 0.6846265 0.6153216 526600 male
1.368728 0.1272206 -1.09332 0.16493 -0.6826853 0.7118558 7633549 male
1.615859 0.3225685 -1.254994 -0.04828064 0.8421594 -0.537063 7831440 male
1.320912 0.6659445 -1.459178 0.9279787 0.2397555 0.2852595 11112840 male
1.167203 0.3605951 -1.321225 -0.06153135 -0.9039265 -0.4232383 11902620 male
1.543153 0.1211145 -1.18282 0.3562247 -0.5577014 0.7497153 2171945 male
1.34994 0.07982719 -1.431791 0.3352188 -0.6311367 -0.699496 5921123 male
1.672988 0.4019169 -1.223143 -0.1565999 0.6763605 0.7197312 526600 male
1.781059 0.1981762 -1.090814 0.5798219 -0.6396906 -0.5045816 526600 male
1.175323 0.415933 -1.266921 -0.1387345 0.854417 0.5007239 15711935 male
1.331256 0.2667405 -1.046966 -0.7679644 0.01977224 0.6401873 4277321 male
1.510996 0.3295557 -1.471246 0.7683395 -0.06460483 -0.6367735 15845310 male
1.341706 0.4697693 -1.457704 0.9719579 -0.02986091 0.2332515 15720163 male
1.745253 0.3022209 -1.167641 0.9903547 -0.1076131 -0.08727613 526600 male
1.275086 0.2780694 -1.560851 -0.4880304 -0.4322199 -0.7582955 11052214 male
1.204177 0.5990999 -1.554684 -0.5016179 -0.1270083 -0.8557151 6578276 male
1.183493 0.4296167 -1.286599 0.1538915 0.794581 0.5873317 13086128 male
1.242153 0.5494343 -1.537732 -0.05613768 -0.6945353 -0.7172651 10590109 male
1.28721 0.5498735 -1.545272 0.6462768 -0.137708 -0.7505749 15040132 male
1.367584 0.3881331 -1.022366 -0.01054026 -0.8527306 -0.5222445 526600 male
1.397097 0.0924659 -1.20265 0.994469 0.05463276 -0.08970243 526344 male
1.295384 0.2084346 -1.306757 0.1092409 0.617789 0.7787189 10196389 male
1.165825 0.3325692 -1.481545 -0.6966971 -0.2040872 -0.6877221 13486295 male
1.358878 0.1429026 -1.079701 -0.01086953 -0.6729616 0.7395976 11713489 male
1.416943 0.1261364 -1.302005 -0.4505884 0.5574111 -0.6973256 7962513 male
1.189606 0.5554075 -1.481553 -0.7986973 -0.5988429 0.05890498 9735828 male
1.391746 0.5946407 -1.439781 0.8912151 0.3262246 -0.3151397 13281961 male
1.646831 0.3876834 -1.224866 -0.6598391 0.3435668 0.668262 7170925 male
1.361059 0.2441522 -1.349932 0.7219588 0.3774789 0.5799011 10279828 male
1.73205 0.1813093 -0.8627067 0.3727044 -0.6716422 0.6403033 526600 male
1.452744 0.3230591 -1.444102 -0.7176371 -0.4483066 0.5329336 1382170 male
1.392219 0.108393 -1.124483 0.6124927 -0.6047533 0.5090443 2828851 male
1.429095 0.4087646 -0.9211879 0.3388219 0.6138353 0.7130259 526600 male
1.349387 0.1871851 -1.513946 0.4398502 -0.5629354 -0.6997396 4210502 male
-2.509993 0.3801059 -1.436621 0.9082306 -0.4173877 -0.03008282 4538429 male
-2.599549 0.04642692 -1.385053 -0.2927651 -0.03767429 -0.955442 2434859 male
-2.704536 -0.2515032 -1.334843 0.9864118 -0.1387768 -0.08793724 1644569 male
-2.572592 0.1125167 -1.238728 0.4162476 -0.2239889 0.8812305 2302507 male
-2.519318 0.3736961 -1.466435 0.7916566 -0.5537933 -0.2580563 5196102 male
-2.760442 -0.1127061 -1.295811 -0.280195 0.2371031 0.9302006 3092022 male
-2.768945 0.3560171 -1.3734 -0.9534461 0.3004747 -0.02560252 3815217 male
-2.565258 0.4064959 -1.54412 -0.008748293 -0.6428778 -0.7659189 16769462 male
-2.591191 0.6525514 -1.741502 -0.8681602 -0.1920282 -0.4576278 14205367 male
-2.685341 0.06568693 -1.35192 0.959656 -0.1007377 -0.2625121 3156784 male
-2.539681 -0.3721115 -1.383635 -0.41352 0.3308491 -0.8482572 1776929 male
-2.585178 0.6909181 -1.763772 -0.7401426 -0.05097716 -0.6705151 14929606 male
-2.757291 0.3942685 -1.413437 -0.9791481 0.2024268 -0.01710755 5984843 male
-2.600522 0.320365 -1.481201 0.2555589 -0.6500599 -0.71562 7367016 male
-2.621879 0.3317024 -1.258426 0.00530526 0.6633404 0.748299 8090477 male
-2.616075 -0.1006391 -1.303181 -0.7591324 -0.1639679 0.6299466 2697257 male
-2.785354 0.02524061 -1.294386 -0.7446309 -0.2826783 0.6046636 4079174 male
-2.459959 0.5151497 -1.543719 0.1872581 -0.954968 -0.2301533 6051924 male
-2.502766 -0.4702449 -1.430829 0.1063472 -0.9851561 -0.1347505 526600 male
-2.465234 0.4987201 -1.534181 0.6351609 -0.7699707 -0.06095815 6119002 male
-2.530326 0.5674591 -1.676466 0.663956 -0.7331421 -0.1471908 13416877 male
-2.661904 0.1216436 -1.347031 -0.790391 -0.1120826 -0.6022623 1974566 male
-2.657151 -0.4525282 -1.470387 0.9594643 0.1928749 -0.2054945 2040095 male
-2.527253 0.3211775 -1.775245 0.7656949 -0.07379588 0.6389568 14270909 male
-2.774298 -0.3668644 -1.338545 -0.9807992 -0.1635034 0.1063009 2105377 male
-2.657047 0.6048629 -1.518672 -0.1486598 0.8897753 0.4315092 16507850 male
-2.61957 0.5855266 -1.473966 -0.350098 0.7948347 0.4956505 8288882 male
-2.493801 0.4881302 -1.412968 0.7235348 -0.001336954 0.6902869 4603965 male
-2.699331 0.04534936 -1.381713 0.8395369 -0.02003924 -0.5429332 3288627 male
-2.370489 0.5033929 -1.555162 0.881063 0.2585603 0.3960742 8945790 male
-2.670421 0.2710924 -1.228263 -0.2135113 0.2790056 0.9362527 9209213 male
-2.650795 0.4913249 -1.616778 0.3393207 -0.2419243 -0.9090294 5525068 male
-2.526582 -0.2137534 -1.294198 0.8882969 -0.03640796 0.4578247 2303268 male
-2.424256 0.5152386 -1.597463 -0.288634 0.1427888 -0.9467323 9932934 male
-2.513826 0.5618246 -1.712398 0.2687035 -0.8914135 0.3649389 11774106 male
-2.744904 0.5035873 -1.649176 -0.9381495 -0.3449076 -0.03023946 8814202 male
-2.584251 0.1955419 -1.371619 0.3069537 0.2469586 -0.9191253 2829617 male
-2.551609 -0.0171969 -1.295078 0.8349627 -0.1254723 0.5358119 1908261 male
-2.773323 -0.08684345 -1.377954 -0.8619696 -0.0471816 -0.5047599 2369324 male
-2.664926 0.5968699 -1.506532 -0.1230168 0.8697736 0.4778711 7105124 male
-2.648598 0.5487248 -1.435086 -0.1362921 0.6367228 0.7589524 7168861 male
-2.540355 0.3380208 -1.832386 -0.5402274 0.2113383 -0.8145494 16044485 male
-2.601442 0.7153375 -1.739662 -0.8644885 0.1281302 -0.4860479 8090995 male
-2.70644 0.2553754 -1.22994 -0.07723615 0.1355442 0.9877564 13022893 male
-2.474052 0.730698 -1.684394 0.9373116 0.300461 0.1765514 3881270 male
-2.738738 -0.1066487 -1.395928 0.2353607 -0.4601688 -0.8560667 4210497 male
-2.647341 0.5026267 -1.689875 0.6562693 0.5735381 -0.4902702 8550515 male
-2.82172 0.09607184 -1.332808 -0.9856659 -0.1676978 0.0184527 1908257 male
-2.702729 0.2781177 -1.235097 -0.1060911 0.3293865 0.9382161 9208443 male
-2.736587 0.4336676 -1.517491 -0.818485 -0.2855959 -0.4985154 3946035 male
-2.645273 0.2831559 -1.227049 -0.1163588 0.3964766 0.9106411 9670027 male
-2.707993 0.03128512 -1.393499 0.6828052 -0.02419946 -0.7301998 3553598 male
-2.531624 0.238019 -1.300203 0.973983 0.1019918 0.2023731 5590860 male
-2.682791 0.2797115 -1.4428 -0.2923222 -0.637336 -0.7129872 5919058 male
-2.325289 0.3383348 -1.602391 -0.9938871 0.09259394 -0.06012696 16377825 male
-2.484023 0.7527869 -1.700859 0.7919081 0.6067715 -0.06863016 3354670 male
-2.617433 -0.1223501 -1.313979 -0.9304675 -0.1452497 0.3363528 2170913 male
-2.548198 0.6281356 -1.550261 0.09223954 0.9934347 0.06767085 11775144 male
-2.697276 0.6055772 -1.590957 -0.4852242 0.8075491 -0.3352939 4933187 male
-2.796637 0.1283699 -1.268325 -0.6479596 -0.2814001 0.7077872 3355963 male
-2.546418 0.2360382 -1.346696 0.6891035 0.1602983 -0.7067114 7959409 male
-2.747092 -0.3982939 -1.352188 0.9532645 0.1538699 0.2600212 1777186 male
-2.792821 -0.1808501 -1.315853 -0.94597 -0.026691 0.3231541 2235682 male
-2.760567 0.3441724 -1.417853 -0.920314 -0.1740856 -0.3503092 3025449 male
-2.647163 -0.01199378 -1.317642 -0.9893403 -0.1455872 0.003221333 2170657 male
-2.788938 -0.4584055 -1.330694 0.04568766 -0.9856821 0.1623071 1052688 male
-2.658736 0.5210637 -1.686911 0.8014961 0.2999948 -0.5173079 7300455 male
-2.54377 -0.4175453 -1.388608 -0.9040177 0.1393071 -0.4041606 2368550 male
-2.778024 -0.3822149 -1.334599 -0.8532414 -0.2102934 0.4772379 2302499 male
-2.80149 -0.4396437 -1.363578 -0.975158 0.06712253 0.2110965 2171169 male
-2.368973 0.4012732 -1.583909 -0.6551296 -0.7018123 0.2797589 13416113 male
-2.324991 0.3708603 -1.772524 -0.6018031 0.7386961 0.3035805 16771806 male
-2.485014 0.4481368 -1.533272 0.7256106 -0.5887215 -0.3562251 5196613 male
-2.545945 0.7643009 -1.750542 -0.09712692 0.8113174 -0.5764812 10786699 male
-2.643555 0.4175456 -1.578648 0.09685776 -0.6961982 -0.7112852 16440506 male
-2.526178 0.5412986 -1.585785 0.4782672 0.08817082 -0.8737773 6840154 male
-2.790419 -0.2284782 -1.344338 -0.9668355 -0.203454 -0.154389 1907998 male
-2.548181 0.2411601 -1.347795 0.6841795 0.1249331 -0.7185335 8814718 male
-2.352621 0.4682794 -1.615115 0.4290541 0.7194825 -0.5461297 16111048 male
-2.563544 0.6290403 -1.593983 -0.009390905 0.6697944 0.7424873 16772834 male
-2.52391 -0.2955242 -1.335452 0.9893197 -0.07623885 -0.1242349 1974564 male
-2.628905 0.3905849 -1.310315 -0.06827588 0.4735693 0.8781064 9668995 male
-2.266961 0.3602266 -1.67021 0.8840299 0.4507992 -0.1235777 16768982 male
-2.404111 0.5705002 -1.550793 0.7463585 0.6655416 -0.001874954 10590865 male
-2.526036 -0.2729424 -1.346914 0.8910718 -0.05163759 -0.4509156 2630697 male
-2.68314 0.06873786 -1.344898 0.9718713 -0.120807 -0.2021693 2763053 male
-2.540923 -0.1019841 -1.323503 0.9857323 0.1631589 0.04136831 2697257 male
-2.544386 -0.02402521 -1.348393 0.9140429 -0.2313802 -0.3331499 3224378 male
-2.518419 0.7195132 -1.782248 0.2461624 0.3095935 -0.9184532 9932935 male
-2.591758 0.2439885 -1.224966 0.516587 0.1723468 0.8387102 8748921 male
-2.723086 -0.461529 -1.450918 -0.9940012 -0.1093686 -0.0006887317 329994 male
-2.383882 0.5373785 -1.551218 0.8547775 0.4976736 0.1472302 10130574 male
-2.689689 -0.05279724 -1.341146 0.9844968 -0.06513292 -0.1628616 1973022 male
-2.424907 0.3660584 -1.889458 -0.7576627 0.1596922 -0.632808 14795704 male
-2.718579 0.3126022 -1.448546 -0.5294347 -0.4366685 -0.7273375 5657678 male
-2.715667 0.02989099 -1.39911 0.5298026 -0.06175226 -0.8458701 3553598 male
-2.537447 -0.007250178 -1.328596 0.9672083 -0.2433354 0.07277596 2696746 male
-2.758223 -0.2092394 -1.386162 -0.1820453 -0.07365711 -0.9805277 2170913 male
-2.469457 0.7174085 -1.71661 0.9725495 0.1983626 -0.1216551 4077361 male
-2.543262 -0.1423952 -1.286714 0.7163932 0.2755772 0.6409667 2104610 male
-2.712043 0.01243307 -1.286727 0.533589 -0.1641009 0.829671 2500141 male
-2.466211 0.579137 -1.575221 -0.04375112 0.7436602 -0.6671247 7366498 male
-2.728475 -0.1143807 -1.298443 0.4871366 0.2194918 0.8452938 2960691 male
-2.768673 -0.3887462 -1.391306 -0.5814626 0.4747339 -0.6607037 2368804 male
-2.417938 0.5737068 -1.524074 0.6351402 0.7092522 0.3058729 12695984 male
-2.580075 -0.3258953 -1.329597 -0.9617063 -0.2195605 -0.1640561 1973022 male
-2.524152 0.3608158 -1.824153 -0.4502864 0.8558221 -0.2545795 14467251 male
-2.612268 0.3988701 -1.546218 0.3668028 -0.5174831 -0.7730894 14008227 male
-2.712087 -0.2926394 -1.339183 0.982924 -0.0991602 -0.1550096 1644825 male
-2.664377 0.4082478 -1.332091 -0.136238 0.5378817 0.8319391 9340286 male
-2.608098 0.7354519 -1.661121 -0.8930689 0.2872651 0.3462757 4471612 male
-2.441452 0.5433287 -1.591165 -0.07690281 -0.2441275 -0.9666892 4342073 male
-2.608498 0.7453016 -1.695309 -0.8997345 0.4263822 -0.09314659 4998462 male
-2.590995 0.6633014 -1.74593 -0.8635198 -0.1913899 -0.4665872 12363936 male
-2.56288 0.009901524 -1.274432 0.645096 -0.208422 0.735127 2367780 male
-2.535868 -0.1226083 -1.323821 0.9720059 0.2345115 0.01446354 2104611 male
-2.521372 0.3894082 -1.389488 0.8663824 -0.1568069 0.4741239 3289393 male
-2.642291 0.4422395 -1.350122 -0.3739313 0.5248516 0.764661 8551031 male
-2.523436 0.0847149 -1.309386 0.9781201 -0.07305612 0.1947926 2170145 male
-2.79349 0.143374 -1.261743 -0.6397203 -0.2968336 0.7089767 2697265 male
-2.549062 0.7281184 -1.613571 -0.1064835 0.3387216 0.9348418 6313295 male
-2.566288 0.6026714 -1.743898 -0.6518903 -0.4874631 -0.5808777 16574427 male
-2.683332 0.1561302 -1.359926 0.8800346 -0.08090529 -0.4679678 2828843 male
-2.679563 0.1843195 -1.389065 -0.09878768 -0.6797343 -0.7267754 2829619 male
-2.75805 -0.4570097 -1.400642 0.434724 -0.9003821 -0.01808476 592137 male
