# .PCD v0.7 - Point Cloud Data file format
VERSION 0.7
FIELDS x y z normal_x normal_y normal_z rgb label
SIZE 4 4 4 4 4 4 4 4
TYPE F F F F F F U U
COUNT 1 1 1 1 1 1 1 1
WIDTH 248
HEIGHT 1
VIEWPOINT 0 0 0 1 0 0 0
POINTS 248
DATA ascii
1.483996 1.032061 -0.7129166 0.03712487 -0.1748674 0.983892 9144216 male
1.449961 0.6196729 -0.8206505 0.7983453 -0.3353028 -0.5002168 526600 male
1.541854 0.4843314 -0.9098243 -0.5274354 -0.3189851 0.7874392 526344 male
1.382709 0.7791001 -0.7280068 -0.8542951 -0.03315649 0.5187296 3488065 male
1.492868 1.017543 -0.7148514 0.175277 -0.03184125 0.984004 9078680 male
1.537859 0.5852143 -0.9536356 -0.7532734 0.3624955 -0.5487952 526600 male
1.537826 1.269238 -0.7205013 0.8588065 0.0218544 0.5118338 11510974 male
1.433327 1.386881 -0.7334465 0.3346622 0.8002368 0.4976167 15261682 male
1.597 1.552937 -0.7812873 0.9762113 -0.01192701 -0.2164933 15780031 male
1.55688 0.7942923 -0.8030304 -0.1863597 -0.2722701 0.9440016 4343379 male
1.327305 0.4732247 -0.8398634 -0.8172208 -0.04586311 -0.574497 526600 male
1.593377 1.596256 -0.7712803 0.9463637 0.3231012 0.001098633 16040647 male
1.597176 1.107732 -0.8810926 0.7892295 0.04770914 -0.6122422 3223601 male
1.549464 1.106823 -0.7173274 0.5897999 -0.005095503 0.8075333 11644094 male
1.373487 0.9548496 -0.8144857 -0.9958606 0.07966772 -0.04375753 3883596 male
1.431758 0.6492205 -0.8360884 0.1898832 -0.08808391 -0.9778473 855055 male
1.561106 0.7902298 -0.9378147 -0.1118366 0.01065928 -0.9936694 12437462 male
1.382331 1.251949 -0.7168767 0.9756453 -0.2141937 0.04729927 2500653 male
1.371102 0.2390065 -0.7360412 -0.06895142 -0.9944993 0.07884733 526600 male
1.379362 1.269537 -0.7326856 -0.5063784 -0.4583819 0.7303883 657930 male
1.522609 1.424314 -0.7474738 0.03571159 -0.340316 0.9396327 15780039 male
1.519119 0.8395128 -0.7354485 0.8190275 -0.3397982 0.4623105 5856105 male
1.690397 0.2616943 -0.846477 0.144653 -0.9795058 -0.1401563 526600 male
1.681271 1.033324 -0.9248357 -0.4479253 0.03363802 0.893438 9864847 male
1.611148 0.3422042 -0.9472364 0.8890077 0.3650284 0.2764406 526600 male
1.453227 1.290084 -0.897637 -0.7800742 0.08664783 -0.6196584 13880540 male
1.394522 1.325771 -0.8508524 -0.6299642 0.2162166 -0.7459192 13748186 male
1.546017 1.202218 -0.7209781 0.6294994 0.2299132 0.7422065 12051622 male
1.525793 0.6997468 -0.8547798 -0.7770902 -0.1626825 0.6080011 1118225 male
1.320952 1.278601 -0.7158722 -0.9395131 0.1724079 0.2959571 15118247 male
1.430048 0.9843802 -0.8917183 -0.5937208 0.2584242 -0.7620449 6975610 male
1.553673 1.372438 -0.7817218 0.6492894 0.46409 0.6025311 15197429 male
1.352879 0.4554054 -0.7706652 -0.2717739 -0.1706062 0.9471179 526600 male
1.371316 1.342505 -0.6922615 0.2025272 -0.2063422 0.9572908 14538990 male
1.52934 1.472729 -0.7043362 -0.225504 -0.3001784 0.9268447 12689815 male
1.561752 1.343096 -0.9508547 -0.6114191 -0.3951344 -0.6855912 5788506 male
1.382625 0.8816323 -0.7378669 -0.8977952 0.09259494 0.4305694 2828851 male
1.347176 0.5911472 -0.7967692 -0.9015994 0.3445383 0.2615567 526600 male
1.61277 0.5976624 -0.8726261 0.5002269 -0.5904598 0.6333483 526600 male
1.451165 1.305287 -0.8911587 -0.7936199 0.1799162 -0.5812036 12629706 male
1.475895 1.088875 -0.8837519 -0.6567301 -0.09890109 -0.7476122 11116209 male
1.69052 1.078702 -0.9491385 0.9177721 0.3950928 0.0399501 16042440 male
1.538418 1.530425 -0.8594545 0.3911994 -0.2960477 -0.871389 12168624 male
1.569061 0.9781281 -0.9332654 0.3687609 0.1077427 -0.9232589 5133408 male
1.469937 1.589116 -0.7383525 -0.7212814 0.1948205 0.6646789 11314087 male
1.567312 0.5590399 -0.8886601 -0.108165 -0.2949275 0.9493778 526600 male
1.6361 1.305566 -0.9352583 0.9664472 0.2333414 -0.1073854 15649220 male
1.639912 0.786734 -0.9016633 0.8533281 -0.001690398 -0.5213716 7303552 male
1.534554 0.9196844 -0.9490713 0.02016732 0.0966168 -0.9951173 8817823 male
1.610843 1.228627 -0.8681404 0.9688966 -0.05148772 -0.2420503 3750721 male
1.393531 0.9845003 -0.8614253 -0.7231196 0.2641628 -0.6382132 6909825 male
1.572032 0.6612137 -0.8377503 -0.2583743 -0.3528036 0.8993176 987927 male
1.399292 0.9454507 -0.7231274 -0.8033136 0.1360069 0.5798184 7435905 male
1.625284 0.9871745 -0.84686 0.9419286 0.1420066 0.30431 9143694 male
1.330362 1.13727 -0.7053894 0.8882204 0.2474107 0.3871078 14397104 male
1.470624 1.618522 -0.7563825 -0.6473807 0.568278 0.5078961 723723 male
1.387901 0.7243995 -0.8252541 -0.7179571 0.03255283 -0.6953257 7303808 male
1.435685 1.42622 -0.7983691 -0.44032 0.8972226 0.03331445 14203827 male
1.530778 1.378872 -0.9228299 -0.181609 0.5796635 -0.7943604 11708858 male
1.507439 0.8709489 -0.9304329 -0.4708578 -0.4212557 -0.7751364 8685720 male
1.40957 0.9193354 -0.7086194 -0.6007582 0.1150141 0.791114 3421497 male
1.579062 0.298832 -0.9468993 -0.8089263 -0.06309536 0.5845145 526600 male
1.602885 0.4844214 -0.9764436 0.6558999 -0.04533681 -0.7534851 526600 male
1.533055 1.26469 -0.7136124 0.8021686 -0.0002648954 0.5970976 11840451 male
1.451442 0.8018403 -0.8503476 0.02041951 -0.1298451 -0.9913239 5989227 male
1.618951 0.2762631 -0.996617 0.2897002 -0.7272801 -0.6222037 526600 male
1.641907 1.363378 -0.8824866 0.8083223 0.3109367 0.4999335 9603735 male
1.351932 0.2486901 -0.7760181 0.1003763 -0.9914844 -0.08296499 526600 male
1.597933 0.3860012 -0.9349771 0.5451273 0.009177706 0.838303 526600 male
1.55574 0.3289436 -1.006173 0.3541154 0.3524787 -0.8662338 526600 male
1.328203 1.163515 -0.7184095 0.9247718 0.254526 0.2828669 16043211 male
1.289056 1.106057 -0.7432728 -0.5539067 -0.4861197 -0.6759254 15119806 male
1.459065 1.256223 -0.6873048 -0.2401651 -0.3289989 0.91328 6907761 male
1.565022 1.633426 -0.7577818 0.5524077 0.80348 0.2219586 526600 male
1.587932 1.267961 -0.7624742 0.5627169 0.08719619 0.8220381 16446711 male
1.520777 1.259498 -0.7008949 0.6240577 -0.04149236 0.7802758 14999798 male
1.52811 0.6204417 -0.8836092 -0.9352765 -0.2546808 0.2457549 526600 male
1.42986 1.02375 -0.7164055 -0.2972482 0.3608713 0.883977 3486517 male
1.345708 1.286783 -0.6934766 -0.2277831 0.2784201 0.9330579 15249068 male
1.473312 1.448694 -0.8320628 -0.6347582 0.189123 -0.749209 15643044 male
1.375336 0.3958736 -0.7957228 0.8270643 -0.1911427 0.5286105 526600 male
1.402603 1.0451 -0.830883 -0.6684965 0.5461917 -0.5047643 11643836 male
1.319694 1.074441 -0.662037 0.05776292 0.4551202 0.8885545 16308185 male
1.409242 1.343836 -0.700411 0.4533511 -0.6303753 0.6301584 1250849 male
1.381737 0.397542 -0.8103371 0.9369847 -0.2642395 0.2285544 526600 male
1.535518 0.8026818 -0.8068204 -0.4231063 -0.2721815 0.8642328 3881535 male
1.340669 0.5418078 -0.7789032 -0.7373362 0.1739394 0.6527483 526600 male
1.424215 0.6886886 -0.7218704 -0.08042574 -0.395865 0.9147801 7634057 male
1.596867 1.58044 -0.7785585 0.9809761 0.1572124 -0.1138861 13348791 male
1.393181 0.9885553 -0.7370537 -0.8617647 0.1400354 0.4875979 5460571 male
1.492884 1.413676 -0.8674794 -0.5045322 0.7005097 -0.5047113 12762833 male
1.337866 1.367717 -0.7493602 -0.8868645 0.3582247 -0.2917987 7236982 male
1.548048 0.7428576 -0.8240727 -0.4118739 -0.3091483 0.8571973 4145735 male
1.744688 0.9208775 -0.9725695 0.6109734 -0.1078641 -0.7842683 10191232 male
1.605453 1.053621 -0.7948576 0.9585435 -0.1499758 0.2422841 9078681 male
1.56651 0.6761949 -0.8344743 -0.2798892 -0.2836283 0.9171788 5331041 male
1.397096 0.4712798 -0.7959198 0.8621392 -0.2050508 0.463325 526600 male
1.567872 0.5322746 -0.9879718 -0.03374553 0.1108646 -0.9932624 526600 male
1.50232 1.606096 -0.7211104 -0.4007853 0.45304 0.7963202 8748925 male
1.33924 0.5332697 -0.8497575 -0.639946 0.2029268 -0.7411408 526600 male
1.528179 0.6582804 -0.9052938 -0.915126 -0.04105819 -0.401072 527368 male
1.423923 1.286543 -0.7013913 -0.492307 -0.5468768 0.6771704 657418 male
1.543487 0.5116246 -0.9798115 -0.5936277 -0.01652709 -0.80457 526600 male
1.598913 0.323853 -0.995103 0.5470904 0.06518566 -0.8345315 526600 male
1.403152 1.351883 -0.6929494 0.5392823 -0.4143341 0.7331451 7367288 male
1.410278 0.5824823 -0.7508102 0.2666953 -0.5571868 0.7863946 526600 male
1.688744 1.066139 -0.9300314 0.3932575 0.4515083 0.8009299 15121082 male
1.548467 1.270964 -0.7416098 0.7515147 0.0148117 0.6595501 15980019 male
1.545702 0.4223157 -0.9380705 -0.7486955 -0.2512154 0.6134703 526600 male
1.476555 1.032699 -0.9034722 -0.5224223 0.4687581 -0.7122787 10657457 male
1.532416 1.593654 -0.8696628 0.2981373 0.1929858 -0.9348105 4933195 male
1.394134 1.344467 -0.7394971 0.6778102 -0.631561 -0.3764362 526344 male
1.553492 1.613416 -0.8492997 0.567711 0.4804466 -0.6684874 4276805 male
1.58235 1.546907 -0.7404417 0.3504416 -0.0508469 0.9352033 8350057 male
1.44716 0.6959001 -0.8348204 0.3935613 -0.1071831 -0.9130286 4672854 male
1.350514 0.4872929 -0.7671037 -0.4174925 -0.06574215 0.9062991 526600 male
1.462061 1.039941 -0.7121866 -0.1622837 -0.1663719 0.9726173 5591895 male
1.418899 1.303686 -0.8670155 -0.4552673 0.121313 -0.8820516 12499919 male
1.370554 0.5922103 -0.7642945 -0.6415795 0.09703806 0.7608937 526600 male
1.559448 0.9038333 -0.9454511 0.1807348 0.01949087 -0.9833387 6514547 male
1.453697 1.61374 -0.8268755 -0.809692 0.482863 -0.3335297 526344 male
1.594756 1.503899 -0.7577124 0.979539 -0.1638599 0.1168471 16236730 male
1.617879 0.8669181 -0.8014779 0.5765439 0.05123608 0.8154581 6712703 male
-2.41108 0.457841 -1.428994 0.8556002 -0.03344902 -0.5165555 6051407 male
-2.447204 -0.008327751 -1.442629 -0.6242912 -0.1120553 -0.7731135 2106151 male
-2.631544 -0.2987085 -1.433515 0.9076369 -0.1981665 0.3700348 1775643 male
-2.382602 0.06124539 -1.339875 0.6573104 -0.1858569 0.7303428 2631464 male
-2.428157 0.3400544 -1.438675 0.8540652 -0.2590327 -0.4510819 6380633 male
-2.615024 -0.119307 -1.53587 -0.6695195 0.1135256 -0.734068 2105894 male
-2.638902 0.3353856 -1.399359 -0.8437725 0.5206252 0.130375 5853514 male
-2.418957 0.5881613 -1.433602 0.4722924 0.2817045 -0.8352141 10325887 male
-2.51414 0.8677907 -1.459272 -0.2328048 0.2318507 -0.9444827 14273221 male
-2.53055 -0.006830821 -1.44084 0.8652593 -0.1333581 0.4832622 1841948 male
-2.362622 -0.3207291 -1.360229 0.9874925 -0.1541264 -0.03322506 2368808 male
-2.533038 0.9234409 -1.431595 -0.4743088 0.5632455 -0.6765988 5326917 male
-2.613388 0.4608861 -1.45976 -0.7715482 -0.1267615 -0.6234142 3947574 male
-2.476957 0.3006516 -1.474074 0.3832928 -0.03696327 -0.9228872 7630185 male
-2.450672 0.2934939 -1.276411 0.4021525 0.04727066 0.9143518 5393738 male
-2.430566 -0.05791736 -1.402859 -0.8440936 -0.1455415 0.516066 2697772 male
-2.583359 0.08810276 -1.533015 -0.0883126 0.01321131 -0.9960054 2894638 male
-2.350036 0.6572317 -1.272006 0.5621083 0.2213362 0.796897 9999243 male
-2.409253 -0.3637393 -1.340922 -0.8893518 -0.05755259 -0.4535871 1907229 male
-2.377534 0.5699683 -1.385444 0.9425462 -0.2967616 -0.153425 4406328 male
-2.47328 0.7290966 -1.441262 0.2546204 -0.1664957 -0.9526006 16575716 male
-2.456699 0.1507341 -1.440426 -0.09599352 -0.04700751 -0.9942716 2434347 male
-2.574669 -0.4398347 -1.461494 0.8516712 -0.3176934 0.416806 2631976 male
-2.715523 0.7830902 -1.697279 -0.9322717 -0.2491585 0.2622782 14599607 male
-2.642848 -0.2852985 -1.484967 -0.2991304 -0.3833909 -0.8738035 2302499 male
-2.627703 0.628025 -1.352183 -0.6913735 0.2260554 0.6862229 10787734 male
-2.481791 0.6519646 -1.266553 -0.1845861 0.3444889 0.9204649 9209217 male
-2.3919 0.5242878 -1.322165 0.9703913 -0.07507091 0.2295764 3222569 male
-2.524852 -0.06353784 -1.505096 0.9262882 -0.3767944 -0.004051149 2499881 male
-2.10381 0.3744177 -1.485332 -0.9036285 -0.3792043 -0.1991478 11377302 male
-2.560215 0.3323598 -1.316211 -0.4876966 0.3877462 0.7821797 13023925 male
-2.524991 0.6949863 -1.323708 -0.5339174 0.5380306 0.6522694 7038301 male
-2.33506 -0.1994842 -1.411199 0.8998579 -0.2684021 -0.3438259 2303274 male
-2.324656 0.5930634 -1.284753 0.4754073 0.01224942 0.8796808 4734263 male
-2.455607 0.775071 -1.457138 0.3908198 -0.9019405 -0.183748 11774106 male
-2.62633 0.7177137 -1.534958 0.2514877 0.9671918 -0.03597334 5590345 male
-2.394046 0.1797711 -1.315133 0.7658602 0.04129904 0.6416796 2697257 male
-2.405349 0.6045965 -1.274765 0.2512589 -0.8126239 0.5258435 3552047 male
-2.603709 -0.003276514 -1.520143 -0.5586214 -0.2229057 -0.7989089 2303275 male
-2.61629 0.6405811 -1.345606 -0.6416414 0.2494707 0.7253007 11116952 male
-2.563085 0.6333594 -1.313186 -0.3832612 0.2391164 0.8921516 10261643 male
-2.68943 0.7129046 -1.778311 -0.6230376 0.2508328 -0.7408828 16375251 male
-2.564676 0.9114274 -1.409189 -0.7415239 0.4136734 -0.5282205 8090995 male
-2.600656 0.2492456 -1.31149 -0.4822971 0.0302032 0.8754871 9604233 male
-2.445403 0.8931948 -1.346844 0.9160863 0.17458 0.360982 5919050 male
-2.574286 -0.03184518 -1.532587 -0.195948 -0.05204114 -0.9792326 3289396 male
-2.654935 0.7228782 -1.650658 0.2073954 0.9505437 0.2312006 16441296 male
-2.651147 0.6636307 -1.618361 0.02404991 -0.8782105 -0.4776693 12890539 male
-2.646266 0.2657894 -1.36168 -0.9260608 0.1053222 0.3623796 7498858 male
-2.616732 0.5166314 -1.461382 -0.6101354 -0.0871016 -0.7874951 2500646 male
-2.556188 0.5211694 -1.305711 -0.5388218 -0.208754 0.8161454 9800588 male
-2.528657 -0.04233913 -1.517767 0.856883 -0.2170545 -0.4675885 3355195 male
-2.386187 0.2454759 -1.344057 0.9625678 0.2048141 0.1775239 7170917 male
-2.613986 0.3000362 -1.483913 -0.4525473 0.2923559 -0.8424543 3750455 male
-2.288616 0.5149257 -1.32087 -0.09409407 0.4873671 -0.8681128 16770522 male
-2.463855 0.9169497 -1.330138 0.7069943 0.5122916 0.4875619 3354670 male
-2.439065 -0.04655789 -1.395898 -0.8285834 -0.2125185 0.5179631 2369066 male
-2.395511 -0.4344668 -1.405424 -0.8543652 -0.02193891 -0.5192101 2170145 male
-2.541623 0.7076869 -1.426574 -0.4552989 0.3852293 -0.802684 4801601 male
-2.643981 0.2273501 -1.459469 -0.8955621 0.1429716 -0.4213408 3815731 male
-2.382966 0.2385636 -1.361187 0.9579654 0.2765852 -0.07617962 2105891 male
-2.666699 -0.3791623 -1.429749 0.9333805 0.1669168 0.3177106 2434341 male
-2.602167 -0.08320124 -1.474592 -0.4418085 0.5842159 0.6808063 2960690 male
-2.439706 0.6956778 -1.353569 0.6058269 0.7618864 -0.2291356 3748913 male
-2.458545 -0.0287786 -1.422598 -0.9501706 -0.1607919 -0.2670621 2301475 male
-2.742705 -0.4048742 -1.441385 -0.6376703 -0.7451562 0.1952407 526344 male
-2.665115 0.6365924 -1.491272 -0.6830543 -0.7302196 0.01470548 8617080 male
-2.415401 -0.3666357 -1.281471 -0.6052314 0.4569363 0.6518469 3553340 male
-2.623756 -0.2389553 -1.510455 -0.1397377 -0.4577923 -0.878009 1907741 male
-2.7428 -0.3673519 -1.3956 -0.9018459 0.4148894 -0.1205861 3027254 male
-2.363925 0.5772311 -1.325535 -0.7155757 -0.4223048 -0.5564264 2893865 male
-2.20622 0.3836384 -1.422642 -0.8349093 -0.3456102 -0.4283459 11772579 male
-2.368371 0.6570181 -1.36407 0.4950057 0.2524575 -0.8314054 9144451 male
-2.513833 0.9516559 -1.403881 -0.157099 0.9351813 -0.3174205 15590106 male
-2.502956 0.6824251 -1.435618 0.2552919 0.4860482 -0.835813 8485240 male
-2.617663 0.3583959 -1.44488 -0.8768035 0.1320714 -0.4623559 3026222 male
-2.621742 -0.1053976 -1.472238 -0.5888609 0.6028487 0.5383461 3158582 male
-2.446079 0.372153 -1.300272 0.4833196 -0.04271924 0.8744013 4802369 male
-2.179493 0.3792288 -1.496396 -0.3509757 -0.5954237 -0.7226942 4471097 male
-2.46801 0.9396498 -1.363542 0.6077983 0.7620398 0.2233309 4932155 male
-2.347057 -0.2258292 -1.412667 0.6246009 -0.4125605 -0.6630745 2368810 male
-2.471776 0.2398438 -1.267699 0.3058632 0.02455125 0.951759 6576984 male
-2.234808 0.4762382 -1.304909 0.85742 0.3157755 0.406346 16773612 male
-2.345076 0.6466297 -1.339162 0.4734014 0.2846424 -0.8335888 10326924 male
-2.350762 -0.2738162 -1.369014 0.967723 -0.2404986 0.07531852 2565928 male
-2.555804 0.07729346 -1.527807 0.3921869 -0.03932037 -0.919045 4278096 male
-2.340351 -0.09413165 -1.408839 0.9156199 0.1820787 0.3584519 2960437 male
-2.357567 0.009225648 -1.399429 0.9819184 -0.1812685 0.05457318 3158840 male
-2.529759 0.9196756 -1.436948 -0.4397001 0.5235355 -0.7297772 4932162 male
-2.399811 0.2538324 -1.379929 0.7806752 0.350598 -0.5173273 6841436 male
-2.561813 0.7237093 -1.389965 -0.7184589 0.6870819 -0.1083306 4473148 male
-2.289165 0.5733308 -1.336826 0.6636407 0.6120003 -0.4301592 14862265 male
-2.537046 0.05554593 -1.516357 0.6838899 -0.08828243 -0.7242246 3949644 male
-2.700811 0.9208481 -1.638366 -0.8410653 0.02187858 -0.5404911 14599354 male
-2.5786 0.359425 -1.483937 -0.395404 -0.1243853 -0.9100463 4472892 male
-2.525732 -0.04226889 -1.510486 0.9254306 -0.2490269 -0.2855943 3158840 male
-2.346105 -0.06988136 -1.427275 0.9843861 0.06467849 0.1637101 2697775 male
-2.631788 -0.1579602 -1.527129 -0.6966386 0.02306683 -0.7170514 2170403 male
-2.449559 0.9206719 -1.371312 0.8300779 0.537789 0.1474917 5327936 male
-2.353593 -0.1083898 -1.378742 0.5558162 0.4263748 0.7136337 2104610 male
-2.599212 0.1361158 -1.358751 -0.231388 -0.4640108 0.8550753 4802898 male
-2.398626 0.6563057 -1.267827 0.2377895 0.4469679 0.8623666 10853529 male
-2.651151 -0.1803626 -1.497061 -0.9509715 0.05420893 -0.3044914 1777185 male
-2.708688 -0.3335628 -1.42136 -0.9882423 0.08897639 0.1243407 2631464 male
-2.357292 0.6401893 -1.344956 0.1970091 0.2193634 -0.9555456 8090477 male
-2.416064 -0.2545204 -1.381407 -0.9332148 -0.1886735 -0.3057985 1973278 male
-2.689845 0.741226 -1.775341 -0.2530446 0.5168561 -0.8178192 15847880 male
-2.503367 0.6503528 -1.453163 0.4164295 0.4561734 -0.7864429 8024685 male
-2.653389 -0.3349382 -1.452747 0.8677332 0.1544684 -0.4724182 1908517 male
-2.563368 0.4399012 -1.32666 -0.3992231 -0.1532281 0.9039593 7432807 male
-2.589831 0.8798772 -1.338433 -0.9716199 0.02788725 0.2348983 4472124 male
-2.336865 0.6458488 -1.282213 0.7316533 0.3015253 0.6113641 9734788 male
-2.584852 0.9090047 -1.359123 -0.9068384 0.4206753 -0.0260157 4998462 male
-2.557264 0.8723179 -1.428316 -0.7709728 0.06863125 -0.6331595 6314326 male
-2.45417 -0.02644129 -1.385825 -0.8604387 -0.267215 0.4338683 3224633 male
-2.349977 -0.1451839 -1.363178 0.6182792 0.2425273 0.747604 2631464 male
-2.394985 0.4749262 -1.398828 0.9430593 -0.06863214 -0.3254673 5263176 male
-2.52242 0.6379607 -1.277908 -0.5653487 0.2720815 0.7786865 9735820 male
-2.370682 0.02380819 -1.364837 0.7828614 -0.1937895 0.5912477 2434085 male
-2.652081 0.2126072 -1.43963 -0.9735496 0.09327003 -0.2085715 2697257 male
-2.540817 0.845521 -1.291648 -0.327151 -0.2819041 0.9019438 6313295 male
-2.540997 0.7997591 -1.44015 -0.7528 -0.3887721 -0.5311767 13614004 male
-2.537267 0.1342432 -1.510768 0.6554176 0.06692162 -0.7522962 4212046 male
-2.545535 0.264019 -1.484382 0.2483469 0.1065191 -0.9627969 6972513 male
-2.728321 -0.390395 -1.375035 0.1649493 -0.8672473 0.4697594 657930 male
