# .PCD v0.7 - Point Cloud Data file format
VERSION 0.7
FIELDS x y z normal_x normal_y normal_z rgb label
SIZE 4 4 4 4 4 4 4 4
TYPE F F F F F F U U
COUNT 1 1 1 1 1 1 1 1
WIDTH 252
HEIGHT 1
VIEWPOINT 0 0 0 1 0 0 0
POINTS 252
DATA ascii
1.342114 0.1991313 -1.31215 0.2109569 0.9370556 0.2782516 12039367 male
1.408461 0.3353343 -1.100198 0.004312977 0.8846848 -0.4661698 6317425 male
1.75983 0.3348535 -1.262255 0.9481781 0.3043064 0.09141076 526600 male
1.404773 0.1860105 -1.070924 0.07250604 -0.6401502 0.7648206 2698033 male
1.358818 0.1991702 -1.354002 0.7333587 0.3820764 0.562319 10986423 male
1.658088 0.3058894 -1.330309 0.4783449 0.01316368 -0.8780734 526600 male
1.381177 0.03514234 -1.406881 0.2380487 -0.7348817 -0.6350446 8288131 male
1.336551 0.007850483 -1.313244 -0.3850413 -0.9213963 0.05265117 7960449 male
1.332519 0.5837147 -1.49282 0.3902764 -0.3106724 -0.8666989 10980486 male
1.53488 0.2396969 -1.292144 -0.4868752 0.8700253 -0.07751401 132619 male
1.527479 0.3506049 -0.9510959 0.7444223 0.6466172 0.1664983 526600 male
1.328494 0.6506479 -1.497467 0.5282829 0.2852724 -0.7997105 15322318 male
1.353605 0.3099748 -1.376316 0.7203107 0.3702053 0.5866008 16169712 male
1.408219 0.115091 -1.360391 0.1771228 0.8101785 -0.5587828 12633553 male
1.308319 0.06147367 -1.174173 -0.5064272 -0.5363623 0.6751644 12436176 male
1.389407 0.3833943 -1.037415 -0.4807688 -0.8330175 -0.2737576 526600 male
1.52908 0.09352192 -1.349534 0.4856797 -0.2978859 -0.8218145 4145479 male
1.201663 0.4388391 -1.25998 0.1653416 0.7583807 0.6304927 13480629 male
1.735921 0.2336936 -0.9163375 0.9177682 -0.3178249 -0.2380936 526600 male
1.370868 0.2783867 -1.373182 0.7360067 0.4191391 0.531617 12181929 male
1.354007 0.4824021 -1.437687 0.9859861 -0.1062309 0.1286327 15386054 male
1.432487 0.2403025 -1.156159 0.6802638 0.406902 -0.6096489 3422013 male
1.872273 0.2092542 -1.047663 -0.3434611 0.9117643 0.2252118 526600 male
1.603594 0.252063 -1.452418 0.8784204 -0.06119329 -0.4739547 13736591 male
1.767873 0.2230107 -1.170102 -0.882337 0.1856439 0.4324555 526600 male
1.272375 0.223034 -1.526401 -0.4563756 -0.4346284 -0.7764144 7762558 male
1.177903 0.4300736 -1.453873 -0.7931381 0.387139 -0.4701652 13816290 male
1.194121 0.4728841 -1.361322 -0.2880901 0.9561147 0.05337368 6446953 male
1.800192 0.2491438 -1.157751 -0.4798186 0.7774982 0.406535 526600 male
1.33956 0.4944478 -1.145021 -0.08223127 -0.8466906 -0.5256929 9272445 male
1.257169 0.06472404 -1.352531 -0.6247639 -0.692288 -0.3611196 14406884 male
1.699089 0.2241785 -0.8058653 0.5947084 -0.7753684 -0.212428 526600 male
1.380935 0.3958996 -0.9861633 -0.7954086 -0.2961548 0.5287887 526600 male
1.159374 0.3906593 -1.295469 -0.883685 -0.4641297 -0.06069899 8486025 male
1.401753 0.621676 -1.407974 0.9044476 0.2958147 0.307357 13674404 male
1.549145 0.3370846 -1.481598 0.5664904 0.5787907 -0.5865917 13211015 male
1.367702 0.1799586 -1.248601 0.1609794 0.6668536 -0.7275932 4473935 male
1.19386 0.2890367 -1.143687 -0.1590712 -0.9724455 -0.1704291 15706013 male
1.639471 0.3176938 -1.274251 -0.4489142 -0.4126153 0.7926063 526600 male
1.261499 0.2103798 -1.512725 -0.5477689 -0.4319051 -0.7165244 8092038 male
1.230508 0.2469806 -1.499086 -0.8414048 -0.3244991 -0.4321324 12894676 male
1.572503 0.2876988 -1.434855 -0.9083883 0.02441445 -0.4174142 16501197 male
1.319939 0.5245395 -1.48418 0.1077528 -0.260464 -0.9594519 16634321 male
1.21992 0.2507523 -1.477054 -0.7905545 -0.3838608 -0.4771524 11379637 male
1.235658 0.6417179 -1.389463 -0.3922165 0.2632778 0.8813915 9933206 male
1.642349 0.2790956 -1.288549 -0.1253481 -0.8594273 0.4956537 526600 male
1.506473 0.4431902 -1.389802 0.05755341 0.5912648 0.8044212 1051656 male
1.51088 0.3090108 -1.483149 -0.03588845 -0.9018923 -0.4304675 16769495 male
1.221056 0.339938 -1.51235 -0.8787513 0.01773097 -0.4769504 11972801 male
1.393359 0.3147063 -1.487236 0.9042472 -0.206257 -0.3738917 8157060 male
1.218708 0.2176566 -1.45192 -0.6555685 -0.4141729 -0.6314195 9735845 male
1.728093 0.3591243 -1.256035 0.4138681 0.7306611 0.5429986 526600 male
1.283534 0.1472206 -1.173714 -0.8800947 0.2242538 0.4185015 3685184 male
1.35381 0.2764051 -1.346332 0.7597484 0.397948 0.5142176 16120574 male
1.214282 0.3554428 -1.16552 0.5421475 0.8071111 0.2337685 14527405 male
1.227017 0.6691993 -1.409524 -0.4986963 0.6323014 0.5928717 723723 male
1.467925 0.3545805 -1.029477 0.2635013 -0.4278888 -0.8645682 526088 male
1.63529 0.2883002 -0.8365875 0.2708232 0.5131229 -0.814469 526600 male
1.3285 0.4498957 -1.555362 0.1704037 0.6773009 -0.7156997 6513003 male
1.512085 0.0630516 -1.348029 0.584352 -0.3783532 -0.7179008 3752266 male
1.294762 0.1587758 -1.141218 -0.8331615 0.05543912 0.5502439 4936027 male
1.870278 0.1903243 -1.019912 -0.3981197 -0.05563519 0.9156448 526600 male
1.658711 0.3379051 -1.322821 0.396452 0.534438 -0.7464595 6777717 male
1.295766 0.05255894 -1.390652 -0.5907478 -0.68213 -0.4309475 10854322 male
1.354943 0.05839803 -1.159976 0.05387697 -0.6022787 0.7964658 9410213 male
1.900369 0.1407753 -1.136767 -0.150952 -0.7371293 0.6586758 526600 male
1.535498 0.3174498 -1.447926 -0.03655973 0.7884091 0.6140639 14195360 male
1.685751 0.254608 -0.8152742 -0.4695668 0.6068762 0.6412552 526600 male
1.787488 0.2253825 -1.16157 -0.7207363 0.4593118 0.5192031 526600 male
1.79965 0.2107023 -1.15873 -0.7402431 0.4581833 0.4920449 526600 male
1.240632 0.3778714 -1.239166 0.9357885 -0.2225027 -0.273482 3749951 male
1.231128 0.3085601 -1.122831 -0.2245992 -0.1007515 -0.9692287 14594484 male
1.315054 0.3898655 -1.351117 0.7163865 0.4735703 0.5123686 14866549 male
1.252531 0.6813537 -1.498963 -0.2386317 0.6905792 -0.6827556 526600 male
1.763895 0.2434305 -0.9342997 0.7554274 -0.07677317 -0.650719 526600 male
1.306435 0.03848609 -1.379197 -0.5504818 -0.7444358 -0.3778689 10131621 male
1.620601 0.3337312 -1.282844 -0.3087422 0.8112237 0.4965827 657674 male
1.249844 0.1891888 -1.283009 -0.3499167 0.8481121 0.3978242 9142668 male
1.331324 0.4830304 -1.160931 0.7172769 -0.6400951 0.2753036 3025976 male
1.251313 0.4873428 -1.430304 -0.8091401 0.565038 0.1613209 14659494 male
1.40301 0.3574709 -0.995001 -0.6920346 -0.7070137 0.1456702 526600 male
1.224568 0.07513499 -1.296741 -0.7868078 -0.6171916 -0.002829075 10196131 male
1.174595 0.3178998 -1.116104 -0.5990546 0.7249647 0.339941 14526108 male
1.225489 0.3977208 -1.206945 0.456011 0.8222629 0.3404962 16770786 male
1.438617 0.4131961 -0.9552331 -0.008750319 0.382821 0.923781 526600 male
1.7165 0.2907988 -1.191489 -0.4479 0.4529003 0.770887 526600 male
1.208533 0.3515551 -1.251768 0.4350042 -0.8015334 -0.4102628 657673 male
1.484614 0.3798023 -1.02702 0.6981214 0.1089095 -0.7076476 526600 male
1.321123 0.6981444 -1.45043 0.4211504 0.8978592 -0.1283788 13212564 male
1.213831 0.1019049 -1.270219 -0.8732506 -0.3107253 0.3753439 7696502 male
1.773817 0.1783575 -0.9147636 0.6582518 -0.3632023 -0.6593851 526600 male
1.170851 0.4107341 -1.24386 -0.783969 0.3904862 0.4826106 16505041 male
1.602033 0.3097399 -1.28659 -0.3922526 0.9017004 0.1818634 921358 male
1.566541 0.527665 -1.37338 -0.5652764 -0.5591186 0.6065055 854796 male
1.219642 0.334143 -1.31544 -0.2864179 0.1616577 0.9443684 526600 male
1.742081 0.3528859 -1.256695 0.5484055 0.6841254 0.4808573 526600 male
1.372743 0.1561399 -1.087388 -0.2356539 -0.4970522 0.8351085 4211787 male
1.614161 0.3217517 -1.295092 -0.3026971 0.9530255 0.01081653 7172218 male
1.326752 0.658811 -1.38932 0.2727453 0.7696161 0.5773225 14594472 male
1.18435 0.3671526 -1.289693 -0.1263418 -0.8983374 -0.4207465 11902620 male
1.562078 0.1109165 -1.231611 0.4701751 -0.5767524 0.6680508 2171945 male
1.250277 0.4625949 -1.388305 0.230209 0.8447375 0.4831381 12038336 male
1.687845 0.386273 -1.275853 -0.001205862 0.7353499 0.6776866 526600 male
1.827157 0.1890451 -1.171392 -0.2135342 -0.7274098 -0.6521335 526600 male
1.198099 0.4220938 -1.235868 -0.07217939 0.8579263 0.5086772 15711935 male
1.340923 0.2331572 -1.09079 -0.7460017 0.161411 0.6460866 3949389 male
1.531645 0.3384368 -1.493727 0.6182128 0.1326437 -0.7747378 14791595 male
1.325665 0.4711877 -1.406266 0.4612933 0.03724664 0.8864655 16770023 male
1.789866 0.2404389 -1.18796 0.7953449 -0.422689 -0.4344658 526600 male
1.287901 0.3356692 -1.575563 -0.3146091 -0.1472929 -0.9377238 10920372 male
1.255608 0.5557235 -1.496083 -0.09537086 -0.6990916 -0.7086433 14471896 male
1.21726 0.429362 -1.254058 0.4087343 0.7972335 0.4442466 14927307 male
1.263628 0.574417 -1.510238 -0.02001873 -0.5502631 -0.8347512 14933987 male
1.306464 0.5785637 -1.509035 -0.8102448 -0.5671729 0.1477111 15906999 male
1.395504 0.3757965 -1.040028 -0.2476294 -0.9190292 -0.3067001 526600 male
1.415087 0.08136108 -1.228848 0.9698331 0.07673436 -0.2313775 526344 male
1.29614 0.2498031 -1.297234 0.2924823 0.2083394 0.9332999 8552586 male
1.177833 0.3178878 -1.462619 -0.7233599 -0.2382489 -0.6480647 13289945 male
1.392869 0.1823682 -1.071356 -0.1150938 -0.5683398 0.8147044 4607829 male
1.428841 0.10751 -1.34109 -0.4285994 0.4717744 -0.7705398 12764117 male
1.211649 0.5592422 -1.42785 -0.7279177 -0.6435262 0.2366642 7432812 male
1.406583 0.6014183 -1.416155 0.8209633 0.286252 -0.4940436 13280930 male
1.646917 0.3685736 -1.27459 -0.4123425 0.4021688 0.8174558 5459798 male
1.370908 0.2216612 -1.357456 0.8087387 0.2769148 0.5189025 13812702 male
1.860145 0.1492086 -1.151438 -0.9727665 -0.204817 0.1085146 526602 male
1.505476 0.3134271 -1.439891 -0.5918133 -0.1672297 0.7885374 7563635 male
1.418592 0.09769864 -1.151814 0.6939674 -0.5858636 0.4185367 2828851 male
1.473319 0.3988405 -0.9534733 0.4450132 0.5697266 0.6909232 526600 male
1.320861 0.2029033 -1.526343 0.09570315 -0.5521958 -0.8282033 5920606 male
-2.467445 0.1920112 -1.33737 0.9957113 -0.07581206 0.05302817 3880498 male
-2.501085 -0.04120443 -1.401693 -0.074339 0.4357947 -0.896971 4343122 male
-2.688244 -0.08992286 -1.473933 -0.1299816 0.5275152 -0.8395432 3750978 male
-2.52948 -0.05208448 -1.222405 -0.06279249 -0.7236215 0.6873348 3355703 male
-2.470906 0.1742149 -1.3517 0.954847 -0.2936049 -0.0454275 4340793 male
-2.681625 -0.2093831 -1.554793 0.5299358 -0.367721 -0.7641659 2500138 male
-2.722126 0.1457892 -1.268802 -0.9396388 0.2392613 0.2446085 5985875 male
-2.542641 0.1057909 -1.470802 0.3837302 -0.8673478 -0.3169526 16772021 male
-2.577987 0.08958763 -1.807431 -0.7235532 -0.6724991 0.1556147 13746099 male
-2.68637 -0.002502957 -1.384911 -0.1116535 0.6081641 -0.7859199 3816260 male
-2.509104 -0.3382849 -1.434355 -0.9907667 -0.02032572 -0.1340468 1973534 male
-2.56816 0.1019199 -1.85791 -0.6555352 -0.5528893 -0.5143803 5326917 male
-2.683402 0.226072 -1.319337 -0.7630796 0.4054428 0.5033149 6972255 male
-2.510009 0.1096009 -1.434498 0.5486731 -0.8215075 -0.1551881 8682867 male
-2.567618 0.2111869 -1.240615 -0.1366881 0.8376372 0.5288481 8089963 male
-2.503844 -0.1922122 -1.454934 -0.9295202 0.230664 0.2877262 2171431 male
-2.722128 -0.103163 -1.326891 -0.8009257 -0.4590407 0.3844478 4079174 male
-2.42685 0.2978168 -1.637105 0.3320969 0.7061405 -0.6253617 12498093 male
-2.54631 -0.4699286 -1.447763 -0.1841281 -0.9717539 -0.1476183 921614 male
-2.429729 0.2132938 -1.602124 0.5558636 -0.8280635 -0.07298368 7302246 male
-2.519276 0.1174572 -1.692564 0.6737773 -0.3494768 0.6510687 12035479 male
-2.495476 0.02414482 -1.358577 0.07632397 0.5684081 -0.819199 4144711 male
-2.700496 -0.4256709 -1.480172 -0.09094064 0.9704223 -0.2236298 2763050 male
-2.646431 -0.2595243 -1.627194 0.8058456 -0.1518859 0.5723146 16703965 male
-2.722861 -0.2713947 -1.530069 -0.2958246 -0.5871695 -0.7534719 2105120 male
-2.68614 0.2368687 -1.560881 -0.5735345 0.8150542 -0.08212774 10196371 male
-2.58868 0.3003075 -1.551926 -0.5884922 0.8044153 -0.08119747 8880253 male
-2.458024 0.2422963 -1.504948 0.9882648 0.07273874 0.1343206 3749169 male
-2.678453 -0.1599336 -1.570017 0.7009878 -0.4778549 -0.5294063 2565928 male
-2.451007 0.1139758 -1.370499 -0.2242932 -0.5694579 0.7908289 8811120 male
-2.545915 0.1262831 -1.171064 0.1050052 0.32893 0.9384985 10458515 male
-2.615268 0.07056623 -1.554957 0.2073537 -0.970604 -0.1221981 6314577 male
-2.416499 -0.2108023 -1.489806 0.9518238 -0.1461464 -0.2695793 2698289 male
-2.37137 0.2516847 -1.531271 0.5478863 -0.6488829 -0.5279886 14663859 male
-2.478598 0.08569858 -1.763659 0.7918431 -0.6051808 0.08210433 16045515 male
-2.690395 0.04297939 -1.665404 -0.6579522 -0.04694829 -0.751595 8287859 male
-2.438869 0.01068852 -1.284551 0.9965816 0.08126392 -0.01488572 2632236 male
-2.419851 0.306738 -1.517216 -0.395276 0.6777214 0.6200409 11771293 male
-2.732531 -0.1012347 -1.445254 -0.9393557 0.1499745 -0.3084134 2434085 male
-2.694285 0.2320546 -1.552588 -0.6390802 0.768739 -0.0248425 9801610 male
-2.63922 0.2691109 -1.517887 -0.3917189 0.9198641 0.02015737 7168861 male
-2.683275 -0.2873696 -1.659955 -0.7644073 -0.09114574 -0.6382587 16771035 male
-2.578993 0.1343335 -1.870152 -0.7380968 -0.2411453 -0.6301289 3551278 male
-2.654593 0.114482 -1.180113 -0.1988767 0.3254931 0.9243931 11445665 male
-2.45884 0.1823229 -1.819539 0.9751172 0.2201905 0.0257476 4868418 male
-2.741594 -0.1209836 -1.493226 -0.9763562 0.1211049 -0.1790599 2499880 male
-2.680661 0.01313119 -1.665376 -0.4227874 -0.179238 -0.888327 6841184 male
-2.744641 -0.02613226 -1.29916 -0.9997051 -0.008520088 0.02275038 1908257 male
-2.609889 0.159463 -1.198832 -0.1564515 0.5732062 0.8043367 9010808 male
-2.645341 0.06947345 -1.566914 -0.08368757 -0.9225265 0.3767509 5591117 male
-2.555181 0.1670596 -1.192719 -0.02731451 0.6110089 0.7911525 9537924 male
-2.674264 -0.2798094 -1.498695 0.8197103 -0.3651112 -0.4413267 2302499 male
-2.458134 0.09595741 -1.271915 0.8004811 0.3843085 -0.4599317 2302758 male
-2.650884 0.117486 -1.360966 -0.3819735 -0.4704458 -0.795473 6970971 male
-2.363363 0.2817748 -1.454511 -0.5557982 -0.8272047 -0.08258905 16773095 male
-2.500014 0.2151892 -1.757151 0.5625559 0.6010972 0.5676383 7432551 male
-2.485526 -0.1396092 -1.448512 -0.6701359 0.2027641 0.7140062 2303529 male
-2.515022 0.1722374 -1.648358 0.9759567 -0.2087391 0.06274486 4473660 male
-2.701512 0.1475734 -1.652547 -0.6138393 0.2005318 -0.7635369 10854812 male
-2.677284 -0.01757455 -1.186536 -0.3054463 -0.74447 0.5936894 4342085 male
-2.482226 0.09554819 -1.278133 0.4776925 0.5000321 -0.722342 2105119 male
-2.685108 -0.3819767 -1.379046 0.9990636 -0.04317721 0.002791464 2170146 male
-2.757758 -0.1860192 -1.541378 -0.9870905 -0.03280589 -0.1567686 2368039 male
-2.701185 0.1892937 -1.33688 -0.9998659 -0.01233801 0.01077509 3552563 male
-2.557678 -0.0305545 -1.197733 -0.4359654 -0.7315189 0.5242273 2105893 male
-2.753328 -0.4030107 -1.376488 -0.810169 0.2413006 0.5342289 2171428 male
-2.625664 0.03632416 -1.634017 0.8566834 -0.5128117 -0.05583799 8090995 male
-2.557696 -0.4475882 -1.420696 -0.8485214 -0.4786569 -0.225609 2566186 male
-2.714314 -0.239628 -1.554422 0.1492896 -0.5050891 -0.8500577 3158072 male
-2.719833 -0.3758787 -1.359213 -0.7573833 0.3613436 0.5438763 3028022 male
-2.391372 0.252792 -1.491569 -0.5001661 -0.8610705 0.09160468 16772327 male
-2.334602 0.245695 -1.345224 -0.3086209 -0.07141733 0.9485004 7957608 male
-2.426725 0.2229451 -1.634001 0.3951735 -0.6619508 -0.6369138 4210488 male
-2.536653 0.1393498 -1.89459 -0.16254 -0.1879387 -0.9686382 4932930 male
-2.561687 0.1013548 -1.569765 0.5879362 -0.7600338 -0.2769109 4209979 male
-2.503405 0.2290309 -1.653722 0.6447761 -0.2828421 -0.7101159 4472892 male
-2.71735 -0.1421749 -1.500145 -0.1082495 0.5994872 0.7930304 3158582 male
-2.462133 0.1565714 -1.252049 0.9280127 0.2554499 0.2711791 4209207 male
-2.414803 0.3233028 -1.581374 0.4520001 0.889065 0.07252149 8880767 male
-2.495066 0.1249209 -1.883668 0.4967331 -0.2848182 -0.8198385 6708568 male
-2.437525 -0.2685113 -1.49344 0.6817474 -0.3882595 -0.6200606 2500395 male
-2.574685 0.2279972 -1.26585 -0.1217719 0.8706622 0.47657 11972262 male
-2.296263 0.3264309 -1.384493 0.8984043 0.1444016 0.4147508 14665154 male
-2.399617 0.2990423 -1.613993 0.8926532 0.2823624 -0.3513433 10787217 male
-2.436665 -0.2516238 -1.502614 0.5922576 -0.3575809 -0.7220576 2303531 male
-2.627012 -0.09119589 -1.381185 0.9810646 -0.09748535 -0.1673591 2697257 male
-2.44646 -0.1130117 -1.386512 0.959631 -0.1332453 0.2476981 1842979 male
-2.503393 -0.1494903 -1.493045 -0.9368493 -0.1877165 -0.2950865 1776412 male
-2.591366 0.1186473 -1.81908 -0.946104 -0.297098 -0.1289195 7891560 male
-2.527863 0.2159898 -1.244709 0.1431807 0.8590233 0.4915061 7892842 male
-2.618361 0.2131794 -1.669321 -0.1610488 0.6484123 -0.7440598 4999236 male
-2.418341 0.2417607 -1.562838 -0.05206875 -0.9750851 -0.2156339 8353909 male
-2.631963 -0.05183363 -1.385969 0.873124 0.1619138 -0.4598247 2829361 male
-2.648172 -0.435899 -1.636214 0.7356344 0.2479087 -0.6303836 16044744 male
-2.716176 0.1728267 -1.299756 -0.8711945 0.4897856 -0.03362179 4868418 male
-2.673539 -0.2931437 -1.48268 0.8937707 -0.302276 -0.3313662 1579032 male
-2.451202 -0.06386169 -1.297501 0.8922536 -0.3473577 0.2884898 2368294 male
-2.747401 -0.1505965 -1.514778 -0.8054811 0.3773922 0.4569196 2104608 male
-2.488347 0.07695355 -1.823566 0.6459837 -0.722338 -0.246846 11574671 male
-2.448159 -0.1057074 -1.378923 0.9800618 -0.1477257 0.132877 1842980 male
-2.609341 -0.06238061 -1.309848 0.9478979 -0.3012714 -0.1035636 2500394 male
-2.469538 0.294135 -1.626832 0.1714286 0.7364555 -0.6544048 6314839 male
-2.751229 -0.2116201 -1.495971 -0.9134598 0.0365968 0.4052804 1777185 male
-2.72208 -0.3676806 -1.428721 -0.818378 0.3638194 -0.4448519 2500646 male
-2.399183 0.2690956 -1.624156 0.9018208 -0.358602 -0.2410894 6184021 male
-2.490939 -0.2488641 -1.491131 -0.6434733 -0.184681 -0.7428561 2697257 male
-2.653428 -0.160009 -1.603314 0.2874866 -0.06261516 0.9557358 13351349 male
-2.626811 0.08315333 -1.454294 -0.1764745 -0.9811428 -0.07883876 6643549 male
-2.689609 -0.3574564 -1.447923 0.6538346 0.1147518 -0.7478853 2500651 male
-2.625767 0.2400005 -1.302751 -0.2661034 0.7398518 0.6179065 7826791 male
-2.580892 0.2237359 -1.803032 -0.748323 0.6555927 0.1010501 4208440 male
-2.449498 0.3182276 -1.602969 0.09838258 0.9930752 -0.06420709 6972770 male
-2.591763 0.2067803 -1.823659 -0.8889254 0.4545624 -0.05643597 4801601 male
-2.553438 0.07873277 -1.807524 0.04368681 -0.9394777 0.3398133 10194054 male
-2.486979 -0.1254128 -1.357018 0.08349256 -0.583497 0.8078122 2960173 male
-2.421648 -0.1492828 -1.483041 0.996996 0.06501823 -0.04209453 2697265 male
-2.49941 0.2790533 -1.430608 0.4283712 0.8293888 0.3586258 5526348 male
-2.611841 0.270237 -1.447661 -0.3850897 0.8924999 0.23484 9735047 male
-2.458391 -0.04166495 -1.256578 0.7982446 -0.4151697 0.4363942 2434085 male
-2.699147 -0.01278269 -1.193996 -0.6451858 -0.5352561 0.5451938 4341059 male
-2.485161 0.2209659 -1.855788 0.6274855 0.6711727 -0.3947015 7037274 male
-2.577729 0.08190567 -1.764208 -0.7216133 -0.6921957 0.01181376 16772063 male
-2.651244 0.03477456 -1.334953 0.3687974 0.6295968 -0.6838102 4212046 male
