# .PCD v0.7 - Point Cloud Data file format
VERSION 0.7
FIELDS x y z normal_x normal_y normal_z rgb label
SIZE 4 4 4 4 4 4 4 4
TYPE F F F F F F U U
COUNT 1 1 1 1 1 1 1 1
WIDTH 248
HEIGHT 1
VIEWPOINT 0 0 0 1 0 0 0
POINTS 248
DATA ascii
1.386214 1.132814 -0.6340841 -0.4831698 -0.4572739 0.7466241 5394258 male
1.390273 0.7571044 -0.7775716 0.9299852 -0.1531993 -0.3341518 2236706 male
1.482182 0.5511902 -0.869515 -0.7162092 -0.3367798 0.6112477 526600 male
1.279144 0.8467956 -0.7363711 -0.9491656 -0.09592867 0.2998039 4672083 male
1.396053 1.14724 -0.6189105 -0.3895331 -0.4735898 0.7899218 6446178 male
1.535001 0.6168021 -0.9297354 0.2513457 0.3214748 -0.9129508 526600 male
1.498092 1.29799 -0.5433152 0.4316195 -0.10284 0.8961744 13616344 male
1.470727 1.201305 -0.5605476 0.1797096 -0.6380001 0.7487725 9670044 male
1.642393 1.436176 -0.4631677 0.8859646 -0.4609011 0.05135107 13806241 male
1.462808 0.8592817 -0.7970102 -0.1032383 -0.1737588 0.9793619 6975617 male
1.266147 0.4549734 -0.7444628 -0.8962049 -0.148508 0.4180456 526600 male
1.644104 1.477797 -0.430306 0.9390378 0.03536713 0.34199 16040647 male
1.48258 1.198341 -0.8310459 0.03987184 0.2324721 -0.9717854 8946576 male
1.463972 1.107496 -0.639958 0.1528074 -0.5997906 0.7854304 12105935 male
1.319682 1.0867 -0.8143689 -0.5973155 0.6352738 -0.4895318 9868199 male
1.324628 0.7046068 -0.8054779 -0.2278778 -0.1527854 -0.961628 8290438 male
1.448441 0.800528 -0.9226501 -0.4457466 -0.1676304 -0.8793235 10461623 male
1.404934 1.252121 -0.5501026 0.9170932 0.02915394 -0.3976056 13679808 male
1.40792 0.2884839 -0.6853002 0.6329052 0.6685811 -0.3904233 526600 male
1.347671 1.327398 -0.5722825 -0.9721305 -0.05161621 -0.2286879 8880520 male
1.555938 1.356851 -0.5062039 -0.5478585 -0.8306869 -0.09904754 9797756 male
1.414308 0.8874015 -0.7323989 0.9229825 -0.1396958 0.3585924 3882307 male
1.639616 0.3014506 -0.8556402 -0.003098086 -0.9525326 -0.3044207 526600 male
1.58035 1.122126 -0.7965754 -0.7963011 0.07565211 -0.600151 3617074 male
1.526472 0.4839953 -0.8903453 0.1001037 -0.3906374 0.9150856 526600 male
1.497526 1.38036 -0.6863313 -0.489379 0.8132452 -0.314866 14012645 male
1.427888 1.318065 -0.7159469 -0.3769739 0.5787975 -0.7231072 13023950 male
1.352764 1.251585 -0.6566604 -0.9875002 0.1293028 -0.09013435 6249575 male
1.453211 0.7512989 -0.8302753 -0.6944008 -0.2347832 0.6802091 4737098 male
1.36592 1.269885 -0.5009786 -0.1294954 -0.2698642 0.954151 15711166 male
1.288905 0.9728076 -0.8464372 -0.7938873 -0.04532926 -0.606373 2631466 male
1.609698 1.251875 -0.6366172 0.697331 -0.3094379 0.646512 12630734 male
1.276527 0.5135117 -0.7230063 -0.5936696 -0.1006913 0.7983844 526600 male
1.366252 1.31844 -0.4849924 -0.3712724 -0.2317711 0.8991323 7433081 male
1.55619 1.349321 -0.4809918 -0.6533958 -0.7452645 0.1328714 10981510 male
1.679337 1.34912 -0.7244271 0.6637244 0.1434885 -0.7340851 6906226 male
1.279281 0.8833665 -0.7283836 -0.8962287 -0.02560039 0.4428531 3355964 male
1.284176 0.6821972 -0.7443748 -0.9496452 0.1195471 0.2896248 526600 male
1.574521 0.6574816 -0.8678974 0.9361321 0.02572205 -0.3507065 526600 male
1.492893 1.37762 -0.6845341 -0.4981291 0.8063533 -0.3188444 14077925 male
1.417533 1.218985 -0.7804033 -0.683628 0.4433695 -0.5797209 10129570 male
1.616909 1.073136 -0.7600355 0.3305185 -0.2555498 0.9085437 16703195 male
1.646481 1.504549 -0.4580686 0.9679543 0.2387661 0.07781535 6184030 male
1.390489 0.9944587 -0.9296656 -0.3978665 0.128852 -0.9083498 3423045 male
1.516058 1.478575 -0.4273538 -0.8447327 -0.1215241 0.5212087 11314087 male
1.575024 0.6304827 -0.8565061 0.9558032 -0.2489484 0.1564124 526600 male
1.660246 1.274913 -0.6877077 0.7243193 -0.2834369 0.6285101 15189440 male
1.535517 0.8582335 -0.9007914 0.8006384 0.08071561 -0.593686 6185839 male
1.374074 1.007051 -0.9178302 -0.5989208 0.1562312 -0.7854207 8225166 male
1.630381 1.294214 -0.6894972 0.3285966 -0.8363284 -0.4388384 855053 male
1.296585 1.01117 -0.8456134 -0.7574313 0.1848556 -0.6261998 10660794 male
1.490492 0.607872 -0.8490017 -0.5936614 -0.1033346 0.7980527 526600 male
1.301629 0.9944872 -0.709622 -0.7634317 0.1075181 0.6368767 7435905 male
1.528778 1.042765 -0.8231533 0.9580983 -0.006281336 0.2863708 10984615 male
1.306219 1.108651 -0.593793 0.1286634 0.6312569 -0.7648271 14336712 male
1.522832 1.511797 -0.4213416 -0.702787 0.2493337 0.6662754 723723 male
1.285379 0.7634202 -0.7587876 -0.9873046 -0.1096238 0.1149447 6052708 male
1.571199 1.328743 -0.564071 0.5787575 -0.7298576 0.3637963 12829399 male
1.596123 1.353389 -0.5878689 0.9475499 -0.3095578 0.07951823 16772071 male
1.361406 0.94809 -0.906377 -0.7152616 -0.6537839 -0.2469161 593161 male
1.348298 0.9904671 -0.6912782 0.1329772 0.1180452 0.9840642 11317693 male
1.550249 0.3435159 -0.922204 -0.6614338 -0.5033288 0.5560265 526600 male
1.558381 0.5352862 -0.9247295 0.814965 -0.07696554 -0.5743765 526600 male
1.545225 1.112463 -0.7537022 0.9028916 -0.4281843 0.03801161 8880527 male
1.368649 0.7436863 -0.8058705 0.6035559 -0.1375959 -0.7853584 3487804 male
1.580359 0.3341808 -0.969384 -0.1658403 -0.9148714 -0.3681132 526600 male
1.665373 1.32076 -0.6468235 0.1733052 -0.6850443 0.7075871 7103089 male
1.394401 0.2853034 -0.6749008 0.04954988 -0.983986 0.1712202 526600 male
1.539686 0.4628751 -0.901279 0.3909193 -0.25683 0.8838668 526600 male
1.50008 0.3760414 -0.9975261 -0.7657099 0.2350099 -0.5987142 526600 male
1.299668 1.07547 -0.6013774 -0.3632436 -0.3362492 -0.868902 16247277 male
1.418747 0.9950072 -0.6071281 -0.2607843 -0.8684379 0.4216717 16240082 male
1.406952 1.263436 -0.555441 -0.5892602 -0.7810589 0.2066868 526600 male
1.616049 1.503552 -0.4001183 0.5411807 0.3532077 0.7631302 526600 male
1.57267 1.245655 -0.6089677 0.4602298 -0.3677825 0.8080374 12232373 male
1.490175 1.271033 -0.5425214 0.4986805 -0.1489065 0.8538997 13153704 male
1.484928 0.6516747 -0.8631844 -0.9643433 0.1580512 0.2122775 526600 male
1.347086 1.000589 -0.6900846 0.09874409 0.06520158 0.9929744 10595247 male
1.406367 1.251038 -0.5304759 0.9342721 -0.06416301 0.3507403 13869223 male
1.531543 1.42788 -0.5806457 -0.4491422 0.6787912 -0.5809593 16771544 male
1.329241 0.5215418 -0.7309679 0.8679787 -0.1148217 0.4831448 526600 male
1.361239 1.146364 -0.7888932 -0.6773266 0.4040609 -0.6147875 12696273 male
1.350737 1.099297 -0.5838397 0.4866341 0.838464 -0.2452865 15845323 male
1.406809 1.307347 -0.5333992 0.1068478 -0.967707 -0.2283124 526344 male
1.302218 0.4487289 -0.7216232 0.1105505 -0.1236252 0.9861518 526600 male
1.510428 0.8844424 -0.8015168 0.4410863 0.0148747 0.8973414 7436171 male
1.262941 0.5913395 -0.7405052 -0.8552508 0.1894877 0.4823281 526600 male
1.373372 0.7052566 -0.7143772 0.6726525 -0.1586192 0.7227576 6055025 male
1.642533 1.472055 -0.4261879 0.9215622 -0.01454252 0.3879583 15713222 male
1.312426 1.105226 -0.767862 -0.7238652 0.6846916 -0.08495066 9341595 male
1.565945 1.412976 -0.6519077 -0.01226296 0.9947035 -0.1020515 10196387 male
1.384325 1.322757 -0.4742533 -0.05955389 -0.2401844 0.9688988 6907761 male
1.44431 0.7958423 -0.8227475 -0.5594434 -0.3096687 0.7688487 2632236 male
1.612829 0.9018976 -0.8628477 0.5775284 -0.5736443 0.5808556 9076610 male
1.530679 1.114773 -0.6811925 0.6479015 -0.5472733 0.5298259 16645117 male
1.496427 0.7273458 -0.8092636 -0.2724551 -0.2874274 0.9182341 5066837 male
1.302534 0.6603233 -0.7220014 -0.5728548 0.07604352 0.8161218 526600 male
1.530579 0.5797989 -0.9392854 0.1974671 0.1526266 -0.9683552 526600 male
1.551182 1.475826 -0.394581 -0.5028926 -0.01875287 0.8641455 9275016 male
1.271943 0.5967006 -0.7977421 -0.6366232 0.2204676 -0.7389891 526600 male
1.444904 0.7368509 -0.8683804 -0.9669733 -0.1898975 -0.170005 5132630 male
1.444647 1.317073 -0.4955272 0.6523954 0.1776719 0.7367584 15130350 male
1.48909 0.5805605 -0.9266235 -0.6995017 0.1132718 -0.7055969 526600 male
1.527727 0.406045 -0.9752253 -0.08711129 0.1764997 -0.9804385 526600 male
1.41684 1.298277 -0.5223268 0.2516739 -0.9583218 0.1352023 1184277 male
1.321639 0.4640053 -0.7797394 0.7686243 -0.2220547 -0.5999236 526600 male
1.581677 1.092372 -0.771103 -0.8239299 -0.1998233 0.5302925 12955829 male
1.574469 1.1624 -0.7056308 0.8703949 -0.4661963 0.1583471 10131112 male
1.50846 0.5624886 -0.850481 -0.1069759 -0.3200615 0.9413378 526600 male
1.443145 1.107717 -0.885457 -0.1020756 0.7296412 -0.6761689 7564923 male
1.608074 1.549655 -0.5144235 0.5344529 0.6526791 -0.537001 5591125 male
1.396676 1.220401 -0.5328235 0.9235158 -0.1202194 0.3642332 15380401 male
1.625258 1.547864 -0.4825572 0.7545272 0.6465498 -0.1125261 4276805 male
1.64606 1.445329 -0.465606 0.9891756 -0.1465441 -0.007517248 15647935 male
1.319081 0.7495021 -0.8131304 -0.315997 -0.1580107 -0.9355097 7107453 male
1.283227 0.5656979 -0.7160241 -0.477044 0.05480672 0.8771688 526600 male
1.362729 1.185377 -0.6339259 -0.8457467 -0.1947253 0.4967843 6052448 male
1.394963 1.170686 -0.7968721 -0.5669569 0.4462571 -0.6923977 9604250 male
1.30555 0.7607994 -0.7104934 -0.7274863 -0.2023043 0.6556192 3948100 male
1.393493 0.9459458 -0.9351375 -0.4296137 -0.3181381 -0.8451155 10133682 male
1.523832 1.555437 -0.4790744 -0.6684706 0.7423759 -0.04500091 526344 male
1.629161 1.393878 -0.512763 0.8715534 -0.3453666 -0.3480182 14201515 male
1.536787 0.9261303 -0.8479918 0.9657835 0.2383647 0.1021981 2566444 male
1.439694 0.924121 -0.775472 0.6121815 -0.77385 -0.1624495 7698310 male
-2.473897 0.3683285 -1.399456 0.8530872 -0.2193915 -0.4734023 5393995 male
-2.564512 -0.03789106 -1.383269 -0.8071371 -0.1595095 -0.5684072 1908771 male
-2.648477 -0.03607674 -1.405855 0.8880953 -0.2604188 -0.3787732 2499878 male
-2.461901 0.0953926 -1.324617 0.8554513 -0.1495566 0.4958187 2368036 male
-2.446925 0.4344527 -1.4034 0.8661756 -0.3332779 -0.3723789 4603195 male
-2.753335 -0.1533375 -1.336701 -0.6636392 0.1374079 0.7353247 2499881 male
-2.489305 0.5496601 -1.488585 0.1184762 -0.08829314 -0.9890238 16245693 male
-2.44672 0.6601725 -1.442471 0.3394606 0.4949126 -0.7998927 7629415 male
-2.499999 0.7391279 -1.594132 -0.2474367 -0.1287312 -0.9603144 14400434 male
-2.618236 0.1275083 -1.415912 0.7959901 -0.139313 -0.5890602 2828334 male
-2.483389 -0.3726748 -1.363706 0.8886938 0.04990315 -0.4557777 1973534 male
-2.49768 0.8214324 -1.628419 -0.3069779 0.1645414 -0.9373853 6709083 male
-2.665718 0.396222 -1.309802 -0.5070544 -0.005909785 0.8618939 8616822 male
-2.554534 0.2784336 -1.443126 0.4361241 -0.1491503 -0.8874403 8813943 male
-2.531744 0.3782568 -1.287859 0.1218194 0.03548649 0.9919178 7761000 male
-2.54687 -0.03213658 -1.307228 -0.4751126 -0.1459878 0.8677303 3158840 male
-2.6905 0.03376552 -1.319795 -0.06689534 -0.217768 0.9737056 3354677 male
-2.3354 0.5672977 -1.304556 -0.1631729 -0.774857 -0.6107137 16773095 male
-2.510154 -0.4446662 -1.40243 -0.9046469 -0.04170777 -0.4241166 2828587 male
-2.45551 0.4875473 -1.445818 0.72382 -0.3472549 -0.5962373 5656909 male
-2.48812 0.6873013 -1.510724 0.3956245 -0.826226 0.4010386 11904668 male
-2.570083 0.1337933 -1.418112 -0.54252 -0.1826344 -0.8199495 2302246 male
-2.721111 -0.4139672 -1.481792 0.9556684 0.2734753 -0.1091305 1907997 male
-2.769674 0.3819572 -1.348621 0.5091525 -0.4991007 0.7011864 6445145 male
-2.721593 -0.3349342 -1.374237 0.9986861 -0.03345942 0.03881812 2105636 male
-2.569875 0.6127158 -1.327055 -0.07821368 0.4482931 0.8904585 8814200 male
-2.547123 0.5835353 -1.30819 -0.3131555 0.2852812 0.9058414 7037535 male
-2.504703 0.4492883 -1.465827 0.378794 -0.1521935 -0.9128815 7763054 male
-2.641266 0.07507081 -1.431522 0.7245961 -0.1462199 -0.6734837 2632236 male
-2.305868 0.5855114 -1.302784 0.5582972 -0.1731963 -0.8113616 15190973 male
-2.538156 0.18469 -1.252913 0.1463019 -0.2844091 0.9474743 4079684 male
-2.613044 0.5865089 -1.507395 -0.0008832812 0.03436209 -0.9994092 8024681 male
-2.476275 -0.2380204 -1.36608 0.6643532 -0.1067002 -0.7397636 2303275 male
-2.361237 0.6801391 -1.362962 0.7167934 0.6768526 0.1675645 9539200 male
-2.494185 0.6667024 -1.53405 0.04800808 -0.9357699 0.349328 12235946 male
-2.708686 0.6906196 -1.440649 -0.563104 0.7994977 0.2090873 9011576 male
-2.45764 0.1224738 -1.324886 0.8988374 -0.1034433 0.4259005 2170913 male
-2.474525 -0.08326985 -1.342854 0.9992805 -0.01163165 -0.03610283 2500142 male
-2.721766 -0.1101465 -1.434518 -0.1426684 -0.4150079 -0.8985624 2828332 male
-2.580166 0.5958298 -1.318549 -0.0485698 0.341308 0.9386958 7563627 male
-2.653301 0.381263 -1.304633 -0.3677268 0.0205091 0.9297079 10195345 male
-2.716709 0.4768271 -1.335651 0.836816 -0.3893567 0.3848904 14469317 male
-2.520818 0.8407748 -1.612229 -0.5511311 0.3142975 -0.772963 3222825 male
-2.682563 0.4047333 -1.417904 -0.8169679 0.05892466 -0.573665 3420977 male
-2.413224 0.8133672 -1.543018 0.9890921 -0.07057761 0.1292898 5919050 male
-2.683715 -0.1647571 -1.396504 0.7793869 -0.03624925 -0.6254936 2631464 male
-2.676904 0.6298231 -1.474837 0.204713 -0.5173587 -0.8309228 8551289 male
-2.747804 0.07015616 -1.419707 -0.9203487 -0.0515854 -0.3876821 2697257 male
-2.709561 0.2348484 -1.286317 -0.7453643 0.1059592 0.6581831 8089971 male
-2.661673 0.5787734 -1.483917 -0.6733096 -0.6600797 -0.3330902 5197127 male
-2.553246 0.2320341 -1.243663 0.03523269 -0.05170036 0.9980412 10920094 male
-2.653407 -0.04708437 -1.407761 0.8615559 -0.2740511 -0.427338 2302502 male
-2.452028 0.2087635 -1.366709 0.9872911 0.07403484 -0.1406255 2434597 male
-2.656882 0.2813787 -1.433806 -0.2568379 -0.03169352 -0.9659349 5722703 male
-2.296444 0.5424911 -1.19103 -0.9162826 -0.0348453 -0.3990141 16575460 male
-2.423774 0.8663087 -1.537862 0.8752328 0.4743576 0.09461868 4340793 male
-2.502263 0.007088282 -1.303634 0.4970585 -0.1518321 0.8543302 2434086 male
-2.475682 0.679267 -1.448159 0.9653428 0.02891755 -0.2593788 4472636 male
-2.654938 0.6909199 -1.406408 -0.3976303 0.8423586 0.3637611 10854812 male
-2.635889 0.1785486 -1.278945 0.4537509 -0.6304721 0.6297739 4605254 male
-2.460858 0.1853148 -1.318334 0.9148086 0.01921015 0.4034308 2631465 male
-2.735371 -0.3879089 -1.429995 0.8524328 0.4825903 -0.2011596 3025971 male
-2.750848 -0.2057385 -1.336535 -0.5839689 -0.1255641 0.8020065 2828331 male
-2.486142 0.5356048 -1.486812 0.1378139 -0.1410863 -0.9803583 13088159 male
-2.577714 0.1319621 -1.28836 -0.5434141 -0.2971775 0.7851031 2105893 male
-2.805312 -0.4242462 -1.409794 -0.933663 0.003023797 0.3581405 2171428 male
-2.670265 0.61219 -1.451822 -0.3373142 -0.9078521 -0.2490458 723723 male
-2.501175 -0.4577309 -1.397809 -0.477064 -0.863102 -0.1657255 1973790 male
-2.72392 -0.3466687 -1.386519 0.9843339 0.1750024 0.02148217 1776155 male
-2.754788 -0.3619228 -1.352955 -0.6914318 -0.04780455 0.7208586 3355702 male
-2.29974 0.5517612 -1.183594 -0.9389584 -0.02951351 -0.3427631 16772327 male
-2.238728 0.4901554 -1.184888 0.9532856 -0.1645394 0.2533251 16374232 male
-2.446778 0.5146157 -1.46113 0.6082619 -0.5266848 -0.5938188 4735807 male
-2.46354 0.8328719 -1.627751 0.2358576 0.322894 -0.9165757 10459279 male
-2.560995 0.5408571 -1.496738 0.3954586 -0.1731276 -0.9020197 15127214 male
-2.48374 0.5201197 -1.483285 0.1721246 -0.2980555 -0.9389016 7498084 male
-2.697586 -0.1533891 -1.330379 0.4365749 0.09506333 0.8946316 2631464 male
-2.514086 0.2294223 -1.420172 0.3556696 0.1973099 -0.9135472 1776668 male
-2.353941 0.5819122 -1.34425 -0.0718741 -0.7294455 -0.6802526 8550513 male
-2.436507 0.8418205 -1.606086 0.6873564 0.3968378 -0.6083266 6708568 male
-2.518086 -0.2880248 -1.363572 -0.421907 -0.05529923 -0.9049513 2697257 male
-2.549679 0.3720718 -1.286863 0.03688598 0.109686 0.9932818 9866629 male
-2.246256 0.468223 -1.220929 0.7338594 0.1831771 -0.6541383 15715773 male
-2.393543 0.6137418 -1.380584 -0.2684714 -0.8590315 -0.4358761 8025202 male
-2.512864 -0.2490792 -1.368514 -0.3312225 -0.0481409 -0.942324 2696745 male
-2.721801 0.1356449 -1.445469 -0.6066242 0.1089334 -0.7874902 3025971 male
-2.466251 -0.1429096 -1.335678 0.9882601 0.1407982 -0.05931318 2565671 male
-2.465831 0.003629349 -1.382035 0.9278919 -0.3011397 -0.2198449 3027254 male
-2.497375 0.7998474 -1.629848 -0.3050103 -0.07153935 -0.9496585 7431009 male
-2.499653 0.2214114 -1.268236 0.6668072 0.003793603 0.7452209 10459278 male
-2.57467 0.7209222 -1.428021 0.01182937 0.9328481 0.3600757 4079417 male
-2.388836 0.6875712 -1.378593 0.2904501 0.9263318 0.2398919 11906725 male
-2.614201 0.08795884 -1.382337 0.9543977 -0.2638378 -0.1396956 12368575 male
-2.853241 0.2776444 -1.395091 -0.9980015 -0.06319274 0.0003272891 13940910 male
-2.652151 0.3453864 -1.440593 -0.529047 -0.1652774 -0.8323418 6446679 male
-2.67024 -0.1070637 -1.389305 0.9289036 -0.326881 -0.174032 1579032 male
-2.472949 -0.1209362 -1.355105 0.9644275 0.0525474 -0.2590725 2698288 male
-2.696317 -0.100166 -1.343058 0.5027369 0.2249908 0.8346466 2828846 male
-2.417308 0.8412286 -1.568229 0.9331108 0.266698 -0.2411985 3749169 male
-2.463125 -0.1660548 -1.320827 0.9805309 0.1238207 0.152407 2237737 male
-2.703709 -0.008552181 -1.333594 -0.2362345 -0.1283827 0.9631777 2237737 male
-2.415387 0.5480353 -1.427989 0.8218898 -0.5526561 0.138089 4801601 male
-2.733989 -0.2094417 -1.329901 -0.187207 -0.1574912 0.9696136 3224375 male
-2.781325 -0.3824496 -1.398207 -0.9750282 0.2079743 -0.07788986 3157296 male
-2.391841 0.6059554 -1.425515 0.4880659 -0.7716817 -0.4077981 7103588 male
-2.545135 -0.2720955 -1.324885 -0.9755507 -0.1860447 0.1169988 1907229 male
-2.751479 0.4016777 -1.364291 0.8953437 -0.3832219 -0.2269379 16770014 male
-2.62792 0.4714997 -1.472303 -0.4342884 -0.1725819 -0.8840867 6117461 male
-2.64636 0.007240874 -1.421979 0.8491089 -0.1442758 -0.5081328 2698289 male
-2.6717 0.327517 -1.282585 -0.3270357 0.4557493 0.827853 8090221 male
-2.538234 0.8826622 -1.555585 -0.7103692 0.6724957 -0.2076666 5327945 male
-2.372604 0.5898337 -1.349399 -0.4484311 -0.7963611 -0.4058555 6906205 male
-2.528411 0.871367 -1.585555 -0.5771688 0.582956 -0.5718729 5196100 male
-2.530463 0.7586552 -1.592856 -0.5131801 -0.2847158 -0.8096809 15193030 male
-2.571551 -0.05735382 -1.338045 -0.9237138 -0.1186951 0.3642313 2303275 male
-2.464042 -0.1711227 -1.346971 0.9502724 0.08275685 -0.3002231 3224633 male
-2.432727 0.4706967 -1.359723 0.9538318 -0.2451895 0.1734568 4407099 male
-2.573774 0.4269977 -1.293804 -0.3459671 0.06195347 0.9361992 9603460 male
-2.476815 -0.05502547 -1.351663 0.9974328 -0.04042158 -0.05911106 2697265 male
-2.65541 0.186784 -1.264931 0.03433681 -0.5706754 0.8204576 1645858 male
-2.455703 0.8880634 -1.507033 0.4513747 0.7621444 0.4641088 4406587 male
-2.530715 0.7138049 -1.57202 -0.5998386 -0.4479536 -0.6629718 16705245 male
-2.735656 0.1787572 -1.42349 -0.814621 0.1686209 -0.5549414 2303275 male
-2.58235 0.1847776 -1.432499 0.2775173 -0.7295516 -0.6250911 3750720 male
