# .PCD v0.7 - Point Cloud Data file format
VERSION 0.7
FIELDS x y z normal_x normal_y normal_z rgb label
SIZE 4 4 4 4 4 4 4 4
TYPE F F F F F F U U
COUNT 1 1 1 1 1 1 1 1
WIDTH 254
HEIGHT 1
VIEWPOINT 0 0 0 1 0 0 0
POINTS 254
DATA ascii
1.34137 0.2057765 -1.310848 0.3705636 0.9181205 0.1404898 12828372 male
1.344687 0.3185179 -1.082797 -0.42288 0.8884594 -0.1783603 7042435 male
1.736032 0.3036407 -1.124377 0.9316649 0.275734 0.2365827 526600 male
1.383697 0.2120065 -1.047396 0.4287745 -0.6764207 0.5988385 7764103 male
1.333793 0.1873587 -1.271231 -0.1820907 0.9828517 -0.02907816 3420980 male
1.665301 0.3082417 -1.25714 0.7076809 -0.2176314 -0.6721786 526600 male
1.372221 0.0420575 -1.391358 0.2008568 -0.7550156 -0.6241859 7564667 male
1.298721 0.02536144 -1.290867 -0.3936774 -0.9149987 -0.08829296 5395811 male
1.331897 0.574164 -1.516845 0.5193173 -0.3322863 -0.7873343 12492693 male
1.521562 0.2444494 -1.24842 -0.3767742 0.8706459 -0.3162543 9607331 male
1.466075 0.3699624 -0.9110546 0.7225521 0.6476402 0.2418279 526600 male
1.322339 0.636676 -1.527337 0.6154808 0.2285541 -0.7542854 15322318 male
1.339688 0.3381299 -1.389142 0.5638987 0.2851621 0.7750489 14655704 male
1.404287 0.1243327 -1.342025 0.4479942 0.7848955 -0.4280659 12037567 male
1.261985 0.08887568 -1.163716 -0.7555324 -0.37981 0.5337744 4408139 male
1.404845 0.3675739 -1.002754 0.1497732 -0.5948451 -0.789764 526600 male
1.544922 0.1040164 -1.275231 0.7235222 -0.4472015 -0.5258578 3224374 male
1.201412 0.4369844 -1.314442 0.7636777 0.4915558 0.4185323 8286841 male
1.630507 0.2540561 -0.7806589 -0.5896882 0.8040872 0.07557534 526600 male
1.306109 0.380668 -1.362476 0.6989817 0.4859827 0.5246382 16711341 male
1.342679 0.4742457 -1.454798 0.9700756 -0.06771348 0.2331702 15386054 male
1.395844 0.2364298 -1.148184 0.7024586 0.476043 -0.5290889 3026230 male
1.760879 0.1863505 -0.8930891 0.3756013 0.5851477 -0.7186973 526600 male
1.553534 0.2610887 -1.409845 0.9190485 -0.1393625 -0.3686843 13736335 male
1.73776 0.227769 -1.066887 -0.8123072 0.4499374 0.3710975 526600 male
1.283615 0.18455 -1.512065 -0.318682 -0.5814774 -0.7485492 7893632 male
1.171853 0.4186179 -1.480124 -0.7719656 0.3390863 -0.5376705 13618911 male
1.138335 0.4260159 -1.400911 -0.8676313 0.4740046 -0.1501182 11249334 male
1.763937 0.2543152 -1.051056 -0.5075786 0.8211946 0.2607745 526600 male
1.291014 0.4706067 -1.159542 0.6579087 -0.7243954 -0.2059308 1051656 male
1.248971 0.07194269 -1.349234 -0.5759262 -0.7076926 -0.4092432 9539230 male
1.595492 0.2963807 -0.729992 0.8858141 -0.3066337 -0.3482945 526600 male
1.341822 0.3882732 -0.996035 -0.7381711 -0.6122809 -0.2832234 526600 male
1.128835 0.4011287 -1.349798 -0.926008 -0.3566679 -0.123681 9078934 male
1.378348 0.6210529 -1.434965 0.7447041 0.4890565 0.454136 14002603 male
1.509342 0.3338082 -1.466264 0.7978895 0.07043165 -0.598675 15250605 male
1.309976 0.2150038 -1.209248 -0.2535267 0.7048119 -0.6625438 8358296 male
1.172312 0.2417535 -1.105396 0.6207688 -0.4484049 0.6431012 16567753 male
1.609753 0.3043457 -1.191735 -0.4758414 -0.3106477 0.8228445 789260 male
1.272468 0.1710194 -1.497501 -0.4319018 -0.5968966 -0.6761475 9143699 male
1.243502 0.1951414 -1.484263 -0.8130012 -0.4122977 -0.4111443 11774654 male
1.538785 0.2695639 -1.395496 -0.7352583 -0.05187792 -0.6757987 16041157 male
1.299737 0.4985251 -1.510553 -0.08570683 -0.1829951 -0.9793707 16768472 male
1.225262 0.2711772 -1.51366 -0.7641711 -0.3436455 -0.5458483 9998752 male
1.218997 0.6358666 -1.428717 -0.4651528 0.3153213 0.827167 9933206 male
1.620755 0.2427622 -1.210499 0.3203652 -0.9133205 0.2514192 657932 male
1.474628 0.4377422 -1.385224 -0.4067832 0.5007751 0.7640365 11377050 male
1.517301 0.2757741 -1.423521 0.1692327 -0.9500221 -0.2623324 16368828 male
1.231826 0.293111 -1.529847 -0.7734464 -0.2275643 -0.591604 11907523 male
1.385302 0.2471646 -1.50356 0.9138214 -0.1738046 -0.3670457 198147 male
1.216095 0.2335974 -1.476096 -0.5814619 -0.5118394 -0.6323941 12300999 male
1.721731 0.3394614 -1.143988 0.4471396 0.6525279 0.611779 526600 male
1.248043 0.1658487 -1.181053 -0.9160814 0.3385418 0.2149051 3552566 male
1.330835 0.2903285 -1.339266 0.6575226 0.4770435 0.5831753 15200989 male
1.202231 0.346836 -1.214236 0.944257 0.3069619 0.1189663 13081503 male
1.193408 0.6495407 -1.458902 -0.7297502 0.5120767 0.4530367 526600 male
1.426337 0.3616938 -0.9898983 0.4036886 -0.4915918 -0.7716041 526088 male
1.526854 0.2999911 -0.8072012 0.2401784 0.2562923 -0.9362844 526600 male
1.329127 0.4502313 -1.554353 0.4437183 0.8366023 -0.3212641 4539469 male
1.430002 0.1234723 -1.30771 -0.3148662 0.4475693 -0.8369833 12567509 male
1.257 0.1690115 -1.150902 -0.924718 0.2066047 0.3197048 4802899 male
1.821446 0.1999822 -0.9666245 -0.7038918 0.2608095 0.6606927 526600 male
1.705249 0.3645338 -1.25907 0.7989053 -0.2478701 -0.5480061 526600 male
1.273599 0.0650469 -1.370495 -0.5322237 -0.71072 -0.4600162 13156561 male
1.339136 0.08780963 -1.12079 0.09754312 -0.5551742 0.8259945 7106423 male
1.875098 0.1515395 -1.00089 0.3846912 -0.7291347 -0.566017 526600 male
1.504944 0.334976 -1.428762 0.2148344 0.9356713 0.279938 15910602 male
1.601342 0.280444 -0.7363752 -0.5810142 0.661414 0.4742933 526600 male
1.719445 0.2403787 -1.076675 -0.8084992 0.3827953 0.4469864 526600 male
1.790628 0.1920962 -1.045874 -0.8176609 0.5523625 0.1622538 526600 male
1.216006 0.3845338 -1.266283 0.9942716 0.1037633 -0.0256311 13282996 male
1.217596 0.3508455 -1.148461 -0.7437055 0.6531821 -0.1423213 16570586 male
1.274972 0.4136343 -1.363967 0.5510804 0.6437766 0.530907 13089477 male
1.248181 0.6702494 -1.53747 -0.1417714 0.6706203 -0.7281272 526600 male
1.66132 0.2671159 -0.7763109 0.8488342 -0.1571054 -0.5047757 526600 male
1.295989 0.05406172 -1.375027 -0.5132678 -0.712651 -0.47821 10064548 male
1.70953 0.3928183 -1.239354 0.9604591 0.2343284 0.1503611 526346 male
1.192047 0.1382866 -1.295029 -0.9924965 0.07922423 0.09313554 5130835 male
1.308575 0.4336607 -1.178373 0.7753383 -0.6251957 -0.0893352 6773854 male
1.251179 0.4939039 -1.458762 -0.992853 -0.0203816 0.1175908 16368565 male
1.388663 0.4120262 -0.9185236 -0.2922083 0.2830016 0.9135231 526600 male
1.244687 0.06341355 -1.215791 -0.7648506 -0.5013095 0.4045891 6514035 male
1.138587 0.3038903 -1.146301 -0.6500853 0.723748 0.231469 15053224 male
1.169397 0.4178767 -1.269771 -0.1681598 0.8423048 0.5120986 16106433 male
1.385264 0.4257662 -0.9263703 -0.1634774 0.4518846 0.8769695 526600 male
1.508823 0.2390144 -1.221769 -0.6285952 0.7526867 0.1957823 5921892 male
1.186896 0.3415167 -1.271663 0.5069746 -0.7719253 -0.3835467 3486257 male
1.430538 0.4032303 -1.000032 0.7503707 0.1772316 -0.6368145 526600 male
1.31228 0.6862831 -1.48305 0.4706504 0.8745161 -0.1170886 13212564 male
1.196265 0.1182815 -1.267549 -0.9501638 -0.1648773 0.264583 6841712 male
1.269304 0.4599891 -1.525191 -0.7660723 0.3449577 -0.5423443 7565691 male
1.141752 0.4064274 -1.286048 -0.8668264 0.2959521 0.4012784 16241104 male
1.59173 0.325165 -1.216447 -0.4489095 0.8358724 0.3159075 591881 male
1.515812 0.5472512 -1.370549 -0.4198382 0.04199501 0.9066269 1051664 male
1.133665 0.3476855 -1.398289 -0.9539357 -0.2896494 0.07816634 10262180 male
1.729817 0.3194062 -1.130708 0.7125884 0.5183823 0.4727553 526600 male
1.347677 0.1415371 -1.078373 -0.04517311 -0.6552389 0.75407 7436676 male
1.682431 0.3711126 -1.2473 0.8622892 0.3391688 -0.3760609 526344 male
1.31204 0.6516023 -1.425291 0.3441862 0.7552436 0.5578018 14333609 male
1.166167 0.3561716 -1.313075 -0.01558542 -0.9215254 -0.3880053 12622999 male
1.52234 0.0684709 -1.213148 0.6979865 -0.6690214 0.2553922 12830671 male
1.364605 0.05703541 -1.40928 0.1012129 -0.5808374 -0.8077028 6249063 male
1.700225 0.4063187 -1.215909 0.2585129 0.6384082 0.7249869 526600 male
1.793983 0.1872283 -1.06231 0.0685243 -0.6287518 -0.774581 526600 male
1.187702 0.3898556 -1.229602 0.1920447 0.8912438 0.410857 16633289 male
1.304738 0.2643209 -1.072962 -0.8412472 0.2987386 0.4506199 3224642 male
1.543308 0.3010429 -1.43686 0.8064259 0.1912883 -0.5595409 16106939 male
1.289466 0.4731507 -1.421375 -0.07328418 0.1291477 0.9889137 16044240 male
1.739436 0.2896903 -1.123512 0.99822 -0.0137638 0.0580295 526600 male
1.254956 0.2812226 -1.545601 -0.6140521 -0.3470925 -0.708849 11776194 male
1.245633 0.5447322 -1.529487 -0.05453417 -0.7244915 -0.6871231 14471896 male
1.21407 0.4018204 -1.28342 0.9443537 0.3191191 0.07974371 14002860 male
1.255706 0.5625626 -1.543527 0.03854617 -0.5838328 -0.8109583 14933987 male
1.291975 0.5576001 -1.533014 0.944227 0.09006001 0.3167405 9922145 male
1.354237 0.3629 -1.016851 -0.2892843 -0.9512714 0.1067588 526600 male
1.394249 0.08146197 -1.188693 0.9573383 0.2837522 -0.05466184 526600 male
1.301903 0.2288145 -1.305588 0.2135666 0.4182657 0.8828608 9143700 male
1.186592 0.3674418 -1.501955 -0.4976641 0.01629868 -0.8672167 14210529 male
1.350737 0.1515802 -1.071124 -0.04017231 -0.6642723 0.7464104 10331578 male
1.491129 0.1032652 -1.310588 0.454742 -0.1161457 -0.8830174 3948099 male
1.189891 0.5579046 -1.481631 -0.8139365 -0.5808587 0.01051453 9735828 male
1.387443 0.5782778 -1.446989 0.9016249 0.01916477 -0.432094 12097940 male
1.542684 0.2636572 -1.191866 -0.6197828 0.6108368 0.4926943 4144964 male
1.371547 0.2402541 -1.358519 0.7660112 0.3396665 0.5457596 16580348 male
1.844265 0.1673434 -0.9893194 -0.3552513 -0.4761001 0.8044409 526600 male
1.48698 0.3062672 -1.409517 -0.6696258 0.323213 0.6686811 12162974 male
1.417581 0.2195985 -1.097484 0.9883837 -0.1377098 -0.06429568 3223859 male
1.431429 0.3952177 -0.9082785 0.3120381 0.5690299 0.7608135 526600 male
1.343515 0.1916457 -1.518158 0.345 -0.5960174 -0.725078 3947842 male
-2.526051 0.3545138 -1.437634 0.8162603 -0.5582827 -0.1484579 5328969 male
-2.605816 0.04694428 -1.380079 -0.3041824 -0.02969509 -0.9521509 2434859 male
-2.719068 -0.3060417 -1.331594 0.9890214 -0.09439414 -0.113695 1644826 male
-2.597898 0.1149468 -1.226911 0.2008119 -0.2985585 0.933026 1908003 male
-2.55212 0.3262691 -1.433978 0.6756679 -0.6640016 -0.320273 5788495 male
-2.759769 -0.1025844 -1.291305 -0.1743495 0.2007645 0.964 2434859 male
-2.516901 0.5702043 -1.573692 0.6364953 0.1879402 -0.7480326 4866370 male
-2.532379 0.4119037 -1.549846 0.3205422 -0.6408939 -0.6975011 7433065 male
-2.575726 0.633653 -1.758622 -0.6207764 -0.3575655 -0.6976989 14929599 male
-2.690994 0.05123839 -1.325962 0.9924589 -0.1147568 -0.04308575 1842205 male
-2.534928 -0.336363 -1.35823 0.8035096 0.04148909 -0.5938444 2368811 male
-2.580626 0.6737427 -1.770057 -0.7439144 -0.05837457 -0.6657207 14929606 male
-2.745342 0.4294031 -1.398061 -0.8634192 0.2416214 0.4428617 9866633 male
-2.612557 0.2760662 -1.430933 0.361697 -0.7196079 -0.5927393 8090994 male
-2.625154 0.3318494 -1.254084 0.01971263 0.6718892 0.7403895 8090477 male
-2.619519 -0.1224137 -1.304947 -0.8951721 -0.08139042 0.4382271 2302243 male
-2.786689 0.00488312 -1.293083 -0.7688817 -0.2604044 0.5839612 2235940 male
-2.449218 0.4934986 -1.576709 -0.7039782 -0.5955936 -0.386889 7301223 male
-2.515395 -0.4636739 -1.417671 -0.1136812 -0.9923926 -0.04726023 591881 male
-2.474431 0.4583479 -1.514815 0.8046513 -0.5078199 0.3076614 4867137 male
-2.529181 0.5524582 -1.678354 0.640663 -0.7582356 -0.1209539 13416877 male
-2.582306 0.1253636 -1.379969 0.157236 0.1010908 -0.9823736 3421756 male
-2.653467 -0.4520328 -1.470529 0.9619284 -0.2532968 -0.1026393 2631464 male
-2.541988 0.3037309 -1.76747 0.7622464 -0.2465198 0.5985053 13020845 male
-2.72556 -0.2068114 -1.360831 0.6715935 -0.00114955 -0.7409191 2500137 male
-2.688645 0.5887012 -1.518634 -0.3086855 0.8914695 0.3316556 9932935 male
-2.616543 0.5797495 -1.476629 -0.317269 0.8205922 0.4753619 8288882 male
-2.487977 0.4523011 -1.430198 0.9219762 -0.2329949 0.3093115 2894378 male
-2.704075 0.05123727 -1.373173 0.8501361 -0.02408054 -0.5260124 3091249 male
-2.376805 0.4983307 -1.551382 0.8659445 0.1977504 0.4593858 9670535 male
-2.674187 0.2720198 -1.2228 -0.2022724 0.2912771 0.9350101 9209213 male
-2.625159 0.5218198 -1.618096 0.2633909 -0.05416618 -0.9631674 6971997 male
-2.536749 -0.212307 -1.285271 0.7909029 -0.05328399 0.6096177 2368292 male
-2.433727 0.4972413 -1.596186 -0.4883295 -0.04571648 -0.8714612 8221806 male
-2.520959 0.5478162 -1.703829 0.2156008 -0.93531 0.2805557 11839899 male
-2.751316 0.5017582 -1.618862 -0.8777812 -0.4414001 0.1861892 3552302 male
-2.626174 0.1859914 -1.375732 0.08195376 -0.09592563 -0.9920092 2895152 male
-2.690191 0.1801549 -1.272695 -0.7869362 -0.5838698 -0.1995689 526600 male
-2.764669 -0.06772318 -1.392422 -0.623826 -0.0745454 -0.7780002 3289397 male
-2.703686 0.5809839 -1.515973 -0.4155526 0.8592668 0.2982897 10459794 male
-2.639498 0.5532637 -1.444937 -0.1319148 0.7154211 0.6861278 8353652 male
-2.55981 0.3401138 -1.815401 -0.4839987 0.7293648 -0.4835001 15717309 male
-2.596164 0.6994797 -1.74682 -0.8639385 0.1309049 -0.4862866 8090995 male
-2.758453 0.2623231 -1.233158 -0.442933 0.2491771 0.8612324 11116701 male
-2.46814 0.7138149 -1.692691 0.9454697 0.2829391 0.1613464 3881270 male
-2.734185 -0.06625376 -1.399371 0.2418098 -0.1522597 -0.9583034 4278352 male
-2.642671 0.4920437 -1.677627 0.844154 0.5085025 -0.1697926 6578779 male
-2.827493 0.09664658 -1.325383 -0.9853444 -0.1692704 0.02107972 1908257 male
-2.730325 0.2822285 -1.232399 -0.1606566 0.3856852 0.9085354 10129547 male
-2.73907 0.4303783 -1.515205 -0.8304216 -0.2736963 -0.4852738 3946035 male
-2.632689 0.2769456 -1.218463 0.05512434 0.3548133 0.9333107 9339773 male
-2.72509 0.03579757 -1.395427 0.4734923 -0.06616757 -0.8783094 3883594 male
-2.536994 0.2370324 -1.29486 0.9760926 0.09726711 0.1943772 5590860 male
-2.695064 0.2831938 -1.438873 -0.3765521 -0.6213943 -0.6870791 6708823 male
-2.331925 0.3210268 -1.595577 -0.8357505 -0.5470538 0.04747218 15256519 male
-2.477632 0.7354862 -1.709956 0.8063221 0.5837194 -0.09548014 3354670 male
-2.62252 -0.1291066 -1.315259 -0.9675583 -0.1506916 0.2027882 2171171 male
-2.557674 0.6169744 -1.553683 -0.04690748 0.9952357 0.08547243 8090986 male
-2.694566 0.5992197 -1.593275 -0.4577917 0.8175081 -0.3494387 4933187 male
-2.802124 0.1289658 -1.260807 -0.6448405 -0.2839513 0.7096146 3355963 male
-2.552299 0.2351335 -1.340937 0.6839099 0.1577926 -0.7122984 7959409 male
-2.751395 -0.3974894 -1.346492 0.9537531 0.1603654 0.2542403 1777186 male
-2.8005 -0.1913755 -1.329228 -0.9963731 -0.08443031 -0.01060605 1973534 male
-2.773909 0.350902 -1.374912 -0.9321108 0.3221781 -0.1654416 3354929 male
-2.652489 -0.01212032 -1.312832 -0.9888809 -0.1481853 0.01249009 2170657 male
-2.787546 -0.4573215 -1.330538 0.2241145 -0.9704668 0.089257 789004 male
-2.667526 0.5183842 -1.693768 0.6951834 0.2125178 -0.6866999 6643802 male
-2.551421 -0.4279552 -1.378411 -0.9464729 0.1732164 -0.2723698 1777444 male
-2.775618 -0.3799717 -1.320264 -0.6201626 -0.2643149 0.7386043 2829358 male
-2.805611 -0.4392472 -1.35748 -0.9741895 0.061086 0.2173095 2171169 male
-2.366584 0.3769257 -1.601437 -0.853968 -0.5194204 -0.03068304 16046033 male
-2.29548 0.361668 -1.763038 0.5079593 0.8415857 0.1836052 15584445 male
-2.479558 0.4689328 -1.55191 0.6078544 -0.4157528 -0.6765079 6249046 male
-2.539519 0.7465778 -1.759822 -0.07967117 0.7905537 -0.6071882 10786699 male
-2.662887 0.4131598 -1.579403 -0.1418437 -0.7302302 -0.6683146 5328201 male
-2.538017 0.5159524 -1.594892 0.443814 -0.1466947 -0.8840306 7300452 male
-2.795282 -0.2277179 -1.338815 -0.9663464 -0.2085014 -0.150672 1907998 male
-2.550534 0.2557929 -1.351963 0.6880639 -0.04385278 -0.7243241 6446169 male
-2.35151 0.4526341 -1.62033 0.4266105 0.7203064 -0.5469574 16111048 male
-2.560303 0.6180758 -1.598207 0.01629567 0.6965705 0.7173033 16772834 male
-2.536806 -0.2635177 -1.353189 0.688102 -0.05948002 -0.7231722 2303017 male
-2.631594 0.3902887 -1.306983 -0.0526903 0.4924157 0.8687639 9668995 male
-2.263751 0.3419719 -1.669925 0.9198195 0.377805 -0.10581 16374992 male
-2.400337 0.5491904 -1.578993 0.7311558 0.5612104 -0.3878846 8487035 male
-2.536446 -0.2446326 -1.354259 0.6822758 -0.04290665 -0.729835 2566703 male
-2.687915 0.07074574 -1.326378 0.9883479 -0.1378052 -0.06464082 2171429 male
-2.543924 -0.1326538 -1.295983 0.8511616 0.2841572 0.4413378 2565929 male
-2.566236 -0.04203025 -1.369856 0.6977304 0.04792991 -0.7147555 3356991 male
-2.513296 0.6999076 -1.789834 0.2495127 0.267669 -0.9306433 9932935 male
-2.59586 0.2438399 -1.219862 0.5267507 0.1730258 0.8322235 8748921 male
-2.71138 -0.4641778 -1.447826 -0.7455738 -0.6656262 0.03258258 264457 male
-2.383284 0.5239236 -1.56761 0.8096868 0.5767229 -0.1086195 10326409 male
-2.696321 -0.06520547 -1.334421 0.9827737 -0.1142701 -0.1452538 1972766 male
-2.433785 0.3602841 -1.890683 -0.7608791 0.1162905 -0.6383885 14795704 male
-2.771851 0.3206526 -1.401264 -0.6372117 0.2956534 -0.7117237 3157808 male
-2.713507 0.0001443904 -1.386003 0.6285062 -0.01377643 -0.7776829 3619391 male
-2.542916 -0.00702419 -1.324985 0.9685765 -0.2413151 0.06022322 2696746 male
-2.763278 -0.2083727 -1.380803 -0.1853588 -0.07602705 -0.9797257 2170913 male
-2.466701 0.697403 -1.738242 0.9408003 0.179101 -0.2877812 5392707 male
-2.544914 -0.1214417 -1.302565 0.8979182 0.2708491 0.3469641 2566447 male
-2.709172 0.02519517 -1.2831 0.6872258 -0.1860106 0.7022258 2302499 male
-2.459709 0.5766327 -1.562101 0.2440167 0.858946 -0.4501864 5657677 male
-2.764152 -0.1790502 -1.278932 -0.2194859 0.0001124022 0.9756157 3157808 male
-2.773024 -0.3881944 -1.385472 -0.587507 0.47052 -0.6583667 2368804 male
-2.401182 0.5526096 -1.548362 0.7827017 0.6149073 0.09626704 11380380 male
-2.58702 -0.1307317 -1.361604 -0.3508199 -0.3309221 -0.8760229 1973793 male
-2.592838 0.2964385 -1.716965 0.6143216 -0.3473789 0.7084752 13351349 male
-2.587444 0.4245745 -1.559195 0.0829315 -0.6743799 -0.7337127 16506547 male
-2.724288 -0.3209768 -1.33242 0.9950457 -0.05272255 -0.08429033 1644825 male
-2.731563 0.3812924 -1.324827 -0.4255326 0.5223669 0.7389554 6840666 male
-2.601923 0.7228067 -1.669106 -0.884207 0.3225158 0.3378785 4471612 male
-2.431801 0.5272907 -1.59794 -0.09558132 -0.1619737 -0.9821553 9275261 male
-2.60224 0.7313266 -1.703663 -0.8896259 0.4441208 -0.1064079 4998462 male
-2.585396 0.6473734 -1.754083 -0.8477886 -0.2075147 -0.4880495 12825255 male
-2.567847 0.009595592 -1.270308 0.654153 -0.2129539 0.725765 2367780 male
-2.535561 -0.1529571 -1.30181 0.9259937 0.2389956 0.292262 1711394 male
-2.513476 0.3809311 -1.411864 0.9150687 -0.2978973 0.2718581 3355441 male
-2.643896 0.4410402 -1.348386 -0.3546902 0.5568535 0.751072 8551031 male
-2.528995 0.08475585 -1.304895 0.980295 -0.07218973 0.1838764 2170145 male
-2.798865 0.1440268 -1.25421 -0.6367625 -0.2975376 0.7113404 2697265 male
-2.542857 0.7158657 -1.621533 -0.09385447 0.3771606 0.9213802 6313295 male
-2.564941 0.5901716 -1.749095 -0.6515452 -0.4796452 -0.5877326 16771294 male
-2.702004 0.1610104 -1.370127 0.7077456 -0.05436018 -0.7043731 2828846 male
-2.698159 0.2375753 -1.408279 -0.2694578 -0.3218488 -0.9076376 7563620 male
-2.761934 -0.4565567 -1.394708 0.4403199 -0.8976056 -0.02055666 592137 male
