# .PCD v0.7 - Point Cloud Data file format
VERSION 0.7
FIELDS x y z normal_x normal_y normal_z rgb label
SIZE 4 4 4 4 4 4 4 4
TYPE F F F F F F U U
COUNT 1 1 1 1 1 1 1 1
WIDTH 254
HEIGHT 1
VIEWPOINT 0 0 0 1 0 0 0
POINTS 254
DATA ascii
1.342257 0.2008429 -1.325292 0.5500283 0.8139974 0.1867536 11973063 male
1.348246 0.3179506 -1.083881 -0.4297825 0.8866955 -0.1704644 7042435 male
1.72497 0.3691019 -1.186909 0.5050604 0.6795841 0.5320521 526600 male
1.388178 0.2115869 -1.049288 0.4396924 -0.6758236 0.5915514 7764103 male
1.338036 0.1885139 -1.275575 -0.1575319 0.9875135 -0.0009161532 3815488 male
1.637009 0.2941335 -1.262469 0.5713906 0.08888521 -0.8158506 591113 male
1.358397 0.03475248 -1.385579 0.009153858 -0.8243583 -0.5659944 5789272 male
1.34453 0.005036627 -1.299155 -0.31369 -0.9489744 -0.03234337 12369615 male
1.312713 0.5665135 -1.526896 0.4778417 -0.3484781 -0.8063685 14135724 male
1.524692 0.2488149 -1.2453 -0.4576305 0.869351 -0.1865559 132619 male
1.476599 0.3631486 -0.9054597 0.7125969 0.658283 0.2426297 526600 male
1.320528 0.6385183 -1.531717 0.6035759 0.2616337 -0.7531559 15190982 male
1.34083 0.3264886 -1.385652 0.61505 0.3278457 0.7170988 15509729 male
1.417672 0.1120687 -1.343588 0.313606 0.6969681 -0.6448929 10066600 male
1.27162 0.08116683 -1.163583 -0.6871729 -0.457374 0.5644487 7829639 male
1.393269 0.3772444 -1.012946 0.01424423 -0.555548 -0.8313625 526600 male
1.54649 0.1040314 -1.28025 0.7148874 -0.4457349 -0.5387546 3224374 male
1.13283 0.4011159 -1.333775 -0.9718773 -0.2296677 0.05203077 9078165 male
1.629747 0.2505732 -0.776745 -0.6236334 0.7795666 0.05794102 526600 male
1.32035 0.3642258 -1.371241 0.794858 0.3872773 0.4671371 15326344 male
1.349673 0.488191 -1.454609 0.9856068 -0.05099403 0.161179 16768477 male
1.398989 0.2362977 -1.150142 0.6935381 0.4811349 -0.5362034 3026230 male
1.718358 0.1932636 -0.8618066 -0.04987991 0.7402269 -0.6705045 526600 male
1.57146 0.2485754 -1.396537 0.9636883 -0.1231694 -0.2369266 13736591 male
1.715741 0.237818 -1.098142 -0.9577353 -0.2626655 -0.1172599 526600 male
1.282616 0.1839883 -1.512701 -0.3290135 -0.5800733 -0.7451611 7893632 male
1.212035 0.4297876 -1.50421 -0.5031403 0.3312333 -0.7982069 15722488 male
1.135666 0.4167011 -1.400508 -0.9405978 0.3081492 -0.1425483 10919598 male
1.752869 0.2604281 -1.072837 -0.5543797 0.7596433 0.3400076 526600 male
1.300721 0.4846731 -1.160752 0.5202161 -0.8446338 -0.1263677 11309967 male
1.263828 0.06249566 -1.352164 -0.5562095 -0.7303705 -0.3964719 10196139 male
1.650683 0.2254091 -0.7947632 0.5817895 -0.6944838 0.423336 526600 male
1.337929 0.4056744 -0.9667133 -0.8734571 -0.2612037 0.4109079 526600 male
1.132893 0.3978587 -1.337772 -0.9552856 -0.2955768 -0.00799039 9736604 male
1.390766 0.5975642 -1.432876 0.8223785 0.5640594 0.07436842 13347752 male
1.519389 0.3401824 -1.455545 0.7013847 0.5306181 -0.4759244 14065818 male
1.38273 0.1782917 -1.222343 0.6339869 0.4989749 -0.5908339 7106683 male
1.168578 0.2678767 -1.152844 0.1272852 -0.9908697 0.0444487 15313572 male
1.618997 0.3481898 -1.20414 -0.6194075 0.1169455 0.7763105 526600 male
1.271566 0.1705034 -1.498021 -0.4415128 -0.5951252 -0.6714854 9143699 male
1.242891 0.2181042 -1.504869 -0.7550603 -0.4274695 -0.4971456 13617632 male
1.538729 0.2860995 -1.392293 -0.7809288 -0.03082406 -0.623859 16501197 male
1.295563 0.5291816 -1.51251 0.182294 -0.6020409 -0.7773773 16439509 male
1.227181 0.2557536 -1.508408 -0.7934833 -0.3680024 -0.4847252 12958157 male
1.219717 0.6361678 -1.431481 -0.4505911 0.3316866 0.8288254 9933206 male
1.639986 0.3230384 -1.236212 -0.5880316 -0.7374346 0.3322785 526600 male
1.481046 0.4433009 -1.383765 -0.001585811 0.8738075 0.4862694 13941693 male
1.51742 0.2817989 -1.431269 0.256547 -0.9075846 -0.332376 16435392 male
1.237844 0.3223316 -1.544214 -0.7933015 -0.124879 -0.5958842 11183031 male
1.38457 0.2507312 -1.50773 0.914814 -0.1807697 -0.3611615 4999500 male
1.212728 0.228388 -1.470625 -0.5244814 -0.5231801 -0.6717156 11577784 male
1.717209 0.3589253 -1.170914 0.3864992 0.7000388 0.6004698 526600 male
1.251251 0.1651541 -1.181422 -0.9145834 0.3345333 0.2272102 3552566 male
1.390842 0.01039936 -1.223 -0.01765749 -0.6197609 0.784592 8225169 male
1.18742 0.3507571 -1.196536 0.4962308 0.8254732 0.2689778 14527405 male
1.193405 0.6489207 -1.461462 -0.7243538 0.5174336 0.4556029 526600 male
1.419087 0.3680197 -1.002275 0.2987736 -0.508832 -0.8073564 526600 male
1.542213 0.3060008 -0.8073316 0.2808571 0.272076 -0.9203771 526600 male
1.319825 0.45349 -1.55506 0.3565431 0.841557 -0.4057817 6840936 male
1.399117 0.1283316 -1.287653 -0.3101289 0.6853583 -0.6588658 5989235 male
1.260517 0.1682329 -1.151373 -0.9215204 0.2017377 0.3318161 4802899 male
1.831323 0.2023502 -0.9917802 -0.7248877 0.3641489 0.5847507 526600 male
1.702834 0.3754612 -1.259835 0.9054817 -0.02227743 -0.4238003 526600 male
1.274143 0.06454538 -1.371008 -0.5377865 -0.711712 -0.4519422 13156561 male
1.343323 0.08733974 -1.12247 0.1098285 -0.5563467 0.8236601 7106423 male
1.852359 0.1506799 -1.027569 -0.2521105 -0.7276351 0.6379557 526600 male
1.506962 0.3141167 -1.416711 -0.1539351 0.8551611 0.4949781 14195360 male
1.605656 0.2840838 -0.7402378 -0.5300978 0.6812021 0.5049357 526600 male
1.752944 0.241549 -1.068402 -0.8187226 0.5064692 0.270522 526600 male
1.792939 0.1970592 -1.057866 -0.8321806 0.5123847 0.2119845 526600 male
1.217921 0.3743949 -1.268348 0.9608005 -0.1844356 -0.2069923 3749951 male
1.20358 0.3037856 -1.152441 -0.1417357 -0.1236093 -0.9821566 14594484 male
1.283371 0.4104827 -1.369267 0.5595943 0.6334691 0.5343885 15390356 male
1.246405 0.6681316 -1.541617 -0.1618197 0.651795 -0.7409302 526600 male
1.632837 0.2927774 -0.7552919 0.6626375 0.5503398 -0.5079741 526600 male
1.302978 0.04503326 -1.367477 -0.5115485 -0.7447273 -0.4286017 11116209 male
1.675548 0.3892584 -1.241219 0.3877913 0.8305908 0.3996709 527368 male
1.197572 0.1541704 -1.289366 -0.942878 0.290558 0.1629637 8552074 male
1.294118 0.4595133 -1.171016 0.7329028 -0.6785318 0.04947773 15199223 male
1.252372 0.4937216 -1.459288 -0.9906152 -0.02306383 0.1347199 16368565 male
1.360951 0.3666512 -0.9690109 -0.7130977 -0.6966243 0.07877925 526600 male
1.226069 0.07147554 -1.251302 -0.7986212 -0.5329022 0.2796772 5199972 male
1.145828 0.3117509 -1.149897 -0.6503459 0.7024953 0.2890512 14526108 male
1.192192 0.4042266 -1.248913 0.2051614 0.8964376 0.3928211 14592677 male
1.390163 0.4250753 -0.9277086 -0.154373 0.4456682 0.8817874 526600 male
1.532818 0.2623261 -1.228918 -0.5696943 0.8166747 0.09214532 5791079 male
1.187789 0.3470333 -1.28306 0.493378 -0.7833806 -0.3780119 657673 male
1.3783 0.4661261 -0.978264 0.4814972 0.5894081 0.6486591 526600 male
1.314122 0.679884 -1.499626 0.5602773 0.7500525 -0.3514407 13478563 male
1.197754 0.1132034 -1.314092 -0.9309131 -0.3571454 -0.07647169 9670298 male
1.257515 0.4511884 -1.514001 -0.753446 0.3402362 -0.5626352 14341352 male
1.150551 0.395773 -1.264432 -0.8318189 0.3656799 0.4175588 14397868 male
1.590701 0.3189466 -1.229587 -0.4103764 0.9075281 0.08935304 921358 male
1.53106 0.5424515 -1.368612 0.7158555 0.5907059 0.3723136 10854562 male
1.230392 0.3200392 -1.31879 -0.2965231 0.2127026 0.931038 4802640 male
1.721787 0.3325995 -1.143069 0.3943807 0.675153 0.6234038 526600 male
1.36443 0.1287331 -1.090766 0.1522229 -0.6798334 0.7173945 7633549 male
1.614412 0.3229101 -1.247485 -0.03501783 0.842688 -0.5372623 7831440 male
1.314914 0.6633485 -1.439986 0.611848 0.3740476 0.6969436 13215136 male
1.165821 0.3616439 -1.322581 -0.05952914 -0.9032608 -0.4249426 11902620 male
1.525258 0.06849938 -1.217709 0.7050576 -0.6661464 0.243193 12830671 male
1.353104 0.08282249 -1.430859 0.4046985 -0.6090489 -0.6821133 6315621 male
1.691284 0.4034581 -1.217113 0.1001256 0.683378 0.7231662 526600 male
1.813179 0.1823649 -1.069106 0.1397131 -0.628807 -0.7649065 526600 male
1.182338 0.4076303 -1.252535 -0.004365221 0.8977954 0.4403913 15116968 male
1.308675 0.2634896 -1.073736 -0.8372557 0.292917 0.4617387 3224642 male
1.514892 0.3294938 -1.464537 0.7891323 0.03185643 -0.6133965 14791595 male
1.31329 0.475582 -1.425956 0.3263746 0.09713636 0.9402362 15851742 male
1.741792 0.3022017 -1.157422 0.9914889 -0.1117942 -0.06672099 526600 male
1.254195 0.2804571 -1.545879 -0.6220173 -0.3467227 -0.7020525 11776194 male
1.244527 0.543193 -1.530947 -0.06706718 -0.738259 -0.6711748 13616328 male
1.181939 0.4306031 -1.287741 0.1506024 0.7935079 0.5896306 13086128 male
1.243266 0.5507129 -1.537563 -0.0589557 -0.683571 -0.727499 10590109 male
1.2959 0.5642462 -1.543875 -0.6909394 -0.6152483 0.3795685 14987435 male
1.358484 0.3626043 -1.01791 -0.285023 -0.9526775 0.1056754 526600 male
1.393994 0.09329094 -1.199675 0.9959759 0.05143951 -0.07338974 526344 male
1.299003 0.2186794 -1.305886 0.1654143 0.4946259 0.8532193 9012372 male
1.161872 0.3473383 -1.48119 -0.7413685 -0.09766524 -0.6639534 14276329 male
1.35447 0.1445364 -1.077359 -0.02396271 -0.6690537 0.7428277 11713489 male
1.485214 0.1106615 -1.31711 0.3616884 -0.05264659 -0.9308115 3881790 male
1.190151 0.5567584 -1.481925 -0.8089885 -0.5863817 0.04115921 9735828 male
1.390801 0.5892482 -1.441924 0.8667604 0.2311196 -0.4419392 13280930 male
1.633643 0.3814359 -1.212009 -0.4489339 0.5305402 0.719017 4933454 male
1.354548 0.2606425 -1.350429 0.7026705 0.424979 0.5706549 11592356 male
1.848181 0.1741711 -0.9807389 -0.324723 -0.4872316 0.8106542 526600 male
1.475684 0.311475 -1.41579 -0.7684746 -0.06336426 0.6367352 7563635 male
1.388253 0.1096394 -1.12152 0.6028685 -0.6050264 0.5200891 2828851 male
1.423978 0.4108848 -0.919338 0.3322797 0.6165679 0.7137467 526600 male
1.342485 0.1908322 -1.519443 0.334744 -0.5973211 -0.7288031 3947842 male
-2.510093 0.379856 -1.440325 0.909953 -0.4126965 -0.04083234 4406843 male
-2.602698 0.04662372 -1.382568 -0.3006313 -0.03366964 -0.9531461 2434859 male
-2.716905 -0.3065448 -1.334532 0.9887682 -0.09643747 -0.1141818 1644826 male
-2.574836 0.1122189 -1.236114 0.4241219 -0.2261111 0.8769234 2302507 male
-2.555642 0.3220371 -1.425538 0.7087923 -0.6043951 -0.3637585 6116688 male
-2.763005 -0.1123133 -1.293087 -0.2763097 0.2351611 0.9318543 3092022 male
-2.522634 0.553203 -1.581797 0.5159417 0.2173864 -0.8285817 5788747 male
-2.565011 0.4045757 -1.546139 -0.04693151 -0.6705577 -0.7403715 16439214 male
-2.589787 0.6436743 -1.744377 -0.8737809 -0.1899044 -0.4477092 14205367 male
-2.688276 0.06618389 -1.348453 0.9587733 -0.09837487 -0.2666018 3156784 male
-2.542004 -0.3718739 -1.382867 -0.4184744 0.3294348 -0.846376 1776929 male
-2.583376 0.6814356 -1.767551 -0.7447367 -0.05544711 -0.6650511 14929606 male
-2.745975 0.4216201 -1.391789 -0.8844888 0.3206569 0.3389086 10853013 male
-2.596654 0.3353989 -1.499648 0.2194308 -0.6258342 -0.748453 7892841 male
-2.623179 0.3317201 -1.256243 0.01486954 0.6679739 0.7440362 8090477 male
-2.61829 -0.100587 -1.301802 -0.7544129 -0.1657371 0.6351321 2697257 male
-2.788005 0.02538903 -1.290683 -0.7421938 -0.2857164 0.60623 4079174 male
-2.460324 0.5111974 -1.539815 -0.2098644 -0.9762983 -0.05290195 1051656 male
-2.522993 -0.4580897 -1.418904 -0.2997498 -0.948902 -0.09866588 2170913 male
-2.466167 0.4879239 -1.534707 0.6667936 -0.7448292 -0.02481911 5131077 male
-2.530159 0.5592078 -1.677891 0.6503292 -0.7476741 -0.1343712 13416877 male
-2.579111 0.125052 -1.382751 0.1606762 0.09666946 -0.982262 3421756 male
-2.652488 -0.4519469 -1.473842 0.9641171 -0.245059 -0.1021004 2631464 male
-2.539966 0.3086812 -1.767788 0.7585114 -0.25375 0.6002265 13020845 male
-2.723181 -0.207292 -1.36361 0.6712506 -0.00154013 -0.7412291 2500137 male
-2.700783 0.5816252 -1.506209 -0.3780364 0.8449771 0.3782885 10656657 male
-2.617793 0.5823972 -1.4756 -0.3306742 0.8091702 0.4856936 8288882 male
-2.497671 0.4976195 -1.411794 0.599429 0.08299761 0.7961135 5393993 male
-2.701286 0.0507396 -1.376331 0.8496075 -0.02632075 -0.5267588 3091249 male
-2.377517 0.5053909 -1.550168 0.8667567 0.1976487 0.4578952 9670535 male
-2.671937 0.2715348 -1.225373 -0.2053546 0.2856563 0.9360717 9209213 male
-2.668933 0.4724457 -1.615617 0.2322835 -0.3883312 -0.8917643 6050636 male
-2.534245 -0.2126044 -1.286267 0.7884719 -0.05378089 0.6127152 2368292 male
-2.434504 0.504357 -1.594911 -0.4893556 -0.04486696 -0.8709296 8221806 male
-2.522106 0.5550771 -1.703485 0.2272634 -0.937124 0.2648588 11839899 male
-2.748926 0.501622 -1.635921 -0.9073991 -0.3962664 0.1400006 8682875 male
-2.587543 0.1953685 -1.368509 0.2999986 0.2488386 -0.9209129 2829617 male
-2.685277 0.1807531 -1.293198 -0.8469759 -0.5283391 -0.05907288 526600 male
-2.762057 -0.06811853 -1.395237 -0.6242037 -0.07362314 -0.7777852 3289397 male
-2.645656 0.6035365 -1.521595 -0.0908808 0.9081318 0.4087022 16245693 male
-2.642256 0.5515848 -1.440299 -0.1462561 0.6841476 0.7145288 7892591 male
-2.55733 0.333294 -1.825313 -0.5443457 0.3225468 -0.7743717 14337465 male
-2.59914 0.7066248 -1.743886 -0.8659464 0.1296075 -0.4830518 8090995 male
-2.691913 0.2601152 -1.226894 -0.1388638 0.1053891 0.9846879 12168616 male
-2.471182 0.7214174 -1.689752 0.9426755 0.2905219 0.1641949 3881270 male
-2.731579 -0.06669924 -1.402179 0.2413763 -0.1529863 -0.958297 4278352 male
-2.648474 0.4976566 -1.690612 0.6583702 0.5644393 -0.4979529 8550515 male
-2.824593 0.09636885 -1.328593 -0.9854993 -0.1682642 0.02187377 1908257 male
-2.709845 0.2930479 -1.239213 -0.0920831 0.4533683 0.8865541 9012089 male
-2.737983 0.4318988 -1.516119 -0.8264312 -0.2788681 -0.4891262 3946035 male
-2.630475 0.2766619 -1.220941 0.0514906 0.3506218 0.9351008 9339773 male
-2.722354 0.03530798 -1.39854 0.4727368 -0.06808046 -0.87857 3883594 male
-2.534191 0.2374207 -1.297687 0.9755182 0.09951387 0.1961156 5590860 male
-2.648042 0.3028623 -1.469137 0.1924923 -0.6231394 -0.7580528 8090479 male
-2.336531 0.3394778 -1.589536 -0.6818301 -0.6980298 0.2187747 12956335 male
-2.480937 0.7432663 -1.706648 0.799977 0.5936509 -0.08726656 3354670 male
-2.6198 -0.1292932 -1.316729 -0.9684014 -0.1495574 0.1995785 2171171 male
-2.556514 0.6189141 -1.568194 0.05847864 0.9883931 0.1402117 7037531 male
-2.695995 0.6021635 -1.592175 -0.4708703 0.8134663 -0.3413997 4933187 male
-2.799201 0.1286081 -1.264084 -0.6448314 -0.2832693 0.7098951 3355963 male
-2.54936 0.2354811 -1.343922 0.6848401 0.1589678 -0.7111424 7959409 male
-2.749307 -0.3978605 -1.349654 0.9540197 0.1575118 0.2550229 1777186 male
-2.795318 -0.1804747 -1.313085 -0.9443969 -0.02953225 0.3274794 2235682 male
-2.7667 0.3506017 -1.40397 -0.9677333 -0.1077925 -0.2277572 2960166 male
-2.649657 -0.01214343 -1.315166 -0.9890383 -0.1473239 0.009957433 2170657 male
-2.797304 -0.4565596 -1.324304 -0.3955193 -0.8518311 0.3434362 7631476 male
-2.654704 0.5101898 -1.68092 0.8360583 0.3904262 -0.3854532 9209476 male
-2.543826 -0.4398503 -1.391978 -0.8476934 -0.3124277 -0.428725 2632488 male
-2.773406 -0.3676039 -1.323983 -0.6967093 -0.2743703 0.6628102 2565927 male
-2.803631 -0.4394418 -1.360762 -0.9742498 0.06343328 0.216365 2171169 male
-2.365861 0.3819619 -1.600276 -0.8637598 -0.5021483 -0.04202676 16046032 male
-2.297314 0.3675133 -1.761943 0.5035614 0.8463944 0.173328 15584445 male
-2.475231 0.4665941 -1.540291 0.7501227 -0.5185763 -0.4103594 4933187 male
-2.543019 0.7545253 -1.756214 -0.08918555 0.7994102 -0.5941291 10786699 male
-2.622653 0.4295134 -1.586475 0.3725337 -0.517876 -0.7700801 12232080 male
-2.752738 0.3429967 -1.433991 -0.7956744 -0.1948241 -0.5735382 3223850 male
-2.792919 -0.2280802 -1.341588 -0.9668956 -0.2062484 -0.1502495 1907998 male
-2.551099 0.2405489 -1.345042 0.6798399 0.1230849 -0.7229578 8814718 male
-2.352312 0.4598269 -1.619145 0.4251385 0.7202869 -0.5481279 16111048 male
-2.56194 0.6231196 -1.596635 0.007371068 0.6853598 0.7281675 16772834 male
-2.5341 -0.2638608 -1.354149 0.6907568 -0.06050032 -0.7205518 2303017 male
-2.629981 0.3903666 -1.308658 -0.05778821 0.4838025 0.8732674 9668995 male
-2.270865 0.3594162 -1.66799 0.7494774 0.6522561 -0.1133398 16374221 male
-2.401074 0.5562404 -1.577788 0.7294708 0.5640816 -0.3868909 8487035 male
-2.528316 -0.2726386 -1.346311 0.8882347 -0.05110838 -0.4565385 2630697 male
-2.68504 0.07029108 -1.329589 0.9880782 -0.1394813 -0.06516838 2171429 male
-2.543274 -0.1017926 -1.322744 0.9857239 0.1647227 0.0348599 2697257 male
-2.563249 -0.04233621 -1.371647 0.7002023 0.04461702 -0.7125491 3356991 male
-2.516351 0.7086336 -1.787041 0.2448303 0.2852912 -0.9266431 9932935 male
-2.593459 0.2438376 -1.222447 0.5239134 0.1726314 0.8340944 8748921 male
-2.710697 -0.4642299 -1.45138 -0.7439143 -0.667572 0.03064936 264457 male
-2.384024 0.5309902 -1.566395 0.8093969 0.5769745 -0.1094407 10326409 male
-2.69252 -0.05229534 -1.338393 0.984019 -0.06275049 -0.1666416 1973022 male
-2.430579 0.3633946 -1.890957 -0.7612709 0.1351968 -0.6341835 14795704 male
-2.749002 0.3147727 -1.419759 -0.702437 -0.2546932 -0.6646155 4736065 male
-2.710817 -0.0003459221 -1.389055 0.6279593 -0.01563437 -0.7780893 3619391 male
-2.540039 -0.007177923 -1.326953 0.9681642 -0.2418953 0.06438297 2696746 male
-2.760928 -0.2087464 -1.383565 -0.1861524 -0.07423447 -0.9797127 2170913 male
-2.466977 0.707332 -1.721684 0.9745194 0.1813881 -0.1319492 4077361 male
-2.545312 -0.1421164 -1.286092 0.7202855 0.2768979 0.6360162 2104610 male
-2.706338 0.02479626 -1.286248 0.6870216 -0.1864366 0.7023126 2302499 male
-2.442088 0.5795268 -1.542228 0.5273629 0.8451521 -0.08721536 11973550 male
-2.761667 -0.1795325 -1.281651 -0.2190687 -0.0006218342 0.9757094 3157808 male
-2.770996 -0.3884332 -1.388646 -0.5861999 0.4726253 -0.6580238 2368804 male
-2.408133 0.5640693 -1.539655 0.7152016 0.6700823 0.1986872 11906986 male
-2.584138 -0.131014 -1.362896 -0.3475862 -0.3315684 -0.877067 1973793 male
-2.536912 0.3528934 -1.823126 -0.4796022 0.8168702 -0.3204763 14599093 male
-2.604451 0.4103564 -1.550553 0.3871222 -0.5941096 -0.7051031 16509877 male
-2.722148 -0.3214642 -1.335389 0.9949036 -0.05482517 -0.08462471 1644825 male
-2.754076 0.3669214 -1.33409 -0.6124892 0.6848734 0.3947222 6182993 male
-2.605004 0.728615 -1.665789 -0.8868127 0.3077035 0.3447928 4471612 male
-2.432182 0.5394372 -1.598286 -0.01804051 -0.08209132 -0.9964617 7565162 male
-2.605477 0.7376926 -1.700196 -0.8943137 0.4366798 -0.09753925 4998462 male
-2.58948 0.6543117 -1.749041 -0.869215 -0.1896833 -0.4566024 12363936 male
-2.565116 0.009691601 -1.272468 0.6513662 -0.2104711 0.7289885 2367780 male
-2.538189 -0.1223587 -1.323198 0.9717363 0.2359279 0.008178711 2104611 male
-2.527841 0.3811436 -1.380038 0.8764681 -0.1049086 0.4698917 2697257 male
-2.64283 0.4415458 -1.349295 -0.3616659 0.5423724 0.7583075 8551031 male
-2.526086 0.08469786 -1.307306 0.9796705 -0.07219668 0.1871731 2170145 male
-2.795975 0.1436399 -1.257488 -0.6366926 -0.2976475 0.7113569 2697265 male
-2.545779 0.7215193 -1.618439 -0.095908 0.3611857 0.9275488 6313295 male
-2.56561 0.5933986 -1.745785 -0.6624692 -0.4913686 -0.5654128 16574427 male
-2.699005 0.160549 -1.373462 0.7076752 -0.05572746 -0.7043369 2828846 male
-2.704673 0.225959 -1.400014 -0.2368692 -0.152237 -0.9595401 9604234 male
-2.760129 -0.4567454 -1.398018 0.4380773 -0.8987017 -0.02058148 592137 male
