# .PCD v0.7 - Point Cloud Data file format
VERSION 0.7
FIELDS x y z normal_x normal_y normal_z rgb label
SIZE 4 4 4 4 4 4 4 4
TYPE F F F F F F U U
COUNT 1 1 1 1 1 1 1 1
WIDTH 246
HEIGHT 1
VIEWPOINT 0 0 0 1 0 0 0
POINTS 246
DATA ascii
1.482726 1.044035 -0.7118615 0.00512898 -0.1926207 0.9812599 9867425 male
1.448866 0.6226544 -0.823054 0.7970442 -0.3338772 -0.5032361 526600 male
1.539314 0.4870523 -0.9112172 -0.529442 -0.31629 0.7871796 526344 male
1.379956 0.7635219 -0.7328867 -0.8661804 -0.08083748 0.4931499 4213073 male
1.493247 1.002482 -0.7154727 0.2518942 0.006700867 0.9677317 10130595 male
1.535739 0.5878974 -0.9551407 -0.7511579 0.3641928 -0.5505682 526600 male
1.529857 1.288893 -0.7106201 0.7164941 0.2228277 0.6610477 16776191 male
1.459979 1.350085 -0.6989616 0.3579291 0.4855727 0.7975625 15392754 male
1.602037 1.549809 -0.7789765 0.9745204 -0.01565905 -0.2237514 16175821 male
1.555022 0.7971979 -0.8050906 -0.191696 -0.2701898 0.9435306 4343379 male
1.321324 0.4470599 -0.8302394 -0.9426284 -0.05408885 -0.3294331 526600 male
1.599696 1.597466 -0.7649553 0.9495112 0.3136916 0.005114555 16040647 male
1.570308 1.109383 -0.902989 0.4712749 0.1633176 -0.8667337 5328985 male
1.549001 1.107944 -0.717663 0.5835549 -0.02178922 0.8117814 11644094 male
1.372541 0.9398009 -0.8081051 -0.9938141 0.1094548 0.01879391 5264224 male
1.414177 0.6851957 -0.8406764 -0.1184933 -0.04916132 -0.9917371 9147044 male
1.559835 0.792921 -0.9399066 -0.1070583 0.009872509 -0.9942038 12437462 male
1.383272 1.254846 -0.7154819 0.9715409 -0.2307627 0.05344939 2500653 male
1.36821 0.2425586 -0.7427796 -0.06072832 -0.9965141 0.05719803 526600 male
1.47687 1.229001 -0.6922002 -0.01782545 -0.06571957 0.9976788 6776176 male
1.526988 1.425933 -0.7432957 0.02510208 -0.3524675 0.9354874 15780039 male
1.524433 0.837034 -0.7685919 0.8959854 -0.4369034 0.07953408 3949645 male
1.687605 0.2641095 -0.8472151 0.1415043 -0.9797043 -0.1419724 526600 male
1.690298 1.043327 -0.9219292 -0.2915236 0.1142332 0.9497182 12297899 male
1.607842 0.3446958 -0.9482027 0.8896146 0.3637593 0.276161 526600 male
1.455016 1.262133 -0.8956581 -0.7559332 -0.04300782 -0.6532344 11710403 male
1.396514 1.324613 -0.8494268 -0.6226099 0.1948405 -0.757888 14011359 male
1.544721 1.187344 -0.7145754 0.5904796 0.1581701 0.7914013 14741724 male
1.523811 0.7026695 -0.8568144 -0.7805262 -0.1587185 0.6046381 1118225 male
1.320814 1.266877 -0.708822 -0.9019372 0.2265307 0.3676861 14263967 male
1.38786 0.9444175 -0.8668624 -0.778098 0.009972442 -0.6280637 7765647 male
1.582642 1.361087 -0.7978896 0.6975479 0.4475342 0.5595893 12103621 male
1.352476 0.4582536 -0.7721377 -0.2625283 -0.1692167 0.9499708 526600 male
1.373636 1.345461 -0.690554 0.1917183 -0.214422 0.9577407 14538990 male
1.534295 1.474002 -0.699152 -0.2304295 -0.3054856 0.9238943 12689815 male
1.605637 1.353464 -0.9624072 0.07726705 0.1423467 -0.9867965 7038323 male
1.384015 0.8833426 -0.7348351 -0.8662625 0.09287041 0.4908812 3553606 male
1.336613 0.576415 -0.8179544 -0.9111839 0.4028296 -0.08644214 526600 male
1.610516 0.6001878 -0.8740823 0.4969242 -0.5914536 0.6350189 526600 male
1.461992 1.292032 -0.9018899 -0.7525266 0.07515235 -0.6542598 12169411 male
1.474514 1.100103 -0.8848972 -0.6740272 -0.1035903 -0.731407 11907008 male
1.698446 1.073624 -0.9555472 0.9159343 0.2892387 -0.2782179 15055547 male
1.544238 1.53294 -0.8537754 0.3898957 -0.2921779 -0.8732774 12168624 male
1.605448 1.098827 -0.869718 0.895466 0.04185455 -0.4431578 5460311 male
1.476121 1.591268 -0.7322822 -0.7202498 0.1962693 0.6653709 11314087 male
1.56498 0.5617117 -0.8901167 -0.1106518 -0.2933875 0.9495683 526600 male
1.641957 1.308109 -0.9308496 0.9683849 0.2329735 -0.08918571 15649220 male
1.638446 0.7891542 -0.9033283 0.855868 -0.00596323 -0.5171598 7303552 male
1.521125 0.9231367 -0.9512078 -0.08438087 0.05132069 -0.995111 8029077 male
1.61335 1.230651 -0.8659116 0.9704983 -0.06187569 -0.2330327 3750721 male
1.377689 0.9621991 -0.8473631 -0.9191741 0.09274767 -0.3827752 7830416 male
1.569833 0.6639777 -0.8394805 -0.2633272 -0.3503511 0.8988396 987927 male
1.397706 0.9485975 -0.7256153 -0.8044971 0.1362759 0.5781118 7435905 male
1.627396 0.9878026 -0.8794102 0.9601866 0.198511 -0.1965578 2302499 male
1.32689 1.148049 -0.7034387 0.8407897 0.2695765 0.4694691 14988469 male
1.477118 1.620816 -0.7500665 -0.6424633 0.5704542 0.5116862 723723 male
1.386566 0.7272256 -0.8275002 -0.7193324 0.02934261 -0.694046 7303808 male
1.432139 1.427497 -0.7934779 -0.4711823 0.8812656 -0.03685373 7498860 male
1.528227 1.385787 -0.9148777 -0.1927212 0.5819745 -0.7900406 11381180 male
1.512124 0.8836316 -0.9413007 -0.3277975 -0.3928075 -0.8592154 6843516 male
1.407869 0.9223914 -0.7111149 -0.6019394 0.1143241 0.7903157 3421497 male
1.575514 0.3013432 -0.9477571 -0.8081999 -0.06260763 0.5855709 526600 male
1.600424 0.4868767 -0.9777514 0.656689 -0.04819266 -0.7526201 526600 male
1.525071 1.284058 -0.7042532 0.6690658 0.201086 0.7154826 13025238 male
1.449825 0.8048912 -0.8528818 0.01997486 -0.1305084 -0.9912459 5989227 male
1.615229 0.278769 -0.9975029 0.2884851 -0.7271385 -0.6229333 526600 male
1.644898 1.359816 -0.8853365 0.7946714 -0.1691344 0.5830016 11841724 male
1.332361 0.2449517 -0.7378336 -0.1217696 -0.9850137 0.1221481 526600 male
1.594959 0.3885196 -0.9360899 0.5445695 0.008459731 0.838673 526600 male
1.552262 0.3314643 -1.007048 0.3468776 0.3531975 -0.8688657 526600 male
1.327695 1.16759 -0.7174975 0.9225457 0.2443857 0.2986387 16043211 male
1.288403 1.110598 -0.743118 -0.5469663 -0.4793755 -0.686314 15119806 male
1.476916 1.26296 -0.6826798 0.0717926 -0.268491 0.9606031 8814991 male
1.571675 1.634801 -0.7512002 0.5597538 0.7962584 0.229452 526600 male
1.590523 1.273011 -0.7606642 0.5553124 0.1097525 0.8243679 15458272 male
1.531334 1.261848 -0.7075168 0.7525464 -0.04799109 0.6567882 12563920 male
1.531046 0.5973011 -0.9216399 -0.9771155 0.1943403 0.08647051 526600 male
1.416085 1.03179 -0.7259166 -0.4838679 0.3885383 0.7841618 5263192 male
1.347072 1.290195 -0.6921946 -0.229829 0.2780953 0.932653 15249068 male
1.478543 1.451899 -0.8279054 -0.6277553 0.205085 -0.7509083 15643044 male
1.374872 0.3987271 -0.7972665 0.8326384 -0.1882148 0.5208535 526600 male
1.401823 1.045864 -0.8349849 -0.6546186 0.5530932 -0.5153272 10525357 male
1.32874 1.100645 -0.6823124 0.7836716 0.3291235 0.5268174 14857140 male
1.410458 1.347667 -0.7056194 0.5738438 -0.6695923 0.4715395 526857 male
1.381064 0.3969299 -0.8215054 0.9579039 -0.2869567 -0.008719176 526600 male
1.53371 0.8056585 -0.8089984 -0.4281188 -0.2693509 0.8626497 3881535 male
1.339974 0.5445952 -0.7804705 -0.7319798 0.1735337 0.6588563 526600 male
1.423205 0.6917716 -0.7240804 -0.07757986 -0.3944395 0.9156412 7634057 male
1.599993 1.595677 -0.7579305 0.9489619 0.3054297 0.07863823 15713222 male
1.382802 1.028189 -0.7676988 -0.8978671 0.3329754 0.2880314 5395547 male
1.4981 1.417243 -0.8638535 -0.4898933 0.7138807 -0.5003786 12762833 male
1.34611 1.360288 -0.7612534 -0.8679478 0.2399819 -0.4348279 10788268 male
1.546075 0.7457557 -0.826088 -0.4171499 -0.3062173 0.8556967 4145735 male
1.75111 0.9183525 -0.9713439 0.4915158 -0.133645 -0.8605528 10914698 male
1.599785 1.064946 -0.7728597 0.926874 -0.1153811 0.3571999 12433102 male
1.564342 0.6789882 -0.8362685 -0.2848304 -0.2810572 0.9164488 5331041 male
1.396415 0.474176 -0.7978486 0.8670688 -0.2019501 0.4554204 526600 male
1.565597 0.5348242 -0.9893541 -0.03229922 0.1099415 -0.9934131 526600 male
1.508645 1.607779 -0.7148488 -0.3977099 0.450431 0.7993364 8748925 male
1.328378 0.5329229 -0.8406559 -0.8414845 0.194593 -0.5040212 526600 male
1.526243 0.6611061 -0.9071572 -0.9137877 -0.03849747 -0.4043636 527368 male
1.427042 1.2961 -0.6956914 -0.4565698 -0.6120752 0.6456841 592137 male
1.518459 0.5324138 -0.9397758 -0.9993882 0.01447814 -0.03183788 526600 male
1.59548 0.3263412 -0.9960384 0.546776 0.06434455 -0.8348029 526600 male
1.405675 1.354365 -0.6910723 0.5265724 -0.4284364 0.7342776 7367288 male
1.400601 0.5925767 -0.7482051 -0.1536809 -0.3302936 0.9312831 526600 male
1.700686 1.06884 -0.9324797 0.7220688 0.5031245 0.4748498 16765649 male
1.544568 1.287642 -0.730215 0.8355005 0.09940425 0.5404236 13284944 male
1.542969 0.4249847 -0.9393377 -0.7499877 -0.2481778 0.6131281 526600 male
1.471357 1.037564 -0.9005389 -0.5271698 0.4591321 -0.7150452 12499919 male
1.538686 1.595367 -0.8636293 0.3008024 0.1885066 -0.9348707 5591125 male
1.400466 1.340883 -0.7346792 0.7731359 -0.4872134 -0.406059 526600 male
1.560083 1.615664 -0.8428963 0.5735883 0.4802054 -0.6636258 4276805 male
1.586395 1.541768 -0.7317303 0.5867773 0.3890748 0.7101501 10058102 male
1.401338 0.7301705 -0.8380071 -0.4521303 -0.01525101 -0.8918216 3685188 male
1.350062 0.4901388 -0.768627 -0.4089903 -0.06477326 0.910237 526600 male
1.461063 1.042418 -0.7137975 -0.1695448 -0.1731315 0.9701958 5591895 male
1.426754 1.295976 -0.8694296 -0.4692476 0.107526 -0.8764957 12236232 male
1.369827 0.595085 -0.7662297 -0.6363685 0.09698299 0.7652643 526600 male
1.558737 0.9068326 -0.9474921 0.1853203 0.02068354 -0.9824605 6514547 male
1.460268 1.616787 -0.8206189 -0.804446 0.4934947 -0.3306503 526344 male
1.600146 1.504986 -0.7521477 0.9777033 -0.1743586 0.117028 16236730 male
1.616285 0.869575 -0.8033697 0.5734377 0.04960276 0.817746 6712703 male
-2.427629 0.4149082 -1.437565 0.6597787 -0.005926427 -0.7514369 5920082 male
-2.344525 0.04686102 -1.439309 0.9962271 0.01505426 -0.08547038 2697257 male
-2.595246 -0.2615933 -1.463673 0.9200212 -0.3603706 0.1539292 1644569 male
-2.346072 0.06887811 -1.41327 0.9878851 -0.00431065 0.1551278 2302758 male
-2.434883 0.3520482 -1.438527 0.6223848 0.06869999 -0.7796909 6379608 male
-2.633473 -0.1255224 -1.479819 -0.55602 0.5888909 0.5865573 2500138 male
-2.503221 0.5965545 -1.447957 -0.145241 0.4405885 -0.8858821 10854044 male
-2.484303 0.6024761 -1.44828 -0.1270786 0.4788037 -0.8686761 7169372 male
-2.655355 0.8022907 -1.445705 -0.6357906 -0.1948112 -0.7468729 11181724 male
-2.527838 0.03250882 -1.461698 0.8939993 -0.1147905 -0.4331153 2894380 male
-2.352591 -0.260141 -1.396088 0.6446922 0.09906725 0.757996 1777187 male
-2.675699 0.8100517 -1.390304 -0.9812053 -0.1812253 -0.06628603 4801857 male
-2.613052 0.3933682 -1.304229 -0.5737588 -0.4115427 0.7081198 4866369 male
-2.48193 0.3568323 -1.469412 0.2362947 0.06196289 -0.9697039 8550257 male
-2.402997 0.1901389 -1.307476 0.7545383 0.04368642 0.6548005 9471873 male
-2.434196 -0.0843218 -1.448834 -0.8050715 -0.1720161 0.5676888 2631465 male
-2.64196 -0.01848692 -1.449736 -0.9770958 -0.1790745 0.1149625 1908771 male
-2.39131 0.6596768 -1.436907 0.1583738 0.24304 -0.9570003 10460310 male
-2.410012 -0.4115826 -1.347781 -0.8867586 -0.2262927 -0.4030521 2040614 male
-2.408422 0.5419377 -1.395314 0.8308404 0.07308577 -0.5516911 3749425 male
-2.571623 0.6666839 -1.438926 -0.1093766 -0.3586172 -0.9270549 16773865 male
-2.417472 0.1400946 -1.477771 0.09060211 0.2881658 -0.9532848 4342082 male
-2.607689 -0.4629319 -1.507265 -0.5571321 -0.2746771 -0.7836814 2829358 male
-2.903234 0.5962295 -1.575467 0.3783407 0.2533214 -0.8903297 10061955 male
-2.691132 -0.3496539 -1.425008 -0.9943281 0.08529308 -0.0635376 2105377 male
-2.584812 0.5738335 -1.270716 0.1743358 0.288146 0.9415833 6182738 male
-2.491758 0.6368696 -1.293679 0.1611392 0.4794515 0.8626475 9801607 male
-2.448251 0.4827007 -1.453011 0.4825731 0.1071025 -0.8692827 5328714 male
-2.544023 0.01214569 -1.488803 0.7965485 -0.0318819 -0.6037337 3288627 male
-2.180711 0.4568039 -1.630422 -0.87925 -0.4486903 -0.1599898 4208440 male
-2.43322 0.2023607 -1.279134 0.4522661 -0.03202577 0.8913081 8616307 male
-2.510802 0.6884549 -1.381081 0.7015948 0.6674321 -0.2495985 3748913 male
-2.346801 -0.2179922 -1.497296 0.315109 -0.4533736 -0.8337619 2697777 male
-2.316945 0.6034603 -1.458365 0.1675245 0.7715939 -0.6136599 14663859 male
-2.5665 0.734312 -1.467903 0.7270966 -0.3248354 -0.6048248 13350826 male
-2.715036 0.5363247 -1.339646 -0.4503745 -0.805385 0.3853801 5394506 male
-2.408059 0.182046 -1.460701 0.2976883 0.4490955 -0.8424341 2631981 male
-2.351669 -0.06363651 -1.445853 0.9683087 0.02139914 0.2488385 2631464 male
-2.590897 -0.05451239 -1.527389 -0.172755 0.07764809 -0.9818996 3618879 male
-2.587101 0.5548806 -1.263947 0.1737403 0.1513152 0.9730973 9209218 male
-2.534092 0.438475 -1.284311 0.248777 -0.1406038 0.958301 7498084 male
-2.944815 0.6458737 -1.524236 -0.9414147 0.1099442 0.3188274 16774121 male
-2.672999 0.8611908 -1.384284 -0.9215582 0.3879796 -0.01422852 3551278 male
-2.61494 0.1936059 -1.303115 -0.740273 -0.07592421 0.6680058 7234397 male
-2.544061 0.8545335 -1.404273 0.8819041 0.3489096 -0.3170288 5919050 male
-2.600366 -0.1226472 -1.559683 -0.3563665 -0.2916521 -0.887661 3683385 male
-2.768377 0.6208993 -1.421845 -0.0378867 0.9992781 0.002809143 8420213 male
-2.71338 0.5527079 -1.385912 0.180951 -0.6503953 -0.7377282 789516 male
-2.54728 0.1564798 -1.282526 0.05566382 -0.3330939 0.9412494 3420212 male
-2.649485 0.4713094 -1.398919 -0.8804384 -0.2099309 -0.425156 4340793 male
-2.509018 0.3945697 -1.290839 -0.2055203 -0.1844685 0.9611103 8617082 male
-2.554696 0.0008481336 -1.503287 0.6334059 0.00658805 -0.7737918 3553598 male
-2.366914 0.2215808 -1.383131 0.9738793 0.173698 0.1462477 4406843 male
-2.63637 0.2529516 -1.421088 -0.7311419 0.2911271 -0.6169901 3881270 male
-2.27433 0.5245495 -1.45972 -0.6563091 0.257739 -0.7091045 16775147 male
-2.554489 0.88035 -1.383943 0.7094715 0.688684 -0.1495486 3354670 male
-2.392064 -0.01596053 -1.378225 0.4032596 -0.2294828 0.8858442 2435113 male
-2.473907 0.6837748 -1.347291 0.2910807 0.9538189 0.07417201 10459279 male
-2.621888 0.6536553 -1.36762 -0.9069717 0.3510812 -0.2326903 3748913 male
-2.645135 0.1114215 -1.362844 -0.8814517 -0.2116179 0.4222096 3419956 male
-2.367908 0.2190178 -1.407541 0.9309469 0.2574564 -0.2589485 6118230 male
-2.664582 -0.397651 -1.414363 0.9746198 0.1186061 0.1898661 2236708 male
-2.648836 -0.1523356 -1.471416 -0.6974531 0.4899596 0.5229713 2696233 male
-2.495849 0.6023248 -1.446152 -0.136023 0.4653614 -0.8746067 7631212 male
-2.478423 0.0500774 -1.360192 -0.6420513 -0.4011072 0.6533632 3618368 male
-2.736241 -0.431749 -1.418074 -0.6618193 -0.7099919 0.2406386 526344 male
-2.722175 0.6028103 -1.324827 -0.2628801 0.4922013 0.8298386 10262156 male
-2.406516 -0.3808618 -1.372368 -0.8298448 -0.1221801 -0.5444537 2170913 male
-2.692604 -0.3504007 -1.421884 -0.9956034 0.09348705 0.005858362 2105377 male
-2.696167 -0.3685302 -1.382009 -0.8770924 0.3229584 0.355538 3420980 male
-2.310284 0.5303429 -1.449968 -0.7665276 -0.4712805 -0.4362688 16638428 male
-2.174396 0.4858671 -1.576071 -0.2133027 0.8589304 -0.465554 16639962 male
-2.399616 0.5905295 -1.331677 0.7511404 -0.06330854 0.6571001 8090221 male
-2.639972 0.8965535 -1.387586 -0.4757399 0.8781288 -0.05061039 4932930 male
-2.644156 0.5684665 -1.427106 -0.3459126 0.3949383 -0.8510984 8551282 male
-2.500839 0.5804014 -1.455893 -0.1751767 0.3877949 -0.9049466 11378836 male
-2.666654 -0.2053035 -1.466537 -0.9093672 0.1722446 0.3786602 2566439 male
-2.389701 0.2990473 -1.382387 0.8401893 0.5023971 -0.2041553 3749425 male
-2.368923 0.6039288 -1.367924 0.3456708 -0.2675066 0.8994178 7630700 male
-2.554371 0.7169887 -1.343569 0.4672886 0.02099197 0.8838557 13415595 male
-2.390091 -0.2654297 -1.461285 -0.4034336 -0.478838 -0.7797152 2630440 male
-2.425056 0.2653192 -1.289468 0.4594051 0.2017469 0.8650118 7103583 male
-2.204493 0.52621 -1.489763 0.5563688 0.7927093 -0.2491302 14993078 male
-2.36054 0.6438313 -1.376287 0.6911992 0.3952854 0.6049738 9867145 male
-2.381086 -0.2848637 -1.451517 -0.2324017 -0.5092652 -0.8286365 2697257 male
-2.519937 0.04818989 -1.44865 0.9156666 -0.1336489 -0.3790685 3025454 male
-2.334432 -0.1684699 -1.436757 0.7730397 0.3039329 0.5568078 2565415 male
-2.347995 0.00957787 -1.452019 0.9736293 -0.1072069 -0.2013777 3223601 male
-2.65205 0.8765658 -1.427179 -0.6574818 0.6244783 -0.4215979 12168099 male
-2.38388 0.2664466 -1.336478 0.9082227 0.1471858 0.3917503 5590348 male
-2.606805 0.6626156 -1.324666 -0.1699336 0.7226116 0.6700411 4998724 male
-2.362185 0.6306707 -1.442897 0.1437223 0.6358806 -0.7582875 8618362 male
-2.541364 -0.1080351 -1.482312 0.8912913 -0.2760413 0.3597239 1908514 male
-2.901027 0.7874517 -1.473132 -0.1822062 -0.3618416 0.9142602 16176327 male
-2.514777 0.4207209 -1.469803 -0.01519972 0.09259415 -0.9955881 7630181 male
-2.562901 0.001356947 -1.50808 0.4705612 0.006122668 -0.8823464 3553598 male
-2.362656 -0.2250227 -1.494871 -0.1171336 -0.4641968 -0.8779529 2500141 male
-2.660638 -0.2276559 -1.516725 -0.7960455 -0.1570283 -0.5845117 1973793 male
-2.580951 0.8537618 -1.454331 0.5237497 0.4545425 -0.7204704 6904657 male
-2.326174 -0.1487355 -1.485436 0.9940597 0.108452 0.009155571 2565931 male
-2.523786 0.01232215 -1.421702 0.9524624 -0.2960601 0.07186121 1711651 male
-2.448088 0.5995165 -1.45021 0.1715036 0.3442788 -0.9230704 7695978 male
-2.600316 -0.1519214 -1.457476 0.2776278 0.4198397 0.8640936 2763822 male
-2.697392 -0.3719204 -1.431865 -0.8944964 0.06673016 -0.4420674 2697257 male
-2.358759 0.6507489 -1.386657 0.7086734 0.6240271 0.3291994 10590613 male
-2.360147 -0.1439099 -1.537518 0.08173381 -0.6596909 -0.7470795 3881789 male
-2.914653 0.6501005 -1.502325 0.01222652 -0.2227456 0.9748001 15649469 male
-2.56705 0.5577189 -1.444373 -0.03784293 0.1953026 -0.9800129 12365462 male
-2.60477 -0.2807412 -1.470049 0.8875481 -0.4224235 -0.1838942 2697257 male
-2.602622 0.2787963 -1.304983 -0.4515609 0.3864792 0.8041934 6710108 male
-2.620666 0.8021697 -1.294705 -0.2674434 -0.2291039 0.9359411 4932154 male
-2.375382 0.6766208 -1.399623 0.6865629 0.7243205 0.06317705 8684415 male
-2.657261 0.8334793 -1.315893 -0.7471294 0.03218079 0.6638994 6511192 male
-2.632707 0.787807 -1.474365 -0.9829501 0.1487971 -0.1080228 15583937 male
-2.449166 -0.04051084 -1.41156 -0.7876064 -0.292551 0.5423009 2565674 male
-2.324545 -0.215275 -1.459762 0.9878941 -0.1549596 -0.007284045 2632232 male
-2.410083 0.3108597 -1.410781 0.8278368 0.08730594 -0.5541339 4736831 male
-2.475344 0.5413842 -1.272737 0.1510744 -0.08355702 0.9849848 9670026 male
-2.327038 -0.1830299 -1.49697 0.8834276 -0.1903202 -0.4281752 3816258 male
-2.64035 0.1238221 -1.353598 -0.8720688 -0.1904064 0.4508234 3222578 male
-2.575251 0.8157535 -1.294978 0.3350328 -0.04854191 0.9409554 6313295 male
-2.655411 0.7417933 -1.426873 -0.8960938 -0.3994386 -0.1935585 15389897 male
-2.527697 0.1263056 -1.463271 0.6646357 0.03213761 -0.7464763 2828846 male
