# .PCD v0.7 - Point Cloud Data file format
VERSION 0.7
FIELDS x y z normal_x normal_y normal_z rgb label
SIZE 4 4 4 4 4 4 4 4
TYPE F F F F F F U U
COUNT 1 1 1 1 1 1 1 1
WIDTH 249
HEIGHT 1
VIEWPOINT 0 0 0 1 0 0 0
POINTS 249
DATA ascii
1.29016 0.2227635 -1.228668 0.4526491 0.2403569 0.8586835 7762820 male
1.486193 0.1922227 -1.115584 -0.1341997 0.937796 -0.3202017 4541269 male
1.9181 0.1996617 -1.338465 0.5386328 0.7573027 -0.3692793 526600 male
1.499431 0.05335746 -1.109669 0.3189934 -0.8493464 0.42054 8817561 male
1.278151 0.2393318 -1.225969 0.3576841 0.2375686 0.9031187 7368056 male
1.744923 0.2832886 -1.418138 0.5536394 0.810743 0.1902082 526600 male
1.412758 -0.0188515 -1.366803 -0.05241869 -0.8125923 -0.5804706 5923183 male
1.248524 0.4144665 -1.295938 0.6314265 0.6458123 0.4292169 15844466 male
1.246225 0.605157 -1.401771 0.690961 0.3685533 -0.6218854 14987434 male
1.56359 0.1714337 -1.323278 -0.2089779 0.796783 0.5669789 6382449 male
1.844272 0.1795983 -0.9959176 0.5463152 -0.02637574 0.8371642 526600 male
1.219594 0.6843154 -1.360278 0.5957714 0.8003352 -0.06723143 15922162 male
1.296457 0.2263991 -1.467809 0.4387644 -0.2490867 -0.8633896 4143935 male
1.351155 0.1976093 -1.301005 0.6701319 0.5878144 0.4532081 11381437 male
1.283371 0.02173119 -1.225128 -0.6126395 -0.6559448 0.4409185 6252400 male
1.552544 0.1812901 -1.029907 0.4809718 -0.7000893 -0.5277699 5791587 male
1.580027 0.1326041 -1.411824 0.1172903 0.1361431 -0.9837216 4146507 male
1.145541 0.4250954 -1.212772 0.4548578 0.3783219 0.8062115 7103860 male
1.845682 0.1766306 -1.023119 -0.2632296 0.9280072 -0.2636529 526600 male
1.171619 0.4270408 -1.243475 0.5809022 0.7365176 0.3465464 9143700 male
1.252627 0.4831136 -1.357234 0.9012657 -0.1396258 0.410152 16373714 male
1.415597 0.1615198 -1.128777 -0.5122813 0.849416 0.1267297 9674668 male
2.055228 0.1963441 -1.285891 -0.3117473 0.9361867 0.1623829 526600 male
1.275638 0.2459706 -1.661089 0.245318 0.9410144 -0.2330471 14856625 male
1.904277 0.1651644 -1.332234 0.4237886 -0.5970192 -0.6811544 526600 male
1.179466 0.3083759 -1.489797 -0.6469785 -0.3799881 -0.6610808 12368333 male
1.111338 0.3446687 -1.374942 -0.7895669 -0.08012827 -0.6084105 12170695 male
1.137678 0.3193977 -1.244221 -0.2798633 -0.5196991 0.8072107 4407110 male
1.594894 0.1932795 -1.335579 -0.1994139 0.8488201 0.489631 4145482 male
1.091974 0.3907781 -1.286912 -0.452798 -0.3660709 -0.8129982 6710377 male
1.368618 -0.01537012 -1.202566 -0.1952797 -0.8878181 0.4167071 4409684 male
1.118315 0.4455252 -1.338405 -0.8790271 0.4519506 -0.1518289 10065569 male
1.643344 0.2102755 -0.9647677 0.2156599 -0.7538985 0.6205867 526600 male
1.108271 0.3483458 -1.191854 0.3721839 0.3818612 0.8459676 15715282 male
1.254955 0.5528306 -1.307108 0.4608163 -0.1815521 0.8687274 12952987 male
1.198825 0.4040456 -1.567007 -0.517965 0.4314922 -0.7385979 11831683 male
1.37063 0.1232058 -1.170793 -0.7084644 0.6978175 0.1054934 8488851 male
1.10818 0.3707223 -1.276933 -0.7625844 -0.6199804 -0.1846328 527376 male
1.598266 0.1447433 -1.410022 0.1387141 0.1527699 -0.9784783 4277321 male
1.176083 0.2995146 -1.479359 -0.7121041 -0.4588137 -0.5314111 13092055 male
1.139537 0.3946436 -1.405802 -0.9398542 0.112484 -0.3225234 14604271 male
1.229244 0.2568415 -1.669672 0.0540234 0.9331918 0.355295 16106949 male
1.188509 0.6760756 -1.407779 0.2789972 0.6704217 -0.6875284 3420724 male
1.299569 0.02717152 -1.35131 -0.6831288 -0.6630378 -0.3061305 6316911 male
1.125963 0.6144853 -1.301123 -0.426217 -0.08410237 0.900703 12431281 male
1.665143 0.1909716 -1.426708 0.1525346 -0.04350274 -0.9873402 526600 male
1.252935 0.3463874 -1.600223 0.8449397 0.4159183 -0.3362868 15514290 male
1.186258 0.3834948 -1.514355 -0.8015803 -0.4728097 0.3659507 10850447 male
1.298559 0.03267458 -1.362375 -0.6946938 -0.6332211 -0.3412206 10130850 male
1.318567 0.3520814 -1.451978 0.7442555 -0.2579695 -0.6160645 8222597 male
1.307384 -0.004758347 -1.248492 -0.514479 -0.8534611 0.08315949 14014949 male
1.844899 0.2224135 -1.327633 0.3210936 0.8729062 0.3673332 526600 male
1.344114 0.06745911 -1.141673 -0.5684669 0.0186676 0.8224943 3618616 male
1.369091 0.130293 -1.422564 0.08224615 0.4663531 -0.880767 3223608 male
1.018594 0.2220425 -1.220629 0.9328413 0.2338705 -0.2740653 16702173 male
1.126917 0.5457292 -1.335226 -0.4858087 -0.680847 0.5481216 11971502 male
1.560915 0.2592655 -0.9913508 0.01224583 0.0440124 -0.9989558 526600 male
1.934211 0.1820567 -1.072731 0.4871813 0.1791392 -0.8547301 526600 male
1.246664 0.4528549 -1.409647 0.6044577 0.7797627 -0.1630981 11051697 male
1.402343 0.04106865 -1.406885 0.1121783 -0.3882763 -0.9146898 4014411 male
1.351465 0.09976013 -1.171722 -0.5740158 0.7589643 0.3073747 7172995 male
2.007912 0.1517268 -1.320392 -0.4582217 0.7141776 0.5291343 526600 male
1.693144 0.205094 -1.430158 -0.4317301 -0.8414137 -0.325011 526600 male
1.418563 -0.02915134 -1.339734 0.03017687 -0.9704621 -0.2393591 9408927 male
1.408654 -0.0237199 -1.220019 0.3517181 -0.9101973 0.2187127 6119272 male
2.038196 0.09463163 -1.337508 0.2059705 -0.9670963 0.1493351 526600 male
1.241571 0.4463826 -1.550721 0.2585679 0.5373489 -0.8027445 7169909 male
1.863226 0.1621512 -1.032131 -0.5234293 0.5850326 -0.6194824 526344 male
1.877366 0.1611527 -1.331861 0.3128437 -0.803006 -0.5072575 526600 male
1.996539 0.1172281 -1.338816 -0.1698193 -0.8354748 -0.5226312 526600 male
1.067219 0.2584474 -1.215347 0.8459951 -0.3965996 -0.3563721 10985641 male
1.116186 0.1251215 -1.095798 -0.04755942 -0.9979596 -0.04259995 14128535 male
1.103319 0.4337412 -1.280428 -0.6815842 0.7304958 0.04264891 8222845 male
1.195107 0.6964775 -1.352944 0.2561886 0.9649493 0.05692367 526600 male
1.265975 0.4399322 -1.399635 0.6063564 0.7928597 0.06087056 13157333 male
1.426826 -0.01231187 -1.37269 -0.009349376 -0.7468418 -0.6649361 10199476 male
1.722774 0.1935592 -1.416606 -0.3132302 -0.8729662 -0.3739209 526600 male
1.416329 0.1254044 -1.245693 0.3275884 0.9316805 0.1570263 3356221 male
1.059251 0.3647706 -1.23987 -0.9865268 0.1177523 -0.1135749 16106689 male
1.149156 0.4900301 -1.376859 -0.9680851 -0.2311199 -0.09692657 16771544 male
1.713725 0.2194783 -0.9999025 0.7223514 0.1993586 0.6621667 526600 male
1.256171 0.03889096 -1.26707 -0.7680169 -0.630482 -0.1124383 11512765 male
0.9896581 0.2075233 -1.15884 -0.4270343 0.4501041 0.78425 13478053 male
1.071133 0.416236 -1.24674 -0.938588 0.3268189 0.110644 6905962 male
1.68235 0.2483135 -0.9917531 0.7088439 0.6356539 0.3057523 526600 male
1.599255 0.1600247 -1.305105 -0.08263111 0.5190281 0.8507538 4013891 male
1.549622 0.2314091 -0.9613591 -0.6751432 -0.737638 0.008475631 526600 male
1.531865 0.2177716 -0.9894028 -0.4445653 -0.001450779 0.8957453 6119014 male
1.22755 0.6773127 -1.362853 0.6966128 0.7089239 -0.1102611 10918039 male
1.310018 0.01829121 -1.202589 -0.5148259 -0.5512916 0.6565301 3357251 male
1.151586 0.4330003 -1.427587 -0.9189763 0.3386047 -0.2020625 13158104 male
1.070361 0.3854895 -1.266842 -0.9111655 -0.01972459 -0.4115682 9077906 male
1.741547 0.2592895 -1.349191 -0.2334976 0.648961 0.7241053 526600 male
1.442624 0.2034654 -1.659966 0.0553672 0.9785552 -0.1984041 14461867 male
1.36207 0.2221096 -1.35582 0.9401478 0.2978196 -0.1656069 13157849 male
1.859781 0.2180054 -1.334704 0.3492616 0.9106917 0.2205832 526600 male
1.474715 0.0777825 -1.076818 -0.04749203 -0.5744103 0.8171887 5199457 male
1.782707 0.2636687 -1.392205 0.4906533 0.8713377 0.005466133 526600 male
1.1802 0.6434498 -1.29203 0.04919347 0.2312364 0.9716531 11906994 male
1.550489 0.2328397 -0.9430355 -0.5309451 -0.7837581 0.3222118 526600 male
1.516007 0.02910997 -1.261308 0.3228703 -0.2864864 0.9020422 2632238 male
1.204474 0.4094009 -1.247193 0.4527838 0.6776729 0.5794362 15524340 male
1.793112 0.1988641 -1.412623 0.4332671 -0.5487574 -0.7149439 526600 male
1.983825 0.148737 -1.343927 0.3775063 -0.5369063 -0.7544671 526600 male
1.09054 0.389266 -1.285169 -0.6878879 -0.4093468 -0.5993708 6842480 male
1.646875 0.2738682 -0.9767058 0.6273853 0.744153 0.229399 526600 male
1.229897 0.2577482 -1.694763 0.4044964 0.8443654 -0.3513257 12623255 male
1.2852 0.4087847 -1.364506 0.7188954 0.6010933 0.3491076 9537426 male
1.954964 0.1705299 -1.342092 0.6131047 -0.1617883 -0.7732575 526600 male
1.348056 0.1993973 -1.412944 0.8466115 0.1106006 -0.5205923 10065313 male
1.125728 0.6499524 -1.42995 -0.3146299 0.3774661 -0.8709347 4539717 male
1.132894 0.4010237 -1.213674 0.6045554 -0.0138816 0.7964421 15526140 male
1.149752 0.6698107 -1.420378 -0.04645878 0.6562324 -0.7531272 3289394 male
1.25749 0.6033391 -1.378438 0.8435951 0.4951351 -0.2078184 15646905 male
1.555654 0.1811006 -1.036677 0.5500976 -0.6135598 -0.5665131 8094348 male
1.592952 0.2357313 -0.9261854 0.04546344 -0.6411956 0.7660295 526600 male
1.238065 0.2247235 -1.217087 -0.1112217 -0.01131995 0.9937311 4472642 male
1.151996 0.2455031 -1.378723 -0.7008551 -0.5251265 -0.4827466 13353171 male
1.451889 0.03919821 -1.108302 0.05727184 -0.6869141 0.7244784 9739941 male
1.409021 0.06364816 -1.410472 0.1728216 -0.04778304 -0.9837934 5329243 male
1.086773 0.6400514 -1.337332 -0.8729575 0.2092626 0.4406296 526344 male
1.264227 0.5419168 -1.386634 0.6397806 -0.300681 -0.7072989 12230553 male
1.535483 0.1213457 -1.280217 -0.007886946 0.5741498 0.8187122 2829617 male
1.406374 0.1079004 -1.340707 -0.1956614 0.9343105 -0.2979607 9015461 male
2.020277 0.1342894 -1.314831 -0.2282434 0.5476633 0.8049657 526600 male
-2.469768 0.3920895 -1.396859 0.8793417 -0.453242 -0.1460481 4340793 male
-2.576122 -0.007703943 -1.366709 -0.8168107 -0.1138867 -0.5655531 2697257 male
-2.654863 0.03247595 -1.387992 0.9189097 -0.08049126 -0.386169 2895152 male
-2.478342 0.09256104 -1.294115 0.8620409 -0.1491663 0.4843915 2697257 male
-2.463545 0.4087234 -1.412985 0.8535799 -0.4602793 -0.2440172 4998462 male
-2.721966 -0.1130837 -1.32875 0.1638649 0.2787539 0.9462795 2303019 male
-2.496796 0.5472574 -1.548687 0.3314268 -0.2563037 -0.9080005 8618358 male
-2.48004 0.4808097 -1.523088 0.2853175 -0.4616974 -0.8398987 9012349 male
-2.554897 0.6600252 -1.693984 -0.7096167 -0.3096117 -0.6329179 16243662 male
-2.628432 0.1198386 -1.357816 0.9377444 -0.1544237 -0.3111097 2697006 male
-2.476173 -0.2977293 -1.318491 0.9236646 -0.2105261 0.3201917 2170913 male
-2.515141 0.7102756 -1.752147 -0.393002 -0.03767595 -0.9187655 6709083 male
-2.706591 0.4154726 -1.347618 -0.9097888 0.3715906 0.1849458 6972256 male
-2.525291 0.3960941 -1.473508 0.3613607 -0.4795166 -0.7996765 8682867 male
-2.559998 0.335442 -1.245483 0.04590634 0.5639882 0.824506 9472128 male
-2.56358 -0.09709613 -1.323753 -0.8972155 -0.2446593 0.3676226 2169889 male
-2.754225 0.1084903 -1.298299 -0.7856606 -0.1709342 0.5945748 2171429 male
-2.400695 0.5653728 -1.440964 -0.7649015 -0.6437851 0.02160448 7958385 male
-2.497739 -0.4520875 -1.418855 -0.3744018 -0.9199162 -0.1165233 2105120 male
-2.417365 0.6281925 -1.422761 0.258688 0.5671123 0.7819619 6709341 male
-2.542498 0.5899466 -1.580048 -0.1737022 -0.8739173 -0.453978 16577772 male
-2.532764 0.1455228 -1.399407 0.01845607 0.09029481 -0.9957442 3158585 male
-2.738332 -0.4305964 -1.513373 0.08217118 -0.994935 -0.05789867 526344 male
-2.764539 0.3595361 -1.421739 0.2792247 -0.3215079 0.9048019 6051156 male
-2.718826 -0.2706525 -1.391492 0.6788726 -0.1416271 -0.7204679 2499878 male
-2.621835 0.5994231 -1.394853 -0.1030673 0.6375639 0.7634721 8486261 male
-2.559653 0.5660044 -1.359889 -0.2826527 0.5072604 0.814122 8156014 male
-2.456175 0.5524157 -1.367176 0.4518835 0.1778864 0.8741615 7564651 male
-2.721375 0.08512529 -1.424947 -0.2236991 -0.001894385 -0.9746566 3619392 male
-2.321406 0.5533842 -1.41002 0.7614923 0.01648171 -0.6479647 16242633 male
-2.611075 0.2618385 -1.22062 -0.17618 0.1170358 0.9773759 9209213 male
-2.594222 0.5585089 -1.568284 0.07447657 -0.226042 -0.9712664 7696236 male
-2.466491 -0.2376008 -1.336464 0.9795199 -0.1236089 -0.1589399 2697257 male
-2.352966 0.6110918 -1.465167 0.9481224 0.1226604 -0.2932893 16377291 male
-2.492129 0.5890349 -1.62343 0.5364612 -0.673827 0.5081012 11510936 male
-2.73564 0.6232033 -1.532212 -0.8691233 0.4424791 0.2209911 8681843 male
-2.475105 0.1288853 -1.290575 0.9074137 -0.08159125 0.4122423 2170913 male
-2.483188 -0.0591354 -1.320391 0.9694009 0.04112244 0.242015 2301988 male
-2.713791 -0.06056827 -1.438114 0.08763109 -0.2274362 -0.9698421 4211528 male
-2.564528 0.6459756 -1.458877 -0.1032373 0.8895886 0.4449429 7301988 male
-2.704815 0.3946122 -1.404697 -0.9043339 -0.0243082 -0.4261333 2828585 male
-2.719849 0.4490049 -1.432501 0.8454566 -0.1586801 0.5099254 14862282 male
-2.54885 0.7307207 -1.726305 -0.7641667 0.09313116 -0.6382604 8090995 male
-2.676519 0.2164026 -1.223171 -0.1180374 -0.1951323 0.9736483 2765106 male
-2.422611 0.7228926 -1.67251 0.9962139 -0.04535798 0.07416695 3947060 male
-2.710061 -0.1193788 -1.414414 0.5714681 -0.2973627 -0.7648529 2235939 male
-2.713799 0.5446965 -1.553275 -0.2201498 -0.3017071 -0.9276353 6841440 male
-2.767726 0.09417922 -1.37846 -0.9551035 0.01482963 -0.2959019 1908771 male
-2.66049 0.249898 -1.223181 -0.06444821 0.02966931 0.9974801 11906217 male
-2.700874 0.4930863 -1.455206 -0.9003341 -0.2827763 -0.3308117 2632488 male
-2.569733 0.2673852 -1.216426 0.07447883 0.188523 0.9792407 9339773 male
-2.665584 -0.02818207 -1.394295 0.8994762 -0.2241237 -0.375115 2500651 male
-2.474772 0.2212254 -1.302134 0.9734431 0.09141365 0.2098863 2303014 male
-2.620602 0.2941175 -1.426249 -0.1783608 -0.3510263 -0.9192215 7761000 male
-2.294069 0.5329598 -1.29579 -0.7932432 0.1418291 -0.5921571 16770003 male
-2.430879 0.770482 -1.681445 0.8947396 0.4363521 -0.09506893 4340793 male
-2.498757 0.008746773 -1.292555 0.7536331 -0.1783235 0.6326438 3156784 male
-2.520439 0.6734766 -1.521228 0.03971734 0.9933138 0.1083985 8946816 male
-2.651957 0.6593087 -1.517483 -0.4335691 0.8955484 -0.1000546 6971741 male
-2.712875 0.1945746 -1.237561 -0.4662116 -0.2719776 0.8418285 2499878 male
-2.475732 0.20793 -1.29548 0.9578497 0.07669377 0.2768435 2699056 male
-2.729818 -0.388152 -1.430969 0.8527828 0.4826138 -0.1996137 2961461 male
-2.777198 -0.2146337 -1.364929 -0.984246 -0.1402922 0.1076017 1908256 male
-2.475369 0.5628343 -1.542379 0.4313434 -0.07393272 -0.8991535 7892328 male
-2.588957 0.1447708 -1.243682 -0.4531318 -0.4306355 0.7805285 5724511 male
-2.759504 -0.428468 -1.374726 0.02849695 -0.9995688 0.007072241 526600 male
-2.672895 0.5718428 -1.559069 0.1712987 -0.9806125 -0.09516263 5262410 male
-2.465033 -0.4589128 -1.429455 0.1075723 -0.9828365 -0.1498683 526344 male
-2.745643 -0.3442249 -1.411055 -0.1304081 0.3759683 -0.9174104 1645082 male
-2.769395 -0.383051 -1.354287 -0.8322692 0.0860676 0.5476501 3159864 male
-2.298867 0.4994991 -1.242373 -0.5878972 -0.2435376 0.7714056 13153205 male
-2.275442 0.3536876 -1.292978 0.7486539 -0.2817854 0.6000954 14859969 male
-2.423833 0.5219729 -1.474033 0.6876919 -0.6362038 0.3497495 5394770 male
-2.491318 0.7235664 -1.756619 -0.02989498 0.1396982 -0.9897429 15590106 male
-2.620729 0.4550796 -1.522412 -0.2121253 -0.697042 -0.6849346 7695719 male
-2.479813 0.5446976 -1.541047 0.3378109 -0.1949823 -0.9207963 9406848 male
-2.684274 -0.08811293 -1.35469 0.7545595 -0.1211769 0.6449468 1908769 male
-2.494196 0.2673458 -1.363497 0.6105254 0.05521103 -0.7900701 6511963 male
-2.350452 0.5535077 -1.438105 0.4298457 -0.3842521 -0.8170577 9275521 male
-2.451221 0.7316133 -1.740573 0.6417629 0.2084536 -0.7380297 6708568 male
-2.494571 -0.3003857 -1.364928 0.2657459 -0.03273577 -0.9634873 2499878 male
-2.4966 0.4783165 -1.325258 0.4195069 0.1480102 0.8956044 5460555 male
-2.272481 0.4524136 -1.311123 0.4857095 0.06199316 -0.8719193 13480869 male
-2.399545 0.5681184 -1.504106 0.2451629 -0.868862 -0.4300861 6906206 male
-2.512163 -0.2639499 -1.363822 -0.3079666 -0.05639595 -0.9497244 2500137 male
-2.696886 0.1371945 -1.421606 0.1355759 0.1025876 -0.9854417 5198423 male
-2.46666 -0.1619972 -1.308126 0.9524407 0.1337126 0.2738211 2565671 male
-2.501886 -0.01955944 -1.381199 0.6581348 -0.1424661 -0.7392986 3224633 male
-2.515642 0.688949 -1.748826 -0.4017182 -0.2712955 -0.8746551 7431009 male
-2.531255 0.3597214 -1.269353 0.3583274 0.6142721 0.7030444 9668738 male
-2.571921 0.6683277 -1.507711 0.06860372 0.9808325 0.1823765 10921118 male
-2.358724 0.6270667 -1.47785 0.9160259 0.3867356 -0.1064546 9538433 male
-2.642544 0.06819472 -1.36737 0.9283709 -0.2133672 -0.3043059 3222577 male
-2.833673 0.2043163 -1.453077 -0.979957 0.1574999 0.1219767 14727858 male
-2.659661 0.3433856 -1.433501 -0.5287145 -0.2791184 -0.8015949 7103330 male
-2.685479 -0.141943 -1.372356 0.9760567 0.04207658 -0.2134087 1776155 male
-2.482399 -0.1592649 -1.364542 0.5648519 0.07586215 -0.8216981 3224377 male
-2.762818 -0.1687284 -1.329492 -0.64346 -0.005414004 0.7654607 2697265 male
-2.428341 0.7387459 -1.705459 0.9128403 0.1476212 -0.3806977 3749169 male
-2.513774 -0.1581873 -1.273898 -0.0654054 0.1417741 0.987736 3026995 male
-2.706291 -0.008984024 -1.311353 0.08935225 -0.2122689 0.9731179 3026222 male
-2.394139 0.6243525 -1.508351 0.4283921 0.6802385 -0.5947739 5788240 male
-2.718598 -0.1765322 -1.321893 0.2614792 -0.06320901 0.9631373 2171945 male
-2.770195 -0.3585987 -1.368647 -0.9902156 0.02238298 0.1377401 2368292 male
-2.393926 0.5746136 -1.506378 0.2359022 -0.8493891 -0.4721107 4933187 male
-2.540044 -0.2850323 -1.331851 -0.97532 -0.1759472 -0.1333929 1775643 male
-2.736261 0.445239 -1.419042 0.391529 -0.07865245 0.9167983 5656398 male
-2.533607 0.4645893 -1.514642 -0.2174556 -0.6027949 -0.7676923 8551026 male
-2.68885 -0.1702404 -1.384529 0.8551471 -0.01785692 -0.5180781 2368294 male
-2.679618 0.3712291 -1.289753 -0.3526622 0.6159207 0.7044652 6247766 male
-2.545939 0.7887059 -1.692542 -0.7075843 0.6410238 -0.2973435 5327945 male
-2.387183 0.5520144 -1.441767 -0.4708163 -0.7713487 -0.4281977 8089970 male
-2.539466 0.7703183 -1.719646 -0.6114923 0.4677411 -0.6381972 5196100 male
-2.560314 0.6985695 -1.697867 -0.928347 -0.1086674 -0.3554766 6314326 male
-2.561386 -0.005844881 -1.281982 -0.4709133 -0.2424922 0.8481972 3223865 male
-2.464613 -0.1849704 -1.341923 0.9581317 0.04394956 -0.2829353 2435117 male
-2.452767 0.44596 -1.376505 0.931461 -0.2030151 0.3019364 4604222 male
-2.594821 0.4573523 -1.314157 -0.169197 0.372117 0.9126344 8551544 male
-2.476816 0.01064714 -1.340528 0.9742807 -0.2152079 0.06680691 2237481 male
-2.699896 0.1705322 -1.240287 -0.2066922 -0.5232384 0.8267407 4407879 male
-2.458942 0.8002995 -1.654142 0.5226337 0.8197468 0.2342419 4406587 male
-2.569889 0.6569788 -1.6371 -0.9810351 -0.1769087 0.07920724 13614004 male
-2.736663 0.1760383 -1.401568 -0.5953677 0.2285184 -0.7702706 2895406 male
-2.614087 0.2931296 -1.426707 -0.1129332 -0.3462473 -0.9313211 7958377 male
