# .PCD v0.7 - Point Cloud Data file format
VERSION 0.7
FIELDS x y z normal_x normal_y normal_z rgb label
SIZE 4 4 4 4 4 4 4 4
TYPE F F F F F F U U
COUNT 1 1 1 1 1 1 1 1
WIDTH 251
HEIGHT 1
VIEWPOINT 0 0 0 1 0 0 0
POINTS 251
DATA ascii
1.284241 0.5969535 -0.9171107 -0.05306876 -0.5727317 0.8180233 7433331 male
1.408792 0.5124327 -0.8298593 0.6385025 0.7121107 -0.2919125 4541269 male
1.716247 0.3611265 -0.9644802 0.8635828 -0.09805088 -0.4945814 526600 male
1.303402 0.4023939 -0.8475207 -0.4730363 -0.7691488 0.4297055 9673132 male
1.301677 0.5837963 -0.9316894 0.1262078 -0.7016004 0.7013048 8288391 male
1.685857 0.5770254 -0.9490563 0.9401159 0.3408499 0.00183183 3817286 male
1.287749 0.407861 -1.120867 -0.3047464 -0.5156704 -0.8007582 5923183 male
1.471916 0.6878625 -0.8953516 0.7153616 -0.6163886 0.3291244 11776201 male
1.684665 0.7339116 -0.8944028 0.8854718 0.06386676 -0.4602833 14593191 male
1.465141 0.5209621 -1.001192 -0.09923381 0.9284223 0.358029 8686492 male
1.432639 0.5044835 -0.6525604 -0.9964372 0.07840226 -0.03108117 526600 male
1.710065 0.8045222 -0.8407839 0.9802081 0.181184 0.07977664 15449278 male
1.304707 0.6726055 -1.135475 -0.2470349 0.1560255 -0.9563628 6841969 male
1.323612 0.5707729 -1.03235 0.7078992 -0.5435153 0.4510761 11710915 male
1.173764 0.5741352 -1.041611 -0.900302 0.1213352 -0.4180121 9078674 male
1.43875 0.4739476 -0.7379718 -0.0595687 -0.9412077 -0.3325352 8094355 male
1.538951 0.4312384 -1.031351 0.4230784 -0.5921513 -0.685829 6580083 male
1.436743 0.7211685 -0.759216 0.4352711 -0.4584214 0.7748477 9867682 male
1.443765 0.3309045 -0.7490015 0.6371953 0.07874349 -0.766669 526600 male
1.453654 0.708171 -0.8263687 0.9062251 -0.4192224 0.05485049 9143700 male
1.554113 0.7082419 -0.9197502 -0.05016244 -0.9861401 0.1581503 15780039 male
1.370305 0.4895284 -0.9194036 0.7617395 0.5115215 -0.3976163 4277068 male
1.660999 0.2235955 -0.7542121 -0.4319136 0.8980038 -0.08390394 526600 male
1.393261 0.6437743 -1.239335 -0.2321158 -0.3189717 0.9189011 11706018 male
1.702554 0.4314441 -0.9768909 0.5659889 -0.2942446 -0.7701147 526600 male
1.470175 0.8401209 -1.000189 0.0504329 0.9965804 -0.06545381 11643577 male
1.346969 0.8164972 -0.9183677 -0.4106138 0.9111519 -0.03461879 16577789 male
1.336296 0.6330674 -0.8835875 -0.03063202 -0.6207348 0.783422 7827837 male
1.493271 0.5236088 -0.9909155 -0.01888897 0.9390875 0.3431588 8292245 male
1.21147 0.4617177 -0.7417973 -0.2848347 0.1104798 -0.9521887 9798018 male
1.189457 0.5132257 -1.068426 -0.8563175 -0.09823342 -0.5070211 7894663 male
1.480572 0.7740692 -0.8637981 0.5989331 -0.1811028 0.7800518 9143183 male
1.486449 0.4659617 -0.612032 0.1382295 -0.4210409 0.8964471 526600 male
1.331793 0.6581202 -0.7496681 0.6694017 -0.5858898 0.4567652 16638945 male
1.641464 0.6616985 -0.9001562 -0.1455888 -0.9695613 -0.1968623 11113360 male
1.539051 0.7291205 -1.099075 0.7046949 -0.6486645 -0.2874708 9997718 male
1.326011 0.5091607 -0.9636219 0.5263343 0.7888214 -0.3173846 3225410 male
1.371503 0.7281197 -0.8312682 -0.5355337 -0.8405606 0.08161874 526600 male
1.57963 0.4885755 -1.030787 0.4458945 -0.00844857 -0.8950456 526344 male
1.476894 0.8322735 -0.9635828 0.05944253 0.945944 0.3188363 12893900 male
1.39507 0.817129 -0.9744524 -0.2943598 0.9517472 0.08677331 15723258 male
1.3838 0.6894518 -1.294884 -0.07883909 -0.007812158 -0.9968568 14133419 male
1.577058 0.8008487 -0.9177074 -0.49481 0.2544916 -0.8309014 11443871 male
1.207989 0.5140346 -1.098797 -0.8473744 -0.07437462 -0.5257615 7039864 male
1.602665 0.7865835 -0.7797738 -0.2482699 -0.2629388 0.9323226 12431281 male
1.642642 0.528599 -1.010236 0.2738608 -0.1714025 -0.9463727 2435117 male
1.468749 0.709956 -1.183376 0.8211839 -0.549778 -0.1529742 15845323 male
1.454835 0.4336679 -1.100205 0.4428595 -0.1270358 -0.8875458 3092790 male
1.23938 0.478426 -1.13167 -0.6331001 -0.2409831 -0.7356027 11450055 male
1.424183 0.6808143 -1.101029 0.5564387 -0.3306722 -0.7622544 3750721 male
1.18899 0.5450176 -1.070648 -0.855394 0.03863195 -0.5165353 12564681 male
1.724688 0.3424336 -0.9474295 0.7290596 0.4306051 0.5320256 526600 male
1.215409 0.5085078 -0.9128188 -0.6831782 0.2038425 0.7012245 7435905 male
1.345156 0.5727445 -1.126487 0.683564 0.5638648 -0.4634618 7631484 male
1.240975 0.6671734 -0.7747049 0.568236 -0.4903454 -0.6608095 16702173 male
1.61569 0.8268883 -0.7742938 -0.08270499 0.2043257 0.975403 526600 male
1.508996 0.5356873 -0.6910729 0.382385 -0.2043674 -0.9011192 526600 male
1.348503 0.4883661 -0.9829965 -0.5693373 0.02285376 0.8217863 3422012 male
1.537495 0.7999439 -1.014723 0.9657272 0.2532591 -0.05683938 4407883 male
1.354836 0.4424847 -1.138218 0.3262855 -0.001181086 -0.9452705 4869714 male
1.221411 0.4628976 -0.8986923 -0.7765883 -0.01755741 0.6297637 3026486 male
1.716763 0.2919745 -0.9268785 -0.2881904 0.5502137 0.7837162 526600 male
1.733137 0.5702734 -0.9400559 0.9237519 -0.1576694 0.3490311 526600 male
1.280085 0.3907433 -1.097176 -0.4151811 -0.7604461 -0.4993458 9408927 male
1.441858 0.451708 -0.8107933 0.7172072 -0.4243992 -0.5527199 3487804 male
1.722427 0.2581241 -1.031008 0.09453544 -0.8835379 -0.4587197 526600 male
1.474697 0.7998717 -1.086393 -0.5546526 0.6105647 -0.5653062 8355463 male
1.405223 0.3517174 -0.7471999 -0.4214539 0.2818717 -0.861931 526600 male
1.67551 0.4158706 -0.9828033 -0.07011497 -0.2967012 -0.9523929 526600 male
1.695432 0.2876973 -1.031928 0.1696584 0.2677131 -0.9484439 526600 male
1.260555 0.6696135 -0.7483784 0.8766295 -0.4058029 -0.2585432 13673894 male
1.176311 0.4881349 -0.705623 -0.9277934 0.1756203 -0.3291762 15971757 male
1.432076 0.7779586 -0.8044695 0.4070746 0.598778 0.6897501 8222845 male
1.700665 0.828824 -0.8315479 0.8513997 0.4811898 0.2087462 526600 male
1.488396 0.6669354 -1.030947 0.7318446 -0.6813425 -0.01326409 12234948 male
1.300591 0.4103368 -1.12589 -0.2203417 -0.4290584 -0.8759899 7896721 male
1.734799 0.5464599 -0.9708504 0.910416 -0.03700394 -0.4120355 526600 male
1.239958 0.5512158 -0.9190413 -0.007222027 0.692106 0.7217598 3947330 male
1.359064 0.7599897 -0.8100252 -0.678018 0.643535 -0.355182 8749457 male
1.524606 0.7835581 -0.8798825 -0.6112141 0.4980939 0.615077 14592668 male
1.484661 0.4071755 -0.6666702 0.9244256 -0.3206936 0.2063804 526600 male
1.17971 0.5934018 -1.050215 -0.9155131 0.05771896 -0.3981261 13355740 male
1.187201 0.6518004 -0.708344 -0.3162169 0.2205362 0.9226975 12753046 male
1.397842 0.7476345 -0.7573009 0.02513611 0.3320187 0.9429379 6184039 male
1.480954 0.4014115 -0.6621743 0.8232379 -0.363345 0.4361878 526600 male
1.463029 0.5018111 -0.9760341 -0.2538626 0.595343 0.7623126 6250863 male
1.45063 0.5538579 -0.6581889 -0.8183329 0.4399101 -0.3698789 526600 male
1.491618 0.5375674 -0.6951516 0.8380012 0.5359961 0.1022846 1644826 male
1.69905 0.7945582 -0.8850067 0.8166084 0.1866707 -0.5461727 14532032 male
1.166077 0.5716541 -1.024634 -0.9299731 0.1676989 -0.3271502 13157329 male
1.502559 0.8205042 -0.9393975 0.09439936 0.9456511 0.3111795 12038593 male
1.381242 0.6733359 -0.7841699 0.6178472 -0.7862283 0.01048008 14988728 male
1.65434 0.5139878 -0.9124424 -0.5412872 -0.05719049 0.8388906 526600 male
1.443473 0.5452833 -1.296774 -0.2797778 -0.2215877 -0.9341431 15584208 male
1.381702 0.5797462 -1.034615 0.6921055 -0.720723 0.03934973 16185078 male
1.700453 0.3993855 -0.932063 0.2745953 0.173409 0.9457942 526600 male
1.272845 0.4368474 -0.8431082 -0.6689081 -0.2945472 0.6824982 3619392 male
1.685973 0.553566 -0.9104071 0.1528527 0.04927593 0.9870197 526600 male
1.673175 0.7435656 -0.8052233 0.370341 -0.476473 0.7973839 14992058 male
1.452443 0.5480334 -0.615398 -0.7938875 0.1905298 0.5774434 526600 male
1.418244 0.4124528 -0.9695578 -0.167117 -0.3021296 0.938504 3618878 male
1.446873 0.69705 -0.844209 0.8347936 -0.4988216 0.2330166 11118265 male
1.649844 0.5744986 -0.9635695 -0.965167 0.1047165 -0.2397645 526600 male
1.725304 0.2760769 -1.022368 0.3836001 0.118 -0.9159297 526600 male
1.419702 0.7246805 -0.7551675 0.2171744 -0.3012543 0.9284832 9012623 male
1.520472 0.5027971 -0.6452078 0.9710065 -0.2390534 5.510449E-05 592137 male
1.429202 0.6666923 -1.270724 0.9090785 0.3103876 -0.2779131 16172741 male
1.422919 0.6159361 -1.020956 0.6351225 -0.7599123 0.1383932 13878982 male
1.694167 0.4828351 -0.9175377 0.3394414 -0.106495 0.9345793 526600 male
1.24649 0.6807521 -1.063484 -0.7887075 0.5847088 -0.1898842 9868455 male
1.609442 0.8720853 -0.8820377 -0.08604872 0.8478935 -0.523137 4539717 male
1.413043 0.7594857 -0.7591752 -0.05649921 0.4439888 0.8942494 6907762 male
1.644184 0.8714789 -0.867026 0.3363153 0.8815434 -0.3313206 5262410 male
1.674102 0.7589126 -0.9144946 0.7878507 0.1214117 -0.6037802 14331041 male
1.492721 0.5095494 -0.7173839 0.3717903 -0.4915308 -0.7875084 526600 male
1.483364 0.5285662 -0.5947545 -0.2405989 -0.1099131 0.9643813 526600 male
1.264257 0.6529486 -0.8974744 -0.5571855 -0.164694 0.8138919 6052448 male
1.354349 0.8084419 -0.9650767 -0.2861869 0.9063758 -0.3107733 12236232 male
1.338752 0.452996 -0.779138 -0.6555309 -0.1667254 0.7365336 3356476 male
1.355091 0.4216312 -1.133862 0.2699261 -0.2118872 -0.9392784 4804439 male
1.544348 0.8293846 -0.8362998 -0.9055677 0.3899028 0.1671014 9735828 male
1.662558 0.7088822 -0.9215855 0.5152143 -0.1780644 -0.8383599 14595757 male
1.430825 0.453146 -0.9646834 -0.1936083 0.1991401 0.9606556 2763053 male
1.332713 0.4946446 -1.082533 0.3846567 0.9120688 -0.1420197 12699352 male
1.693881 0.2704143 -0.9943198 -0.6328911 -0.2990855 0.7141405 526600 male
-2.518933 0.4369249 -1.421126 0.8558545 -0.3397713 -0.3899599 5394762 male
-2.512206 0.05800943 -1.33197 0.9392508 -0.1545972 -0.3064441 4277322 male
-2.711083 0.003728286 -1.425669 0.1161063 -0.07553951 -0.9903602 3553342 male
-2.562601 0.03825211 -1.247725 0.4151771 -0.2685174 0.8692104 2697257 male
-2.547645 0.3454412 -1.365841 0.8642899 -0.313028 -0.3937217 7038307 male
-2.780001 -0.1080919 -1.363268 -0.9375263 0.2920915 0.1890166 2565415 male
-2.73651 0.3570239 -1.411176 -0.7041422 -0.247233 -0.6656274 3289393 male
-2.522895 0.482201 -1.461741 0.6644284 -0.5024529 -0.5532416 5922130 male
-2.631862 0.6984537 -1.601134 -0.9751503 -0.201695 -0.09165749 8220010 male
-2.671056 0.08637277 -1.393762 0.8809498 -0.03140454 -0.4721668 3026222 male
-2.587368 -0.3109557 -1.32564 -0.7833168 -0.01692281 -0.6213924 2038303 male
-2.54931 0.732298 -1.695309 0.04963139 -0.02838846 -0.9983642 7562847 male
-2.739796 0.4001076 -1.426726 -0.8186227 -0.2404843 -0.5215596 3223601 male
-2.574046 0.4187256 -1.465688 0.4027362 -0.2825841 -0.8706033 9012607 male
-2.60541 0.3561109 -1.226488 0.05685452 0.576989 0.8147708 9143677 male
-2.589706 -0.05468148 -1.268903 -0.3959914 -0.1261821 0.9095434 2369324 male
-2.788223 0.06117167 -1.358129 -0.9753275 -0.2205764 0.009093046 2369321 male
-2.446226 0.69469 -1.455551 0.2978755 0.8387927 0.455738 11381413 male
-2.570913 -0.4292495 -1.35277 -0.6658892 -0.3870852 -0.6377751 592137 male
-2.47387 0.5977968 -1.377523 0.6526538 -0.4331761 0.6216122 2829355 male
-2.624523 0.6337334 -1.556346 -0.4420454 -0.6595716 -0.6079155 16113108 male
-2.554269 0.1333511 -1.365966 0.2377521 0.08318457 -0.9677575 3552824 male
-2.642121 -0.4561069 -1.479937 -0.9703687 -0.2013512 0.1335754 986895 male
-2.656519 0.6298308 -1.834283 0.3225539 -0.8272886 -0.4599485 5392714 male
-2.719329 -0.2337034 -1.395603 0.8483901 -0.1417155 -0.5100502 2500910 male
-2.728178 0.6247727 -1.42191 -0.4655823 0.7109458 0.5270571 10656657 male
-2.621769 0.6679982 -1.41289 -0.5180314 0.7578518 0.3966159 10196883 male
-2.495614 0.5168635 -1.370989 0.9911455 -0.09183069 0.0959059 3222569 male
-2.710055 0.05604761 -1.428933 0.2540653 -0.09046193 -0.9629475 4475215 male
-2.422843 0.6371529 -1.461261 0.6566325 -0.4960625 0.5681161 5328969 male
-2.617348 0.2750025 -1.196009 0.1463956 0.168067 0.9748447 8616307 male
-2.558997 0.6911994 -1.454849 0.3864903 0.8439648 -0.3719526 3748913 male
-2.569473 -0.1716994 -1.250489 -0.09042796 -0.008486541 0.995867 3749948 male
-2.412518 0.6907857 -1.598102 -0.7313332 0.5451634 -0.4098158 16771807 male
-2.532184 0.6359919 -1.662854 0.6545863 -0.1449444 -0.7419624 12430500 male
-2.760408 0.5887328 -1.573773 -0.9449545 -0.1744676 -0.2768074 6776159 male
-2.537664 0.1955795 -1.345692 0.5783116 0.2951915 -0.760538 4276289 male
-2.452921 0.6236933 -1.406356 0.7750598 0.1356398 0.6171584 3617583 male
-2.758178 -0.05325188 -1.403614 -0.7864668 -0.02114077 -0.6172709 2565678 male
-2.674934 0.6530582 -1.427903 -0.2084961 0.7896962 0.5769832 16245693 male
-2.66746 0.5953994 -1.360527 -0.3022695 0.5336295 0.7898562 8353652 male
-2.678989 0.7041307 -1.877222 -0.8962974 0.2760604 -0.3470476 16772068 male
-2.619729 0.6539012 -1.582922 -0.8941166 -0.4142365 -0.1701878 11508886 male
-2.741228 0.2346654 -1.229921 -0.3916285 -0.05955768 0.9181941 3092015 male
-2.492994 0.7600226 -1.605957 0.9810391 0.1851783 0.05719656 3947060 male
-2.698478 -0.03627721 -1.429093 0.359492 0.002372576 -0.9331452 4079690 male
-2.669096 0.6600691 -1.647489 0.5956829 0.801329 0.05508205 7695462 male
-2.689193 0.5924119 -1.649552 0.5615076 -0.8170079 -0.1311772 4408384 male
-2.727377 0.2713407 -1.229372 -0.3512022 0.1771682 0.919385 9537926 male
-2.728028 0.5172867 -1.499416 -0.6362696 -0.491413 -0.5947054 4078390 male
-2.657113 0.4633644 -1.300166 -0.5579568 0.2929128 0.7764577 8617082 male
-2.712718 0.03605947 -1.427862 0.1825517 -0.1347209 -0.9739228 4212040 male
-2.520774 0.223785 -1.253202 0.8969499 0.07593137 0.4355635 2632238 male
-2.698742 0.3087952 -1.414255 -0.1430664 -0.1203376 -0.9823701 6970971 male
-2.3869 0.6491768 -1.608924 -0.3114689 -0.8209838 -0.4785111 16704221 male
-2.540184 0.7412331 -1.521504 0.4363755 0.08738565 0.8955114 8090222 male
-2.591764 -0.04225956 -1.26558 -0.3327141 -0.1760897 0.9264416 3092015 male
-2.50643 -0.4389101 -1.421982 0.2025509 0.9778029 0.05361533 2631720 male
-2.678609 0.6327524 -1.531272 0.643733 0.6082116 -0.4644209 4670271 male
-2.802225 0.1904832 -1.318513 -0.9966025 -0.03622139 0.07397074 2960433 male
-2.525756 0.1834991 -1.241946 0.8199283 -0.01632967 0.5722335 2499878 male
-2.777402 -0.4206415 -1.381736 0.950451 -0.009134892 0.3107407 2698029 male
-2.788393 -0.1633422 -1.391365 -0.9191539 0.0627261 -0.3888727 1908769 male
-2.551557 0.5810167 -1.505603 0.4544131 -0.06501146 -0.8884157 8748149 male
-2.618584 0.1459904 -1.212559 -0.2657948 -0.4608402 0.8467465 3355451 male
-2.793547 -0.4491152 -1.438243 -0.1204453 -0.98953 0.07951996 920334 male
-2.698297 0.6707286 -1.619933 0.1162946 0.9874608 -0.1067563 5657166 male
-2.552931 -0.3692856 -1.360281 -0.1729237 0.417624 -0.8920134 3092015 male
-2.727386 -0.2321706 -1.409784 0.6812868 -0.152518 -0.7159517 2566703 male
-2.78218 -0.3660943 -1.340286 0.4116942 0.03823853 0.9105197 3289915 male
-2.402122 0.6580548 -1.609643 -0.569132 -0.5662286 -0.5962166 16770530 male
-2.266262 0.7266315 -1.766438 0.1660851 -0.7222403 -0.6714051 6182484 male
-2.478523 0.5531471 -1.442916 0.9297345 -0.3646505 0.05122435 4866619 male
-2.614634 0.8104592 -1.601276 -0.661961 0.7476605 -0.05302453 6709342 male
-2.633591 0.5611561 -1.537055 0.3367077 -0.1051417 -0.9357208 8484727 male
-2.549611 0.5651825 -1.503178 0.4230944 -0.1119139 -0.8991479 5392460 male
-2.76425 -0.2144741 -1.41775 -0.4548267 -0.1394911 -0.8795881 2039327 male
-2.533044 0.2943025 -1.325373 0.814326 0.03788633 -0.5791701 6512219 male
-2.375997 0.6594033 -1.530571 0.8561692 -0.01347837 0.5165199 10063503 male
-2.551205 0.7038207 -1.52339 0.5125952 0.1841241 0.8386566 7628644 male
-2.538794 -0.2230356 -1.268752 0.6607044 -0.2249418 0.7161503 1974561 male
-2.634653 0.3662462 -1.240369 -0.2325814 0.654905 0.719031 9537152 male
-2.281407 0.6619366 -1.641767 0.8974558 -0.01375077 0.4408906 16637396 male
-2.425964 0.6504709 -1.44601 0.6733436 -0.09722919 0.7329087 7235942 male
-2.524941 -0.236857 -1.307962 0.9792758 -0.2021821 0.01190245 2696233 male
-2.667575 0.04964749 -1.342814 0.9767417 -0.1548613 0.1483031 1711394 male
-2.533774 -0.06349541 -1.287941 0.8748604 -0.02845673 0.4835389 2171945 male
-2.533345 -0.03125416 -1.331263 0.972246 -0.1418464 -0.1860582 3421244 male
-2.578542 0.6987974 -1.682612 -0.09000374 -0.7438302 -0.662281 10656657 male
-2.575473 0.2960991 -1.215555 0.5454174 0.1029028 0.8318239 6775394 male
-2.699127 0.6699917 -1.471932 -0.4340554 0.8705745 0.2317242 10592153 male
-2.404967 0.6662978 -1.486386 0.7847128 0.1995289 0.5868683 9735046 male
-2.669649 -0.02009368 -1.370651 0.9904562 -0.1377173 0.005547643 2368036 male
-2.612132 0.878423 -1.954488 -0.3239243 0.9300593 -0.1733862 16045517 male
-2.765613 0.3281071 -1.389625 -0.6612917 0.4014196 -0.6336843 2697767 male
-2.70764 -0.228833 -1.367936 0.9755058 -0.2183576 -0.02661932 2368550 male
-2.521903 0.07981973 -1.26691 0.7973253 -0.2121692 0.5650283 2171688 male
-2.772488 -0.1835209 -1.413824 -0.6310622 -0.02791673 -0.77523 1973793 male
-2.493981 0.710771 -1.602882 0.9909361 0.02668518 0.1316585 7169635 male
-2.533358 -0.05403111 -1.292383 0.9329974 -0.03151138 0.3585012 2236714 male
-2.66823 0.11436 -1.297919 0.8138434 -0.1879722 0.5498415 2368292 male
-2.483147 0.6978149 -1.469675 -0.2416943 0.9691215 -0.04886114 6183254 male
-2.790914 -0.2095754 -1.370466 -0.9929093 -0.1183801 0.01085049 2171941 male
-2.80957 -0.3889421 -1.36929 -0.9349066 -0.09570947 0.3417448 2763314 male
-2.419495 0.6546727 -1.456688 0.7139615 -0.03300428 0.6994069 7629671 male
-2.557212 -0.127156 -1.346975 -0.05941769 -0.2040236 -0.9771612 2301987 male
-2.643538 0.7482507 -1.916024 -0.7408855 0.2048239 -0.6396375 16770786 male
-2.625919 0.4497937 -1.495024 0.3170286 -0.2701361 -0.9091312 16768949 male
-2.72362 -0.2858533 -1.370235 0.9821205 -0.1882306 0.002977252 2105120 male
-2.675506 0.418238 -1.289119 -0.3453942 0.3402725 0.8745957 9340286 male
-2.618458 0.7859476 -1.64187 -0.7314844 0.4799853 -0.4842982 5657934 male
-2.438926 0.6662983 -1.426274 0.5528438 0.3397932 0.7608577 3749169 male
-2.608103 0.7664073 -1.667134 -0.6831339 0.2940458 -0.6684799 3814706 male
-2.645877 0.7132228 -1.592539 -0.8513259 -0.2705719 -0.4494835 5721677 male
-2.571096 -0.001284157 -1.256094 0.3060313 -0.2515377 0.9181906 2499878 male
-2.526424 -0.1057807 -1.294625 0.9520258 0.1043936 0.2876617 2697265 male
-2.531365 0.3800267 -1.319571 0.9817545 -0.06017229 0.1803826 3749170 male
-2.620949 0.6361979 -1.365863 -0.577787 0.5791736 0.5750828 11051415 male
-2.529353 0.09128833 -1.253856 0.7139651 -0.2134416 0.6668559 2565671 male
-2.798304 0.2254321 -1.319121 -0.9939576 0.0975617 0.05030107 2499884 male
-2.580863 0.7891384 -1.533955 -0.2206328 0.5450067 0.8088813 10195339 male
-2.561232 0.6228655 -1.656246 -0.4199554 -0.3468371 -0.8386548 12886436 male
-2.664819 0.158621 -1.381964 0.8422139 0.006461591 -0.5391049 3158840 male
-2.676173 0.2521091 -1.397881 0.05025667 -0.04103731 -0.9978931 6773335 male
-2.825926 -0.4413587 -1.383772 -0.2892114 -0.9571006 0.01775473 1118481 male
-2.710539 0.6472246 -1.729014 -0.957464 0.02432186 -0.2875262 16770782 male
