# .PCD v0.7 - Point Cloud Data file format
VERSION 0.7
FIELDS x y z normal_x normal_y normal_z rgb label
SIZE 4 4 4 4 4 4 4 4
TYPE F F F F F F U U
COUNT 1 1 1 1 1 1 1 1
WIDTH 246
HEIGHT 1
VIEWPOINT 0 0 0 1 0 0 0
POINTS 246
DATA ascii
1.406448 0.8378785 -0.7586562 -0.4040056 -0.4291585 0.8078381 7367289 male
1.409014 0.6414432 -0.7117742 0.1144041 0.3694695 0.9221734 6317937 male
1.699703 0.4411504 -0.8364484 0.340886 -0.400594 0.8504829 526600 male
1.329283 0.6002666 -0.7992689 -0.8482412 -0.5289214 0.02700031 8817561 male
1.450363 0.8461512 -0.7136697 -0.6013135 -0.3122955 0.7354547 6446178 male
1.67513 0.5996314 -0.801603 -0.01077434 -0.1746463 0.9845722 657162 male
1.4119 0.7570298 -1.032183 0.01597056 0.2257223 -0.9740607 2172969 male
1.596084 0.7970029 -0.6858053 -0.02510111 -0.9134853 0.4060967 15724736 male
1.860099 0.7643326 -0.6269249 0.2897529 -0.4762094 -0.8302216 12295573 male
1.685466 0.5823905 -0.7872804 -0.3228551 -0.338402 0.8838828 4407368 male
1.449408 0.3434289 -0.6979593 0.9804174 -0.03112305 -0.194456 526600 male
1.894498 0.7822696 -0.604183 0.7700943 -0.3047317 -0.5604403 13150894 male
1.542008 0.896611 -0.9248331 0.1472631 0.3716161 -0.9166323 7236472 male
1.500737 0.7794583 -0.7511187 -0.1008754 -0.8729412 0.4772817 13887187 male
1.302434 0.8355098 -0.8888379 -0.824789 0.5312225 -0.1937154 8752283 male
1.479907 0.5522404 -0.6738431 -0.2446411 0.07184332 -0.9669484 526600 male
1.5665 0.6250598 -0.9678568 0.6021712 -0.07952806 -0.7943962 5067613 male
1.616818 0.972104 -0.5919669 0.2194001 0.8514746 0.4762924 8618379 male
1.437339 0.2643374 -0.7525257 0.7838661 -0.4066273 -0.4692634 526600 male
1.590305 0.8643349 -0.6085628 -0.09266004 -0.80169 0.5905144 11382462 male
1.70387 0.790061 -0.6523 -0.5864419 -0.7564254 0.2896661 16245216 male
1.42938 0.6695783 -0.8387934 0.9636455 0.122499 -0.2374475 4343375 male
1.707903 0.3055238 -0.8280921 0.2083046 0.8603265 0.4652393 526600 male
1.764182 0.4060273 -0.7224233 -0.1079043 0.1003651 0.9890821 15714512 male
1.651077 0.4164439 -0.9003497 -0.4552058 0.1176842 -0.8825747 526600 male
1.739856 0.899143 -0.7613332 0.6205585 0.7796348 -0.08412305 11841729 male
1.618675 0.9743376 -0.7498744 0.2468495 0.8825731 -0.4001625 8947089 male
1.588708 0.9824706 -0.6570008 -0.2354783 0.9688613 0.07653505 11776447 male
1.690059 0.512221 -0.7951648 -0.2004096 -0.2802413 0.9387761 526600 male
1.350803 0.8936236 -0.7843515 -0.4160435 0.0698759 -0.906656 13347497 male
1.325789 0.8292627 -0.9335748 -0.5956723 0.5539899 -0.5816096 5067098 male
1.69627 0.7767823 -0.7303414 0.2088472 -0.7047367 0.6780331 12959181 male
1.476333 0.5238054 -0.5838731 -0.4441945 0.05848268 0.8940196 526600 male
1.512958 0.9588351 -0.5917478 -0.2511521 -0.3400179 0.9062617 16233132 male
1.73437 0.7550519 -0.6270732 -0.9764409 -0.187339 -0.1070852 9730931 male
1.759398 0.7149136 -0.8169122 0.7610936 -0.0007734449 -0.6486416 6841968 male
1.396128 0.7410828 -0.8055115 0.5947454 0.686711 0.4179785 9212833 male
1.553026 1.002314 -0.6378998 0.05195835 0.8425363 -0.5361277 15512755 male
1.642615 0.5973295 -0.9178556 0.3425711 0.0458211 -0.9383739 4936020 male
1.734662 0.898439 -0.788223 0.6486669 0.7385283 -0.1838674 14011359 male
1.651022 0.9355433 -0.8143097 0.231955 0.9333382 -0.2740014 12039368 male
1.791979 0.4410181 -0.7641333 0.9443781 -0.07847191 -0.319362 13214883 male
1.859426 0.8718742 -0.6181957 0.402781 0.5901522 -0.6996341 10130330 male
1.369623 0.808896 -0.995277 -0.5919685 0.4833176 -0.644963 13949412 male
1.808335 0.803183 -0.5007035 -0.484069 -0.2269803 0.8450782 14207184 male
1.625559 0.633748 -0.8973709 0.866612 0.4764139 -0.1483689 987410 male
1.76167 0.6584607 -0.796814 0.8988915 -0.03602624 -0.4366877 12358542 male
1.69741 0.6775618 -0.7938154 -0.9924061 -0.107089 0.06051499 789516 male
1.400787 0.818845 -1.009626 -0.2656422 0.5090566 -0.8187159 8225947 male
1.644503 0.7659995 -0.8285874 0.2152753 -0.7851675 -0.5806621 8157060 male
1.339554 0.8576759 -0.9153016 -0.5089106 0.7102419 -0.4863811 6578030 male
1.667419 0.3893134 -0.8618109 -0.2285954 0.08832772 0.9695063 526600 male
1.33308 0.7709098 -0.7935452 -0.07304108 0.4579971 0.8859478 5526364 male
1.480118 0.7880283 -1.010056 0.5529411 0.1570294 -0.8182896 5722970 male
1.541747 0.9663676 -0.6486026 0.2097744 -0.205306 -0.9559519 853256 male
1.766536 0.8686634 -0.5599355 -0.8250917 0.4671658 0.3177732 11708329 male
1.49642 0.5427916 -0.6646789 0.1545604 0.2391476 -0.9586028 526600 male
1.708916 0.9151686 -0.6369798 0.6269844 0.5844637 0.5150658 9210000 male
1.770961 0.8102718 -0.7451787 0.7636936 -0.4134527 0.4958113 4407883 male
1.419056 0.637579 -1.022316 0.05322543 -0.6421058 -0.764766 6975871 male
1.356753 0.7663742 -0.8097784 0.3737397 0.5836102 0.7209144 7501961 male
1.646232 0.3486809 -0.8861669 -0.4224957 -0.03696846 0.9056106 526600 male
1.763291 0.5577915 -0.8077106 0.6915095 -0.4978722 0.5233908 526600 male
1.417684 0.7297333 -1.038781 0.07776856 0.1679375 -0.9827253 8422032 male
1.315081 0.6449624 -0.9106873 -0.2425986 -0.8142283 -0.5274261 4080718 male
1.624761 0.3121944 -0.9585543 -0.1163963 -0.9471056 -0.29907 526600 male
1.742669 0.6823997 -0.7424961 0.2874247 -0.3048059 0.9080089 14406883 male
1.440616 0.2824783 -0.7446879 0.9261406 0.1426589 -0.3491591 526600 male
1.716932 0.4365315 -0.8755657 0.8142344 -0.3055068 -0.4936476 526600 male
1.634011 0.3485513 -0.9491128 0.0757966 0.3592694 -0.9301506 526600 male
1.567779 0.9667677 -0.6435384 0.2082127 -0.2444282 -0.9470493 133640 male
1.340783 1.004385 -0.7045999 -0.4392483 0.2425313 -0.8650084 1051656 male
1.629774 0.9421979 -0.5860057 0.4622536 0.5111061 0.7246324 7894656 male
1.906273 0.8244596 -0.5197157 0.8555283 0.01072442 0.517645 526600 male
1.60033 0.7518764 -0.7892452 -0.1878362 -0.9822001 0.0006496534 13023672 male
1.443914 0.7867345 -1.023005 0.2360552 0.1951631 -0.9519398 7041403 male
1.762176 0.5185568 -0.837853 0.944761 -0.3276965 -0.006452709 526600 male
1.343513 0.7816682 -0.8005632 0.179222 0.3323617 0.9259671 10595247 male
1.608184 0.999881 -0.6136308 0.1748297 0.9249122 -0.3375976 7960448 male
1.885251 0.7640681 -0.5235519 0.5679524 -0.5433933 0.6181859 789516 male
1.42983 0.43036 -0.6249614 -0.7447263 -0.1283766 0.6549062 526600 male
1.384621 0.9068757 -0.8742543 -0.465428 0.7992008 -0.3803352 12829652 male
1.392325 1.06341 -0.6298695 -0.5639123 0.5548497 0.6116736 16102053 male
1.582559 0.9236493 -0.5736039 -0.5487392 -0.7333748 0.401306 13617632 male
1.500981 0.4624037 -0.5997831 0.6466218 -0.4530961 0.6136646 526600 male
1.564714 0.5988967 -0.8403767 -0.3776299 -0.104485 0.9200426 3684672 male
1.402969 0.5643235 -0.7039444 -0.9350876 -0.2454125 0.2557028 657418 male
1.527707 0.5329553 -0.6586593 0.6540611 -0.2687902 -0.7070756 526600 male
1.888506 0.778737 -0.6098729 0.7253287 -0.3205487 -0.6092182 13348791 male
1.277122 0.7759396 -0.884041 -0.9712282 0.2347977 0.03982127 3026228 male
1.74931 0.8792195 -0.7015887 0.6676306 0.6965356 0.2628833 12302787 male
1.504055 0.9385432 -0.6296694 -0.107199 -0.9891245 -0.1007028 11766413 male
1.653119 0.598474 -0.8061613 -0.1253549 -0.1589115 0.9793025 592137 male
1.75104 0.2540238 -0.7226869 0.590982 0.3470772 0.7282016 16438235 male
1.518387 0.7858116 -0.8850298 0.3733241 -0.8587366 -0.3509993 9341078 male
1.668373 0.3747785 -0.8664921 -0.068726 0.1443599 0.9871358 526600 male
1.357313 0.6151345 -0.7319702 -0.7076163 -0.1356748 0.6934489 3423299 male
1.768498 0.5614692 -0.8325723 0.9696225 -0.1718958 -0.1740231 526600 male
1.84007 0.7624639 -0.5092475 -0.07373035 -0.5563042 0.8277014 8748925 male
1.39894 0.5690777 -0.7000421 -0.8965653 -0.1529273 0.4156727 1052433 male
1.439628 0.5978373 -0.9201171 -0.5627818 -0.715414 0.4140764 4079172 male
1.670859 0.9281307 -0.610944 0.4443771 0.2869712 0.8486322 6183263 male
1.748467 0.5155464 -0.8679694 0.7596973 -0.16458 -0.6291052 526600 male
1.676087 0.3616832 -0.9168059 0.6946774 0.1426744 -0.7050301 526600 male
1.568234 0.9582793 -0.5693953 -0.4346557 -0.1053405 0.8944148 8420229 male
1.507997 0.4629078 -0.6087833 0.8447499 -0.4358683 0.3105099 526600 male
1.786046 0.3856291 -0.7603064 0.8394513 -0.1094209 -0.532305 12427680 male
1.568261 0.789269 -0.7328413 -0.1352241 -0.9493935 0.2834899 16103669 male
1.703438 0.4303936 -0.8437535 0.5442052 -0.3829741 0.7464392 526600 male
1.484755 0.8763896 -0.9662477 0.2674721 0.5584325 -0.7852464 5855586 male
1.83455 0.9062114 -0.5709661 0.01275782 0.9967092 -0.08004971 16183030 male
1.596251 0.9845164 -0.5701951 -0.08681324 0.7025478 0.7063214 6710126 male
1.855404 0.8870934 -0.6057567 0.320495 0.7280148 -0.6060342 6775909 male
1.849198 0.7479473 -0.6088911 -0.2155186 -0.9141465 -0.3433481 10651779 male
1.378645 0.5690376 -0.7325392 -0.893021 -0.3595299 0.2706507 3487556 male
1.450109 0.540041 -0.6288772 -0.8419634 0.5390151 0.02367368 526600 male
1.47559 0.9263747 -0.7077222 -0.6881084 0.4920237 0.5333098 7564667 male
1.620946 0.9480251 -0.7970971 0.241169 0.8776432 -0.414222 14076894 male
1.30429 0.6435306 -0.7964481 -0.8588086 -0.3294777 0.3922909 9739941 male
1.423136 0.6566302 -1.034952 0.1627938 -0.4459593 -0.8801241 8686228 male
1.843967 0.8677204 -0.4957063 -0.03535539 0.4876802 0.8723062 526344 male
1.823213 0.7584551 -0.6496668 0.4073274 -0.4972645 -0.7660368 16236730 male
1.523895 0.7155703 -0.9268593 0.5436151 0.809799 0.2206992 9474976 male
-2.504548 0.412414 -1.3187 0.7441753 -0.3822024 -0.5478364 4538429 male
-2.525569 0.05010467 -1.208033 -0.9266005 -0.2359239 -0.292834 2697513 male
-2.70329 -0.2395115 -1.165986 0.6900874 -0.2986075 -0.659252 2171688 male
-2.419279 0.1114945 -1.182287 0.9888146 -0.03951008 0.1438228 2631464 male
-2.510585 0.4217196 -1.336443 0.6549025 -0.41554 -0.6312127 4802369 male
-2.740236 -0.1340708 -1.186546 -0.6390372 0.09212243 -0.7636395 2566703 male
-2.68544 0.3887885 -1.288819 -0.7209536 -0.6137024 -0.3218622 6709085 male
-2.638994 0.5493052 -1.449748 -0.5082929 -0.1934839 -0.8391678 7038298 male
-2.840038 0.6910309 -1.497505 -0.8954456 -0.4082455 0.177519 9206899 male
-2.610823 0.05319304 -1.165701 0.9142053 -0.2069816 -0.348407 2434599 male
-2.384198 -0.2747183 -1.209061 0.910283 -0.00186842 -0.4139827 2105894 male
-2.844674 0.7201644 -1.551717 -0.8710892 -0.192727 -0.4517301 6445395 male
-2.708742 0.4245144 -1.202023 -0.9277444 -0.0684556 0.3668847 3485741 male
-2.565054 0.296559 -1.26879 0.1169693 -0.3661117 -0.9231905 7433065 male
-2.467867 0.3232304 -1.113411 0.7809117 0.3048132 0.5452211 7892584 male
-2.485789 -0.04808964 -1.167506 -0.5428363 -0.2309148 0.8074697 2565927 male
-2.669513 0.03641446 -1.094487 -0.1346343 -0.204725 0.9695163 3289395 male
-2.580877 0.5965132 -1.456919 -0.2321419 -0.9144875 0.3313951 4143927 male
-2.418082 -0.3886104 -1.219354 -0.9712058 -0.1714757 -0.1653954 2632495 male
-2.534391 0.5377515 -1.408759 0.5832016 -0.2933103 -0.7575258 3749425 male
-2.72874 0.5944987 -1.42991 -0.35686 -0.8804809 -0.3120966 16577772 male
-2.479434 0.1745601 -1.262122 0.1260425 0.07809674 -0.988946 3752010 male
-2.735091 -0.3946909 -1.27063 0.9920615 0.06195512 -0.1094338 1776155 male
-2.654791 0.3570136 -1.197491 0.9661213 -0.2006667 -0.1623052 10061955 male
-2.759902 -0.3027586 -1.121618 -0.3113734 -0.04918781 0.949014 3355702 male
-2.638867 0.6068355 -1.244407 0.4217879 0.683831 0.5953741 10327949 male
-2.558876 0.6357471 -1.318753 0.4446341 0.708754 0.5476938 8682875 male
-2.507993 0.4895487 -1.369854 0.7665838 -0.1566916 -0.6227338 3354411 male
-2.646941 -0.06817801 -1.173747 0.7877121 -0.4543966 -0.4159732 1842465 male
-2.511862 0.6012685 -1.449119 0.8643336 0.3355089 0.3746486 7762542 male
-2.499612 0.3214558 -1.086159 0.373675 0.3471089 0.8601643 9603201 male
-2.659065 0.6822054 -1.407741 -0.03578534 0.9675934 -0.249965 9735813 male
-2.385794 -0.1840578 -1.21361 0.8800046 0.01706851 -0.4746588 2302499 male
-2.552957 0.5533456 -1.502908 -0.5089123 -0.1244294 -0.8517781 9276289 male
-2.718524 0.6195049 -1.500629 0.8363788 -0.5393569 0.09780091 11378580 male
-2.812289 0.5607366 -1.236494 -0.6409999 -0.2176461 0.7360364 10458766 male
-2.421677 0.1819502 -1.173861 0.9937548 0.06092236 0.09348923 2170913 male
-2.420531 -0.01475731 -1.178605 0.8784705 0.2235238 0.4222878 2170917 male
-2.72243 -0.0329708 -1.182996 -0.9623713 0.1574653 -0.221464 2369324 male
-2.648844 0.6294964 -1.263723 0.4469483 0.7792611 0.4393057 9999248 male
-2.696856 0.404641 -1.165389 -0.8742341 -0.01615039 0.4852362 3684144 male
-2.702989 0.3277731 -1.218641 -0.3012453 -0.9530262 0.03150065 16508382 male
-2.856939 0.7343878 -1.502284 -0.9921607 -0.1188686 0.03856975 8090995 male
-2.669933 0.3198227 -1.078558 -0.6415576 0.1934706 0.7422756 6840928 male
-2.73005 0.7684162 -1.542099 0.7630997 0.3313407 -0.5548807 3947060 male
-2.686114 -0.02135961 -1.221192 -0.1078736 -0.1559348 -0.9818594 4278352 male
-2.768634 0.4885513 -1.284157 -0.4876274 -0.3303266 -0.8081486 16507091 male
-2.724731 0.1449749 -1.146359 -0.9954864 0.09468722 0.006447554 2368293 male
-2.592468 0.2705292 -1.042703 0.2232204 0.0381832 0.9740201 4672079 male
-2.737787 0.4748614 -1.282624 -0.8569705 -0.4924731 0.1518945 4867394 male
-2.523112 0.3682091 -1.108054 0.2189985 0.6331124 0.7424342 10392206 male
-2.687892 -0.217936 -1.157298 0.8381417 -0.3504343 -0.4179885 2038559 male
-2.449734 0.2843832 -1.224002 0.8085873 0.1803227 -0.5600629 7170917 male
-2.68823 0.310269 -1.196075 -0.6975285 -0.139462 -0.7028548 5789264 male
-2.468282 0.4010355 -1.450652 -0.6004705 -0.5708726 0.5599463 14928582 male
-2.751052 0.8098042 -1.52593 0.4790839 0.7603812 -0.4385192 4340793 male
-2.492948 -0.06021925 -1.179719 -0.776979 -0.3385245 0.5307591 2169889 male
-2.398068 -0.4049579 -1.321108 -0.04504952 0.9487467 -0.3128101 3092274 male
-2.771115 0.6494684 -1.313647 -0.7575831 0.6034927 0.2487258 6708309 male
-2.690929 0.2012743 -1.070703 -0.7141612 -0.0659601 0.6968668 3419956 male
-2.444675 0.26652 -1.218328 0.851424 0.1863357 -0.4902619 1578520 male
-2.781319 -0.3537426 -1.156902 0.9745941 0.02277108 0.2228186 2170146 male
-2.756489 -0.1443087 -1.157892 -0.9760496 0.1155022 -0.184355 1776929 male
-2.679955 0.385455 -1.293673 -0.6924298 -0.6149065 -0.3774003 7038307 male
-2.53018 0.07889434 -1.143919 -0.7651609 -0.3764195 0.5223384 2302499 male
-2.815255 -0.3895549 -1.143589 0.05177549 -0.9840392 0.1702536 657674 male
-2.827345 0.5576537 -1.303781 -0.4910659 -0.6064769 -0.6253321 6511189 male
-2.422441 -0.3474504 -1.213261 -0.9797286 -0.1843591 0.07838482 1841436 male
-2.69933 -0.1663283 -1.183484 0.3937923 -0.1518585 -0.9065688 2500137 male
-2.810368 -0.340528 -1.144873 -0.8411132 -0.011937 0.5407276 2697514 male
-2.48599 0.4289447 -1.45831 -0.9296136 -0.360239 -0.07775947 16708076 male
-2.405348 0.3452748 -1.530513 0.8746934 0.2985111 -0.3818413 16771047 male
-2.514777 0.5953122 -1.399961 0.9436867 -0.2850484 0.1679377 2763562 male
-2.828138 0.7551286 -1.56922 -0.5758747 0.2879964 -0.7651318 10459279 male
-2.720347 0.5761743 -1.408325 -0.48125 -0.4198919 -0.7694735 9669251 male
-2.670557 0.3975674 -1.322206 -0.5254874 -0.5966124 -0.6065614 6709339 male
-2.750727 -0.1550809 -1.119857 -0.8614107 0.04817137 0.5056199 2040353 male
-2.530002 0.2763528 -1.24655 0.03589427 -0.02157881 -0.9991228 12695985 male
-2.49932 0.5652366 -1.485553 0.8455516 0.3862155 -0.3686194 4338737 male
-2.708246 0.700469 -1.409347 0.4460358 0.7124299 0.5417525 13415595 male
-2.395221 -0.2542642 -1.219015 0.478251 -0.04202832 -0.8772171 3156784 male
-2.521199 0.4429219 -1.176414 0.4792938 0.3923561 0.7850697 8288116 male
-2.431029 0.3922348 -1.524193 0.3416075 0.4053295 -0.847946 16374221 male
-2.540213 0.6468748 -1.472277 0.5775776 0.7675155 -0.2780723 12300970 male
-2.423735 -0.1986692 -1.225574 -0.3072687 -0.1874767 -0.932973 2500135 male
-2.668484 0.1218448 -1.218665 -0.06159902 0.02065561 -0.9978874 4344656 male
-2.400221 -0.08376851 -1.184671 0.9251388 0.3732244 0.06943959 2303014 male
-2.475909 -0.01069857 -1.249817 -0.262864 -0.1531269 -0.9526044 3751234 male
-2.842002 0.696372 -1.495898 -0.8915519 -0.4054917 0.2017716 7891560 male
-2.451796 0.2999854 -1.133525 0.927098 0.2480123 0.281033 6446425 male
-2.793262 -0.4061101 -1.258356 -0.7561442 -0.6528384 0.04525566 526860 male
-2.545106 0.5892804 -1.510095 0.04897517 -0.09712351 -0.9940668 13218467 male
-2.624211 0.030788 -1.186037 0.830947 -0.1843424 -0.524924 2369064 male
-2.75103 0.3363757 -1.390506 -0.8909619 -0.4115928 -0.1917771 16045517 male
-2.629704 0.4075642 -1.351007 -0.348937 -0.525992 -0.7756132 9339268 male
-2.700699 -0.2519296 -1.146594 0.9207169 -0.3256332 -0.2150431 1907741 male
-2.420687 -0.02052144 -1.209948 0.9162909 0.1654558 -0.3647405 2763825 male
-2.717943 -0.1084614 -1.098492 -0.3005502 0.2308912 0.9253968 2762282 male
-2.769103 0.7054586 -1.580526 0.2523971 -0.09846522 -0.962601 11574671 male
-2.446016 -0.1037549 -1.138948 -0.2127054 0.1826607 0.9598917 3224117 male
-2.604662 0.06421663 -1.123405 0.8943622 -0.3781478 0.2389997 2170913 male
-2.604074 0.5933627 -1.499713 -0.6189538 -0.2608813 -0.7408355 7104091 male
-2.728351 -0.1572274 -1.100136 -0.3899233 -0.04920795 0.9195318 2894640 male
-2.803712 -0.3299283 -1.176011 -0.9524702 0.2129864 -0.2178023 856084 male
-2.535124 0.645619 -1.46441 0.6509147 0.7377207 -0.1791043 10131345 male
-2.43076 -0.07926066 -1.239693 0.4814859 -0.1913558 -0.8553096 3553342 male
-2.72268 0.3459919 -1.277394 -0.9522663 -0.3028876 0.03805685 16243406 male
-2.699143 0.5126995 -1.390357 -0.3802285 -0.4992361 -0.7785819 12365462 male
-2.718833 -0.2718116 -1.158774 0.8645478 -0.2525858 -0.4344625 2039583 male
-2.667403 0.3811169 -1.107423 -0.4611149 0.6387504 0.6159311 6051667 male
-2.843043 0.7833184 -1.458671 -0.8225222 0.350026 0.4482626 5327945 male
-2.590336 0.6007738 -1.512795 -0.4937849 -0.4151947 -0.7640616 7828847 male
-2.853562 0.7731255 -1.488564 -0.9570311 0.2786295 0.08035719 5196100 male
-2.81653 0.6695231 -1.533676 -0.2578395 -0.7349024 -0.6272458 7695213 male
-2.44475 0.06951354 -1.136236 0.6458645 -0.07834788 0.7594214 2237737 male
-2.387429 -0.1367641 -1.202665 0.9457556 0.1586338 -0.2835169 2369066 male
-2.500537 0.4621718 -1.347808 0.8382105 -0.1616977 -0.5208238 3748913 male
-2.587868 0.6224766 -1.292225 0.1950921 0.6764166 0.7102111 8090995 male
-2.421354 0.07044117 -1.201394 0.9955551 -0.08391238 -0.04276651 2434085 male
-2.682465 0.21672 -1.063697 -0.6936351 -0.02906719 0.71974 3222578 male
-2.757748 0.8219918 -1.478857 0.3710049 0.9152889 0.1568496 4406587 male
-2.796276 0.6341254 -1.518772 -0.6247297 -0.6228389 -0.4709402 16706269 male
-2.702835 0.1658673 -1.196097 -0.7228717 0.1643106 -0.6711622 2829875 male
