# .PCD v0.7 - Point Cloud Data file format
VERSION 0.7
FIELDS x y z normal_x normal_y normal_z rgb label
SIZE 4 4 4 4 4 4 4 4
TYPE F F F F F F U U
COUNT 1 1 1 1 1 1 1 1
WIDTH 248
HEIGHT 1
VIEWPOINT 0 0 0 1 0 0 0
POINTS 248
DATA ascii
1.432089 1.025147 -0.8050258 0.02260438 -0.6084289 0.7932863 6513003 male
1.425483 0.6059244 -0.8223764 0.5460894 -0.3508673 -0.7607092 526600 male
1.546534 0.7505714 -0.9390364 0.6156331 0.1420016 0.7751332 6580341 male
1.310279 0.7932528 -0.8245379 -0.8361618 -0.05206648 0.5460059 3684928 male
1.465604 1.060236 -0.7722573 0.03449348 -0.615126 0.787674 8288903 male
1.6343 0.5337713 -0.9852682 0.9659145 -0.05168887 -0.2536482 526600 male
1.537124 1.035697 -0.9498425 0.8563382 -0.4632959 -0.2281268 8419977 male
1.56835 1.157055 -0.7393777 0.7273747 -0.3498458 0.5903677 14273403 male
1.745765 1.301029 -0.6496595 0.6284879 0.1366175 -0.7657274 13870239 male
1.493344 0.7829288 -0.9322255 0.09905303 0.06600646 0.9928906 7303039 male
1.330226 0.4259523 -0.7732524 -0.9190761 -0.08822244 0.3840778 526600 male
1.739356 1.37459 -0.7213543 0.716345 -0.04812303 -0.6960847 12299434 male
1.49903 1.140364 -0.9958559 -0.05587798 0.168507 -0.9841154 7039347 male
1.480842 0.9866585 -0.8652098 0.7683323 -0.5127063 0.3831417 13617632 male
1.300869 1.006038 -0.929416 -0.8300173 0.4942013 -0.2585274 10723761 male
1.395931 0.6373194 -0.8548946 -0.06166607 -0.3041767 -0.9506176 855055 male
1.480996 0.7913417 -1.073286 0.1962114 -0.1996449 -0.9600223 5592666 male
1.470069 1.205517 -0.7057854 -0.2189905 -0.9757266 0.0008325577 526600 male
1.369101 0.2654345 -0.7744915 0.2803673 -0.9411853 -0.1885853 526600 male
1.507359 1.237148 -0.6548497 0.5223725 0.3862707 0.7602117 13552342 male
1.643824 1.254832 -0.6926014 -0.3814533 -0.7803564 0.4955172 13810874 male
1.437785 0.8388818 -0.881235 0.9892966 -0.08297942 0.1200276 6119277 male
1.630936 0.2961013 -0.9331958 -0.4831149 0.2328577 0.8440244 526600 male
1.661611 1.005419 -1.015438 -0.7358158 -0.5066397 -0.4493232 15913172 male
1.605892 0.411465 -0.974498 0.773241 -0.1148535 0.623624 526600 male
1.58182 1.315922 -0.8503864 -0.09213036 0.9793343 -0.1800451 13354713 male
1.466487 1.279063 -0.8242523 -0.3559557 0.7954199 -0.4905127 13486814 male
1.404441 1.217301 -0.7524078 -0.9910045 0.04934708 0.1243984 8092547 male
1.546226 0.6346223 -0.9176588 -0.2337896 -0.2508644 0.9393665 3290166 male
1.411911 1.215056 -0.6772376 -0.8915219 0.4259047 0.1542524 4933195 male
1.280951 0.8873285 -0.9525113 -0.9394303 -0.1617135 -0.3021912 3883075 male
1.577261 1.249956 -0.7152584 -0.1524092 -0.2770152 0.9487012 16441828 male
1.39831 0.4916722 -0.7403566 0.6907774 -0.2268516 0.6865602 526600 male
1.482724 1.18441 -0.6702854 0.7711641 -0.5907847 0.2372326 13026254 male
1.644429 1.262553 -0.6713595 -0.6390693 -0.7064698 0.304123 8678763 male
1.62481 1.252852 -0.9411647 -0.3032393 0.06248706 -0.9508635 3421752 male
1.362399 0.8897998 -0.8124681 0.003334582 0.3408994 0.9400939 5197399 male
1.36736 0.6295809 -0.7600018 -0.576574 0.1116993 0.8093736 1051664 male
1.601279 0.6667163 -0.9530056 0.972073 0.2321043 0.03466707 6975610 male
1.574337 1.314604 -0.8538041 -0.1694156 0.9671549 -0.1894991 12564683 male
1.508909 1.266204 -0.9029227 -0.5922009 0.7208273 -0.3601474 12762058 male
1.639845 1.097119 -0.9653181 -0.9617549 -0.1632353 0.2199582 723722 male
1.68682 1.4019 -0.748637 0.191465 0.2787426 -0.9410864 10130330 male
1.403147 0.9593727 -1.071764 -0.126601 0.1997482 -0.9716341 6120307 male
1.655715 1.380059 -0.606281 -0.4461862 -0.04924378 0.8935844 13221316 male
1.616103 0.6297408 -0.924427 0.6379232 -0.347972 0.6870003 724750 male
1.704111 1.182287 -0.9084657 0.9171272 -0.0773902 0.3910095 16313061 male
1.524308 0.8251621 -1.047404 0.7462058 0.1682713 -0.6440974 4672085 male
1.392704 0.9716591 -1.065775 -0.2831877 0.3084491 -0.9081101 10924227 male
1.606616 1.142663 -0.9253294 0.8127276 -0.298416 -0.5004215 526344 male
1.287096 0.9506028 -0.9567421 -0.9006337 0.2251905 -0.3716828 14014949 male
1.566305 0.5298268 -0.931932 -0.1490546 -0.1074846 0.9829699 526600 male
1.288532 0.8078606 -0.88844 -0.9625799 -0.2709979 -0.0002491176 9277597 male
1.492627 0.9912496 -1.045185 0.6357782 0.3122817 -0.7058797 4011581 male
1.363754 1.070893 -0.6864671 0.9792434 -0.202672 -0.00252679 12491677 male
1.653563 1.428007 -0.6173418 -0.389301 0.4668257 0.794052 526600 male
1.327464 0.6949258 -0.8682412 -0.8670847 -0.3143482 -0.3864574 7303808 male
1.522011 1.312578 -0.7449923 -0.254087 0.9524481 0.1681734 12631240 male
1.626561 1.294408 -0.9090746 0.2011446 0.8667243 -0.4564316 11710403 male
1.382954 0.8388664 -1.072413 -0.3922555 -0.5449694 -0.7410424 6843516 male
1.308946 0.9406369 -0.852102 -0.8063054 0.1302506 0.5769804 4343379 male
1.594744 0.312873 -0.9707953 -0.5378096 0.1582039 0.8280895 526600 male
1.620428 0.519455 -1.007884 0.7427697 -0.06404387 -0.6664769 526600 male
1.429217 0.9315759 -1.077875 0.1004644 0.1621106 -0.981645 11119290 male
1.324723 0.8424866 -0.9855935 0.009189636 -0.7341277 -0.6789492 526344 male
1.591496 0.2828056 -1.030194 -0.008496966 -0.995034 -0.09917235 526600 male
1.713927 1.225401 -0.8718858 0.7648197 -0.3743677 0.5243087 14406883 male
1.378946 0.2986926 -0.782706 0.8943405 0.2560381 -0.3668783 526600 male
1.606938 0.3846864 -0.9987293 0.8946117 -0.07976337 -0.4396676 526600 male
1.563454 0.3067835 -1.057949 0.1259521 0.3006889 -0.9453689 526600 male
1.334795 1.064936 -0.7284138 -0.07259473 -0.1917765 -0.9787501 5392458 male
1.293711 0.9343904 -0.6488601 -0.7678028 0.2252087 0.5997999 14268088 male
1.523197 1.230829 -0.6696292 0.8014054 0.2235847 0.5547607 16775167 male
1.717383 1.449039 -0.6449981 0.4640644 0.8129045 0.3518956 526600 male
1.635079 1.171533 -0.8194452 0.7824872 -0.3249133 0.5311735 14800618 male
1.514194 1.050476 -0.9995227 0.7595913 -0.0454166 -0.6488129 7366772 male
1.589898 0.5102737 -1.024583 0.1909666 -0.04851652 -0.9803967 526600 male
1.439044 0.8906647 -0.8712382 0.6027941 -0.009799172 0.7978367 5461608 male
1.395455 1.130012 -0.6457694 -0.2060533 0.2486085 0.9464332 16167340 male
1.724222 1.408698 -0.608936 0.3415574 0.4374067 0.8318737 2960173 male
1.40061 0.4464145 -0.7852058 0.9595799 -0.2812083 -0.01132286 526600 male
1.36835 1.134448 -0.8482371 -0.9750971 0.2200726 -0.02745205 9538457 male
1.293415 0.9750248 -0.6601979 -0.8798974 0.06640577 0.4705006 10913669 male
1.47812 1.223921 -0.6283642 0.1138778 -0.02679842 0.9931333 7960454 male
1.403882 0.4598967 -0.7806323 0.9642607 -0.2591431 0.05519125 526600 male
1.449049 0.7726068 -0.9365608 -0.3028649 -0.1751329 0.9368038 2697773 male
1.344582 0.5405698 -0.7467144 -0.7260022 0.1301186 0.6752703 526600 male
1.421686 0.6925827 -0.7864697 0.6697965 0.01839856 0.7423167 7896977 male
1.768333 1.375397 -0.6608649 0.9963123 0.07098745 -0.04819247 15313834 male
1.279378 0.9109126 -0.9094335 -0.9778363 0.07057192 0.1971185 2765114 male
1.580768 1.31579 -0.8292309 -0.2140183 0.9763918 -0.02924475 13158104 male
1.433652 1.220819 -0.6469506 -0.4875945 0.270678 0.8300512 6249318 male
1.489197 0.6884199 -0.9369236 -0.5262129 -0.1628549 0.8346127 4473932 male
1.775776 0.8712257 -0.981214 0.694131 0.3711132 -0.6168121 11896460 male
1.466162 0.9896424 -1.061534 0.3478921 0.2407579 -0.9060943 5723742 male
1.570749 0.520568 -0.9326841 -0.04849684 -0.1510606 0.9873341 526600 male
1.399917 0.5693883 -0.7308744 0.122941 -0.1045165 0.986895 526600 male
1.544374 0.5878606 -0.9896832 -0.8518361 0.3154681 -0.4181567 526600 male
1.72255 1.383159 -0.5995389 0.2567057 0.1670458 0.9519442 527368 male
1.330683 0.547262 -0.7828147 -0.9715033 0.234547 -0.03418994 526600 male
1.467544 0.7070741 -0.9469876 -0.5860755 -0.2425077 0.7731141 3092271 male
1.517079 1.280009 -0.6940104 0.2678809 0.4788791 0.8360112 6117988 male
1.540409 0.6064435 -0.9425695 -0.9149919 -0.1525016 0.3735411 723723 male
1.585547 0.3455529 -1.033712 0.2898491 0.01440115 -0.9569639 526600 male
1.463924 1.255843 -0.6550344 -0.2499956 0.7473336 0.6156255 7762302 male
1.421 0.5922188 -0.7358353 0.3606069 -0.4218313 0.8318779 526600 male
1.634323 1.05644 -0.9960023 -0.9245145 -0.3801578 -0.02743936 10128528 male
1.585992 1.140432 -0.787867 0.6433145 -0.5859832 0.492717 15262862 male
1.557531 0.4311917 -0.9654456 -0.483816 -0.2246742 0.845839 526600 male
1.424166 1.060017 -1.019558 -0.3947451 0.3744883 -0.8390083 6576748 male
1.632892 1.426485 -0.7275987 -0.5377398 0.5656695 -0.625183 16183030 male
1.49594 1.187821 -0.6844409 0.0106694 -0.9690201 0.2467512 1447448 male
1.670765 1.414095 -0.7468696 0.0192706 0.3575369 -0.9337001 6775909 male
1.722816 1.274668 -0.6466438 -0.4260952 -0.5933394 0.6829284 13474459 male
1.389434 0.6755612 -0.8843213 0.1593368 -0.3456179 -0.9247486 4672854 male
1.351884 0.5031281 -0.7391864 -0.5532705 -0.05165471 0.8313985 526600 male
1.400438 1.066588 -0.785978 -0.5385792 -0.3469128 0.7678437 4472642 male
1.437375 1.211998 -0.8863673 -0.5718148 0.5478855 -0.6106139 13353171 male
1.378611 0.6228605 -0.75279 -0.4854344 0.1192822 0.8660976 1118998 male
1.425173 0.869337 -1.087816 0.0185644 -0.0655257 -0.9976782 6514547 male
1.632624 1.447022 -0.6572887 -0.6390985 0.7168162 0.2787967 526344 male
1.727586 1.322275 -0.7310634 0.620256 -0.1099244 -0.7766589 15120816 male
-2.466517 0.4095169 -1.395553 0.9239463 -0.03829146 -0.3806014 3945780 male
-2.414727 0.02868097 -1.344995 0.8144476 -0.1755281 -0.5530508 3487293 male
-2.62252 -0.2680569 -1.381562 0.9415261 -0.3071764 0.1384616 1644825 male
-2.456153 0.09662671 -1.198281 0.2026998 -0.4361189 0.876763 2632496 male
-2.464545 0.3881107 -1.381128 0.9212974 -0.1424913 -0.3618116 3487797 male
-2.670441 -0.1154848 -1.384828 -0.9233684 0.3452026 0.1680067 2235682 male
-2.61131 0.433944 -1.499988 -0.3054737 -0.5668563 -0.7650882 16772013 male
-2.619872 0.5888175 -1.523951 -0.4310244 0.5253947 -0.7336066 8617335 male
-2.79967 0.5554847 -1.548441 -0.6952015 -0.5872846 0.4144778 5064517 male
-2.567276 0.05474626 -1.343065 0.8082807 0.1229146 -0.575825 2434604 male
-2.505986 -0.2995307 -1.356361 -0.636108 0.02929411 -0.7710439 1841180 male
-2.816563 0.5064518 -1.600894 -0.8487437 -0.3888548 0.3583664 14074805 male
-2.65029 0.3836796 -1.235501 -0.6428089 0.2299948 0.7306842 8616313 male
-2.515705 0.3490154 -1.415707 0.4449219 -0.5178629 -0.7306592 5919308 male
-2.494211 0.3091006 -1.178609 0.1123609 0.5226619 0.8451035 8090477 male
-2.501019 -0.1541723 -1.310758 -0.8178265 0.3144589 0.4819499 2302500 male
-2.667203 0.004427835 -1.315147 -0.956625 -0.2795717 0.08190626 2499880 male
-2.540603 0.5818704 -1.571803 0.3019223 0.9400967 -0.1583072 11183004 male
-2.554261 -0.4115579 -1.350688 -0.8792168 0.2533164 -0.4034957 2303014 male
-2.517957 0.4623948 -1.484829 0.891072 -0.1181629 -0.4382107 4209464 male
-2.735284 0.5016551 -1.494539 -0.5382113 -0.8285896 0.1541682 16575972 male
-2.501718 0.1208739 -1.336901 -0.588203 0.1372079 -0.7969891 3223601 male
-2.583608 -0.4701762 -1.45715 -0.2032024 -0.9512326 -0.232089 526344 male
-3.019295 0.311449 -1.505885 0.3781064 -0.8827278 -0.2789752 10390663 male
-2.702685 -0.3385432 -1.360191 -0.6623727 -0.02466845 0.7487684 3355702 male
-2.628112 0.5308956 -1.31928 0.2466856 0.744235 0.6206936 7498858 male
-2.603671 0.5913404 -1.414636 -0.1356901 0.881336 0.452587 9275520 male
-2.478191 0.4525961 -1.429739 0.8575794 -0.04681234 -0.5122173 3946035 male
-2.629956 0.05077472 -1.374443 -0.2157472 0.2010583 -0.9555256 3949129 male
-2.516915 0.5295216 -1.573913 0.9652902 -0.1674452 0.2004425 7434089 male
-2.485861 0.2570577 -1.158424 0.2165256 0.2577534 0.9416369 9011581 male
-2.630164 0.5894272 -1.518161 -0.3116931 0.5391237 -0.7824278 8419444 male
-2.421289 -0.1893121 -1.326866 0.9801839 -0.1332249 0.1465974 2303011 male
-2.580292 0.5287938 -1.679316 -0.6287089 0.7287501 -0.2713826 6908001 male
-2.728696 0.4256637 -1.600503 -0.05872965 -0.8138587 -0.5780873 13614006 male
-2.851506 0.4485948 -1.405299 -0.3663863 -0.1676414 0.9152364 8222068 male
-2.40244 0.135119 -1.328199 0.800371 0.1029525 -0.5905991 3487806 male
-2.525595 0.4946432 -1.615963 0.5814055 -0.7366305 0.3454611 3880755 male
-2.655213 -0.08321323 -1.374175 -0.8998734 0.2658581 0.3457565 2038817 male
-2.631039 0.5192619 -1.308646 0.1985614 0.6983752 0.6876378 7958897 male
-2.655638 0.3243774 -1.220919 -0.7619511 0.3843458 0.5212572 6971739 male
-3.088386 0.3408912 -1.512921 -0.9924095 0.1041863 0.06533605 16770783 male
-2.75871 0.5256273 -1.522449 -0.7691564 -0.1693601 0.6162109 12166046 male
-2.641431 0.199695 -1.163548 -0.6513275 0.00364555 0.7587881 8024174 male
-2.710448 0.5724105 -1.673614 0.7018849 0.07219504 -0.7086223 4472636 male
-2.606004 -0.02431413 -1.406701 -0.03646219 0.291714 -0.9558105 3818051 male
-2.89247 0.4453346 -1.510924 0.04403917 0.6970428 -0.715676 7630700 male
-2.842178 0.4117506 -1.451029 0.4472361 -0.8694925 -0.2096733 4408384 male
-2.610419 0.1972872 -1.146199 -0.2963369 -0.05734848 0.9533603 9208703 male
-2.744135 0.4022115 -1.402958 -0.5517739 -0.8263722 0.1124931 5459531 male
-2.551828 0.3525791 -1.20494 -0.04740359 0.6320098 0.7735093 14010820 male
-2.609548 -0.2349403 -1.395079 0.9189448 -0.3220848 -0.2276013 2434599 male
-2.391299 0.1986337 -1.262381 0.9964312 0.08411723 0.007024944 2632238 male
-2.617867 0.2320531 -1.302428 -0.3336568 0.0804928 -0.939252 6578012 male
-2.555091 0.4743773 -1.65802 -0.137311 -0.9530624 0.2698476 6447193 male
-2.734051 0.5928876 -1.685587 0.3631424 0.2974682 -0.8829726 3354670 male
-2.467524 -0.07234067 -1.288161 -0.1056213 -0.1570608 0.9819249 2566447 male
-2.516388 -0.4349941 -1.421713 0.04023445 0.9991871 0.002486141 2566439 male
-2.755835 0.5361047 -1.459161 -0.755922 -0.09695798 -0.6474422 4867138 male
-2.670325 0.1570074 -1.196581 -0.9009713 -0.07188422 0.4278828 2631469 male
-2.394125 0.1368551 -1.245589 0.9557696 -0.1173146 0.2697071 2829359 male
-2.684218 -0.399156 -1.430931 0.852365 0.5097299 0.1168318 2961461 male
-2.674629 -0.1716962 -1.425816 -0.7869819 0.06738426 -0.6132854 1974048 male
-2.60553 0.4282726 -1.497243 -0.2914944 -0.5971329 -0.7473041 16244661 male
-2.486145 0.09962327 -1.195379 -0.1838433 -0.4531931 0.8722488 3224378 male
-2.76727 -0.4381673 -1.430635 -0.5096666 -0.8529103 0.1130667 526344 male
-2.830431 0.5043327 -1.394852 -0.4706547 0.732458 0.4919244 9997960 male
-2.548224 -0.388058 -1.342513 -0.8865474 0.1735894 -0.4288365 2170913 male
-2.613359 -0.2006704 -1.419796 0.7654464 -0.2100254 -0.608261 2500137 male
-2.775081 -0.4141749 -1.369538 -0.9742115 0.1384634 0.1781582 2764082 male
-2.562917 0.4748047 -1.661596 -0.1590535 -0.9467323 0.2799998 6775647 male
-2.618388 0.458185 -1.904655 -0.703409 -0.2681719 0.6582552 16772322 male
-2.522667 0.4954463 -1.503457 0.8276436 -0.4792544 -0.2920985 3224369 male
-2.821321 0.6111237 -1.636589 -0.8385696 0.5085542 -0.1953814 3485741 male
-2.711721 0.3992311 -1.435124 -0.4069138 -0.6584143 -0.6331761 9210235 male
-2.607414 0.410021 -1.477804 -0.3850505 -0.7227788 -0.5738701 16769973 male
-2.688065 -0.1912069 -1.393625 -0.9983964 0.02148506 -0.05237663 1777185 male
-2.411146 0.2864356 -1.271993 0.9541227 0.2863574 -0.08746207 3552819 male
-2.520665 0.5076776 -1.668018 0.9589576 0.2410704 -0.1492838 10063503 male
-2.687516 0.5754843 -1.547235 0.7248245 0.6888369 -0.01154673 8221292 male
-2.440269 -0.255411 -1.345328 0.92164 -0.3419681 -0.1834056 2697001 male
-2.483668 0.4692216 -1.33132 0.7579936 0.4201165 0.4989471 6382173 male
-2.505318 0.4667557 -1.758843 0.9890119 0.08432555 -0.1214288 16768722 male
-2.540486 0.5561271 -1.628342 0.4612232 0.8489382 -0.2580255 9669508 male
-2.440418 -0.2482017 -1.358079 0.8595259 -0.3223707 -0.3966013 2697257 male
-2.552621 0.02076038 -1.300187 0.982779 -0.1770542 -0.05289239 2632239 male
-2.440931 -0.07558878 -1.299127 0.6275623 -0.1057488 0.7713516 2368036 male
-2.454111 -0.06789348 -1.385317 0.4529296 0.01623333 -0.8913985 3750978 male
-2.790634 0.4934995 -1.671595 -0.4626417 -0.6884686 -0.5585462 13021861 male
-2.457324 0.3158987 -1.195745 0.5309001 0.4602292 0.7115718 8681843 male
-2.724749 0.5842448 -1.459434 -0.1724237 0.9593116 -0.2235874 4803395 male
-2.59637 0.5120811 -1.632334 -0.9668436 -0.1888719 -0.1718753 8946304 male
-2.576967 -0.1076621 -1.375864 0.8792418 -0.3240751 0.3491554 2171428 male
-3.0207 0.4769383 -1.64381 0.09286884 0.950731 0.2957805 14269101 male
-2.57811 0.3284059 -1.41089 -0.08638674 -0.6011417 -0.7944596 7630181 male
-2.616614 -0.2528798 -1.388945 0.9446632 -0.3225714 -0.05966246 2236194 male
-2.399584 0.09534208 -1.249322 0.8951824 -0.2562676 0.3646584 2631982 male
-2.680189 -0.1468133 -1.378232 -0.9373865 0.2342113 0.2577828 2696745 male
-2.707105 0.4962973 -1.655829 0.6323851 -0.2701762 -0.7260126 16441556 male
-2.425678 -0.05356392 -1.315456 0.9795473 -0.1487479 0.1355036 2565935 male
-2.546443 0.05795666 -1.242151 0.8802491 -0.3247947 0.3459337 2170913 male
-2.545989 0.4419333 -1.511753 0.3173729 -0.5550442 -0.7688956 5198415 male
-2.682717 -0.2066288 -1.368667 -0.8724346 -0.01852511 0.4883801 2499110 male
-2.691617 -0.3723634 -1.425246 0.8640801 0.4552359 -0.2147698 2565418 male
-2.520621 0.5405434 -1.607771 0.9137769 0.4015582 -0.06134403 8484208 male
-2.470103 -0.1614732 -1.379988 -0.4141794 -0.1036553 -0.904274 2762794 male
-3.085291 0.3788997 -1.562111 -0.960053 0.2777623 -0.03386164 16639970 male
-2.637989 0.3576744 -1.419739 -0.2363843 -0.5989082 -0.7651349 16768949 male
-2.632456 -0.2860237 -1.389287 0.9501877 -0.2995 -0.08627498 2105120 male
-2.565352 0.3390704 -1.195462 -0.05834243 0.6237848 0.7794157 9404799 male
-2.81155 0.6199849 -1.587865 -0.7281696 0.5312656 0.433043 4933187 male
-2.511526 0.5601409 -1.542759 0.8651971 0.4973933 -0.06351668 5065544 male
-2.832545 0.5751919 -1.610268 -0.9748296 0.1136925 0.1917856 4866106 male
-2.807589 0.537375 -1.57103 -0.773817 -0.2133862 0.596384 5262924 male
-2.46741 -0.04446236 -1.267007 0.04108572 -0.2936403 0.9550329 2960173 male
-2.420519 -0.1386322 -1.32952 0.9812481 0.05267313 0.1854129 2697257 male
-2.461434 0.4114735 -1.337022 0.9833346 0.140991 0.1147821 6183253 male
-2.631368 0.5707431 -1.390623 -0.2008252 0.8253523 0.527696 6315607 male
-2.405991 0.03786732 -1.282116 0.9172022 -0.3163975 0.2421425 2631208 male
-2.634556 0.0901746 -1.185872 -0.4498881 -0.5566409 0.6983923 2959664 male
-2.719581 0.6347656 -1.583216 0.4180699 0.8210261 0.3887594 6313295 male
-2.753302 0.4340624 -1.613217 -0.1949918 -0.9803321 -0.03044964 14992326 male
-2.578664 0.1356092 -1.323303 0.5239136 0.3220159 -0.788556 2829875 male
-2.50291 0.2245173 -1.335777 0.3261169 0.1085502 -0.9390767 328961 male
-2.755822 -0.4233125 -1.355493 0.2977538 -0.4847772 0.8223953 1052696 male
-2.990912 0.408694 -1.486875 -0.5440187 0.6992913 0.4637192 16770520 male
