# .PCD v0.7 - Point Cloud Data file format
VERSION 0.7
FIELDS x y z normal_x normal_y normal_z rgb label
SIZE 4 4 4 4 4 4 4 4
TYPE F F F F F F U U
COUNT 1 1 1 1 1 1 1 1
WIDTH 252
HEIGHT 1
VIEWPOINT 0 0 0 1 0 0 0
POINTS 252
DATA ascii
1.288914 0.260043 -1.309037 0.1677764 0.2649556 0.9495523 8419720 male
1.403135 0.3510924 -1.071437 0.73674 0.5085405 -0.4456467 3290426 male
1.739477 0.2538066 -1.054361 0.9728222 0.07939928 0.2175146 526600 male
1.353628 0.1728213 -1.063743 -0.04758483 -0.6553725 0.7538053 7501700 male
1.289995 0.2148799 -1.306209 0.05485851 0.5959626 0.8011361 13551583 male
1.675941 0.329133 -1.232952 0.6196311 0.6135666 -0.4894826 5133662 male
1.282242 0.05113991 -1.347118 -0.4993232 -0.7664273 -0.4040613 12434124 male
1.391632 0.008033495 -1.314022 0.1977141 -0.9279386 -0.3159732 3750986 male
1.307015 0.6321328 -1.465209 0.812057 0.1732429 -0.5572705 11570315 male
1.593928 0.2995549 -1.195371 -0.4761309 0.7682064 0.4279702 527376 male
1.487302 0.3487555 -0.9067259 0.7777331 0.6260407 0.05660686 526600 male
1.290427 0.6920958 -1.365374 0.5001115 0.6527255 0.5690676 15449278 male
1.391609 0.2051204 -1.458778 0.9167354 -0.2425793 -0.3174138 11247013 male
1.353114 0.2073052 -1.325971 0.6193637 0.7705148 0.1506502 12038599 male
1.22048 0.07320514 -1.295209 -0.7387308 -0.6673204 -0.09465855 9607339 male
1.434111 0.3715925 -1.006649 0.5767024 -0.2382957 -0.7814278 526600 male
1.572402 0.1490464 -1.271982 0.7360988 -0.3007455 -0.6063915 3685446 male
1.110168 0.4293357 -1.394338 -0.9046046 0.1280417 -0.4065659 10393510 male
1.555482 0.2699037 -0.7413452 -0.4371598 -0.8423392 0.3152079 789258 male
1.247227 0.4279612 -1.343887 0.3536388 0.6173068 0.7027603 12894675 male
1.330599 0.5147537 -1.457335 0.9663562 0.2137349 -0.143084 15844032 male
1.390735 0.2128062 -1.170639 0.70424 0.457473 -0.5429223 4540492 male
1.751446 0.2333249 -0.8861125 -0.4652713 0.8400437 0.2790149 526600 male
1.515991 0.2970173 -1.507628 -0.9041783 0.2676018 -0.3329427 14791350 male
1.733089 0.2720966 -1.124373 0.8997103 -0.4364873 -0.0004311502 526600 male
1.281511 0.2697326 -1.542386 -0.3645357 -0.3668501 -0.8558824 10657452 male
1.176823 0.3411407 -1.491446 -0.5619835 -0.2049997 -0.8013424 8947089 male
1.196953 0.4351047 -1.323396 0.5034026 0.3387719 0.7948707 10196643 male
1.57995 0.2820992 -1.218924 -0.3661935 0.9283227 -0.06418233 526344 male
1.245078 0.2713971 -1.199395 0.5184364 -0.8548237 0.02236441 12297897 male
1.278651 0.04580271 -1.327469 -0.4603164 -0.8268348 -0.3231918 6974583 male
1.635907 0.3081547 -0.7662539 0.1387568 0.9524797 -0.2711623 526600 male
1.35904 0.3948806 -0.9469344 -0.7325473 -0.1105016 0.6716873 526600 male
1.099385 0.3841812 -1.288628 -0.6102908 0.5885593 0.5302293 15709103 male
1.338392 0.5483623 -1.365896 0.6147741 -0.03791264 0.7877915 13084320 male
1.43494 0.4402129 -1.514157 0.8007847 0.4553076 0.3891515 11702929 male
1.268651 0.221772 -1.138269 -0.893833 0.4219363 0.1517642 4538951 male
1.097892 0.3485541 -1.331374 -0.7079281 -0.4742022 -0.5234213 15973309 male
1.646713 0.276685 -1.210924 -0.4638071 -0.7731964 0.4324931 526600 male
1.255903 0.2231984 -1.50329 -0.6941378 -0.4124433 -0.5899688 13222100 male
1.271669 0.3111923 -1.54648 -0.478834 -0.2582979 -0.8390472 10986678 male
1.53923 0.2865882 -1.533653 0.06405807 0.6216187 -0.7806963 15316151 male
1.275033 0.6179644 -1.494401 0.3954138 -0.07453486 -0.915474 15782608 male
1.257512 0.118479 -1.422808 -0.5648545 -0.7175186 -0.4075615 10393767 male
1.189425 0.6402769 -1.374272 -0.7253159 -0.151123 0.6716238 9735055 male
1.662129 0.237441 -1.233618 0.5251019 -0.7365631 -0.4263131 5066838 male
1.487794 0.3448839 -1.515722 0.6612982 0.5749518 0.4817834 16368829 male
1.392749 0.3724256 -1.541666 -0.6440865 -0.7614907 -0.07269427 10850446 male
1.244106 0.1643794 -1.446262 -0.6513442 -0.5242636 -0.548542 10197419 male
1.406735 0.3662021 -1.463229 0.9269706 -0.3356077 -0.16761 8222597 male
1.238266 0.05673496 -1.25126 -0.7109643 -0.6751425 0.1967549 7830416 male
1.73938 0.2619741 -1.052541 0.799413 0.4791205 0.3624671 526600 male
1.24582 0.1867956 -1.186747 -0.853435 0.5206844 0.02316189 6053476 male
1.38294 0.09057167 -1.424732 0.3117395 -0.3232506 -0.8934917 4539212 male
1.138162 0.3235632 -1.2847 0.9272599 -0.3635193 -0.08968115 4474188 male
1.177113 0.6729785 -1.391439 -0.8299274 0.2681783 0.4891838 526600 male
1.355932 0.3414029 -1.023001 -0.3950438 -0.8739437 0.2831301 526600 male
1.630483 0.2451316 -0.7558329 0.5427144 -0.7766069 0.3199107 526600 male
1.32735 0.4821628 -1.438077 0.9299341 0.1666251 0.3278086 11249587 male
1.450276 0.06999391 -1.347225 0.6872775 -0.2199204 -0.6923039 5591899 male
1.243599 0.1615152 -1.174897 -0.917892 0.2765577 0.2845878 3026995 male
1.770302 0.2157549 -0.9688388 -0.4745045 0.8402359 0.262391 526600 male
1.682131 0.3614065 -1.215017 0.007261723 0.8574023 0.5145955 1646108 male
1.379285 0.02251019 -1.351582 0.2225182 -0.8512552 -0.4752371 7173251 male
1.312939 0.06830038 -1.148778 -0.06691054 -0.6142895 0.7862388 9410213 male
1.807894 0.1361786 -0.9662229 -0.1783418 -0.9643043 0.1957334 526600 male
1.38654 0.4465412 -1.580348 -0.04986387 -0.08771823 -0.9948965 7631228 male
1.613179 0.2521101 -0.7341789 0.4690755 -0.8513148 0.2350131 657930 male
1.699725 0.2395717 -1.110012 0.1129552 -0.9368531 -0.3309795 526600 male
1.790914 0.143236 -0.9900775 0.4502009 -0.6558759 -0.6059258 526600 male
1.14916 0.3615316 -1.324276 0.8119871 -0.4992891 -0.3023034 855309 male
1.086397 0.1950847 -1.195306 0.5474781 -0.7203401 0.4258848 4209983 male
1.268679 0.3727343 -1.322058 0.4428295 0.2747461 0.8534732 13288154 male
1.283819 0.7124656 -1.411676 0.4794088 0.8769102 -0.03458166 1051656 male
1.192949 0.4881861 -1.447356 -0.6271469 0.7265469 -0.2807424 6841968 male
1.307585 0.03393258 -1.335919 -0.4529007 -0.8449625 -0.2844632 13488860 male
1.738394 0.3675573 -1.189773 0.5198196 0.5937978 0.6141593 526600 male
1.336892 0.1874598 -1.244643 -0.08182131 0.974107 -0.2107626 5461608 male
1.108485 0.4069636 -1.386072 -0.6793292 -0.331585 -0.6546474 6645357 male
1.23619 0.5238521 -1.470127 -0.7730644 -0.06902892 -0.6305604 16706779 male
1.385102 0.3455793 -0.947556 -0.7007331 -0.6208776 0.3514031 526600 male
1.197263 0.1371572 -1.384377 -0.7025892 -0.6913638 -0.1684776 9602970 male
1.052787 0.266855 -1.25587 -0.994212 0.05759433 0.09069371 15906990 male
1.096961 0.414547 -1.326679 -0.8587732 0.3809685 0.3425954 6841970 male
1.406638 0.3652087 -0.915464 -0.5073364 -0.0700007 0.8589002 526600 male
1.626965 0.3299846 -1.198626 -0.3846561 0.7768204 0.4985876 986639 male
1.137778 0.3962896 -1.384513 -0.1494256 -0.9878656 0.04234947 526600 male
1.355212 0.4307618 -0.9924471 -0.6339207 0.4022329 0.6605704 526602 male
1.318183 0.6743123 -1.39454 0.8627156 0.4953973 0.1015044 14927566 male
1.239004 0.07203893 -1.220114 -0.8106811 -0.443446 0.382298 3553344 male
1.292939 0.4932801 -1.526334 -0.2625482 0.7294777 -0.6316097 9077904 male
1.129893 0.3609201 -1.266052 0.4023973 0.5316553 0.7452643 16435400 male
1.526397 0.2393658 -1.236901 -0.395633 0.9041218 -0.161364 1645859 male
1.576213 0.4018846 -1.385843 0.6971266 0.05967744 -0.71446 14000546 male
1.150793 0.2918104 -1.390494 -0.9321939 -0.3187194 0.1715593 8421000 male
1.762002 0.2244748 -1.026506 0.9639168 -0.262681 -0.04316232 526600 male
1.326179 0.189684 -1.061464 -0.4821961 -0.3770027 0.7907945 4475989 male
1.745293 0.3479624 -1.2333 0.9114891 -0.3256375 -0.2512924 526600 male
1.271965 0.6364602 -1.33444 -0.07645914 0.01861034 0.9968989 14594217 male
1.127687 0.3864248 -1.395717 -0.7808452 -0.5755185 -0.2430214 854797 male
1.460036 0.1016802 -1.166312 -0.2259592 -0.126506 0.9658875 2697257 male
1.264206 0.4074186 -1.337475 0.4532711 0.5330165 0.7144499 16114832 male
1.705401 0.3183871 -1.252612 0.04923493 -0.6988106 -0.7136102 526600 male
1.7741 0.199329 -1.013405 0.7847395 -0.5324765 -0.3172581 526600 male
1.094502 0.4088825 -1.330149 -0.9338625 0.2811578 0.2210229 8484222 male
1.337047 0.3347013 -1.033551 -0.7964883 0.3825141 0.4682833 3487547 male
1.567334 0.2811638 -1.494878 0.9754858 0.008593037 0.2198944 12756392 male
1.383636 0.3469895 -1.394785 0.7046597 0.06367681 0.7066823 12560290 male
1.705043 0.3521609 -1.148545 0.2285494 0.7426149 0.6295143 526600 male
1.24776 0.44932 -1.519458 -0.6938313 0.3555156 -0.6262641 14670571 male
1.24937 0.6345741 -1.501577 0.2015079 0.01581149 -0.9793593 14471896 male
1.097934 0.4294133 -1.365701 -0.9668199 0.07467014 -0.2443025 7565691 male
1.265126 0.6530576 -1.494016 0.3464826 0.171096 -0.922321 14933987 male
1.294716 0.641543 -1.491124 0.3461248 -0.8836701 0.3151584 16232622 male
1.368095 0.310106 -1.02913 0.03757732 -0.9253695 0.3771994 657418 male
1.336875 0.3389692 -1.012417 -0.7600541 -0.4388879 0.479265 2040102 male
1.227529 0.2022951 -1.296326 -0.4127412 0.6339371 0.65404 10325909 male
1.214588 0.3134715 -1.505423 -0.4275426 -0.2524577 -0.8680278 12039109 male
1.339002 0.1225957 -1.098883 0.009514183 -0.6480157 0.7615675 12304595 male
1.456183 0.08365479 -1.334065 0.5610629 0.02712406 -0.8273287 3684668 male
1.165321 0.6663567 -1.438425 -0.9716233 0.2038969 -0.1198922 526344 male
1.344225 0.566386 -1.383482 0.9919783 0.0665611 0.1074649 14068133 male
1.483456 0.2085097 -1.228558 -0.5508614 0.8262056 0.1180511 5264225 male
1.369424 0.1910926 -1.353653 0.8142695 0.5615506 0.1470581 12236235 male
1.78095 0.1586181 -0.9585792 -0.500686 -0.4960856 0.7093748 526600 male
1.50501 0.3022268 -1.555503 0.610822 0.2223876 -0.7598948 16373701 male
1.377991 0.105111 -1.130232 0.6051939 -0.6245353 0.4936557 2828851 male
-2.535391 0.3412062 -1.423959 0.8080869 -0.5808552 -0.09799516 5065029 male
-2.602402 0.05047286 -1.372143 -0.04696023 -0.04138557 -0.9980392 3223601 male
-2.729628 -0.006460276 -1.384495 0.4346611 -0.02684383 -0.9001942 4343114 male
-2.610896 0.1142117 -1.216859 0.1858898 -0.2992093 0.9359056 1908003 male
-2.551561 0.3274814 -1.440099 0.68288 -0.6814623 -0.2632189 5788496 male
-2.779715 -0.1881916 -1.369986 -0.3840219 -0.02224832 -0.923056 2566703 male
-2.791115 0.3463704 -1.324092 -0.7056847 0.6923769 0.1504115 5854288 male
-2.560686 0.3880467 -1.543074 -0.02433068 -0.7562926 -0.6537811 16373419 male
-2.577423 0.6099052 -1.753349 -0.8644747 -0.1890444 -0.4657748 14205367 male
-2.70457 0.04810017 -1.340409 0.9693742 -0.05672863 -0.2389473 2566444 male
-2.541762 -0.3247204 -1.341619 0.9031855 -0.03927999 -0.4274498 2434090 male
-2.570575 0.6433614 -1.77624 -0.7499309 -0.09705152 -0.6543584 13482420 male
-2.765773 0.3802698 -1.431531 -0.9727448 0.02070319 -0.2309528 3485741 male
-2.63865 0.2954329 -1.454505 0.1615968 -0.710638 -0.6847484 7235428 male
-2.636306 0.3316616 -1.247656 0.009151205 0.6865272 0.7270466 8090477 male
-2.628357 -0.09564223 -1.285358 -0.6995744 -0.1382612 0.7010561 2302507 male
-2.797561 0.004125348 -1.286722 -0.784678 -0.2633284 0.5611942 2235940 male
-2.450397 0.4780892 -1.574717 -0.6403803 -0.5431498 -0.5430484 7170147 male
-2.543695 -0.4462274 -1.394657 -0.597473 -0.7172441 -0.3585902 3092783 male
-2.47718 0.4379011 -1.523311 0.8086353 -0.5881089 -0.01540112 4670015 male
-2.524859 0.5287002 -1.678527 0.6159536 -0.7859247 -0.05407178 13416877 male
-2.580694 0.1236091 -1.366454 0.3587589 0.1189404 -0.9258215 4144968 male
-2.654742 -0.4539363 -1.458472 0.9592763 -0.2727375 -0.07350904 2631464 male
-2.504311 0.3238778 -1.812781 0.4213089 0.5679919 0.7070249 16376023 male
-2.729703 -0.2038601 -1.349292 0.7272251 0.004988674 -0.6863811 2237482 male
-2.611999 0.5939229 -1.539934 -0.09046066 0.9672933 0.2369822 6446426 male
-2.615556 0.5699545 -1.481403 -0.2988192 0.8537512 0.4263989 8288882 male
-2.494367 0.4210634 -1.457531 0.9380478 -0.3447351 0.03498924 3553077 male
-2.731846 0.04976802 -1.38664 0.5490718 -0.04217035 -0.8347108 3686215 male
-2.363817 0.4482177 -1.558391 0.811711 0.154859 0.5631558 7827567 male
-2.689186 0.2812668 -1.220514 -0.1956167 0.3728552 0.9070354 9735305 male
-2.639104 0.5164495 -1.621714 0.3495729 0.09858424 -0.9317082 6511187 male
-2.535383 -0.2143628 -1.305985 0.9950936 0.002530581 0.0989069 2302499 male
-2.431785 0.4681783 -1.596902 -0.5540527 -0.0831105 -0.8283226 7236453 male
-2.5066 0.5184754 -1.71321 0.2051619 -0.8662191 0.4556019 11774106 male
-2.748422 0.488636 -1.61242 -0.8842804 -0.4386797 0.1600265 6776159 male
-2.589845 0.193524 -1.351213 0.4065831 0.2753061 -0.871147 3027253 male
-2.460171 0.488608 -1.476663 0.3981756 -0.8894401 0.2243934 591369 male
-2.799205 -0.08868976 -1.339538 -0.9560708 -0.03811299 -0.2906481 2499878 male
-2.654672 0.5909091 -1.536399 -0.1110074 0.9379922 0.3284022 5982787 male
-2.654063 0.5579565 -1.465243 -0.02641033 0.7846463 0.6193811 6183254 male
-2.544754 0.2936614 -1.834231 -0.4037152 -0.3212913 -0.8566132 16772323 male
-2.584293 0.673037 -1.757588 -0.8433486 0.1270866 -0.522123 8090995 male
-2.723761 0.2660601 -1.219456 -0.07955384 0.246845 0.9657841 10985372 male
-2.457827 0.6869583 -1.699761 0.9472087 0.2654001 0.1798856 3881270 male
-2.742836 -0.07158795 -1.391782 0.2613609 -0.1870608 -0.9469419 4145994 male
-2.644458 0.4743859 -1.694467 0.6806321 0.5348193 -0.500708 8550515 male
-2.844624 0.1270048 -1.316239 -0.9928397 -0.1119367 -0.04171175 1972767 male
-2.764593 0.2840493 -1.234257 -0.3996299 0.4064885 0.8216224 9866635 male
-2.742115 0.4223522 -1.515545 -0.8269498 -0.2736418 -0.491197 3946035 male
-2.645114 0.2773256 -1.21111 0.03770947 0.3715183 0.9276596 9339773 male
-2.718551 0.009001132 -1.375308 0.7300635 0.0003811507 -0.6833795 3487807 male
-2.550112 0.2134771 -1.270807 0.9555644 0.09237155 0.2799367 2303014 male
-2.759117 0.2918102 -1.411449 -0.3938937 -0.0587001 -0.91728 4143671 male
-2.33395 0.3042844 -1.597557 -0.9856918 -0.09783013 -0.1372635 16373971 male
-2.466087 0.7078841 -1.718492 0.8254068 0.5558982 -0.09839261 3354670 male
-2.61932 -0.03744149 -1.260209 -0.2285805 -0.2453543 0.9421 3092015 male
-2.583005 0.5953622 -1.587415 -0.05490617 0.9493874 0.3092715 2763050 male
-2.690445 0.5859824 -1.600586 -0.4187492 0.816267 -0.3979414 4933187 male
-2.814545 0.1285578 -1.255082 -0.6630876 -0.2836029 0.692737 3355963 male
-2.551532 0.2008713 -1.263309 0.9347969 0.07889269 0.3463106 2699056 male
-2.758344 -0.3983013 -1.337737 0.9455792 0.1669424 0.2793036 1777186 male
-2.809125 -0.1922982 -1.322909 -0.9950698 -0.09025448 -0.04111475 1973534 male
-2.510028 0.5577495 -1.570667 0.5716301 0.1953026 -0.7969294 4077878 male
-2.663556 -0.01288207 -1.304432 -0.9887605 -0.1494032 -0.005612195 2170657 male
-2.794574 -0.4582653 -1.322528 0.2282435 -0.9685617 0.09895986 789004 male
-2.684474 0.5141107 -1.703911 0.2546168 0.4733261 -0.8432869 5722700 male
-2.5513 -0.4179342 -1.391217 -0.7854292 0.3069022 -0.5375055 2565671 male
-2.775269 -0.3663008 -1.305435 -0.6137106 -0.2638978 0.7441219 3026994 male
-2.811928 -0.440439 -1.349982 -0.9798177 0.05652846 0.191735 2171169 male
-2.344499 0.32628 -1.597718 -0.9624286 -0.02461381 -0.2704175 16704479 male
-2.320365 0.3339272 -1.778325 -0.8842636 0.34175 0.3182534 16442073 male
-2.451004 0.5115458 -1.595026 -0.03390694 0.01503615 -0.999312 7761765 male
-2.525914 0.7178115 -1.771092 -0.03599897 0.7577043 -0.6516045 10786699 male
-2.628152 0.4152207 -1.587715 0.3401527 -0.5422801 -0.7682634 5392706 male
-2.779823 0.3490457 -1.378806 -0.9597663 0.1821237 -0.2137284 3026222 male
-2.800944 -0.2332327 -1.33817 -0.9299956 -0.2169571 -0.2967119 1908256 male
-2.564492 0.2382861 -1.331086 0.6957769 0.1145231 -0.7090691 8814718 male
-2.334238 0.4092134 -1.620195 0.439751 0.7753003 -0.4533525 16636876 male
-2.556094 0.6001559 -1.603396 0.02266261 0.73689 0.675633 16772834 male
-2.545034 -0.2782672 -1.34041 0.783494 -0.03966121 -0.6201327 2367780 male
-2.640707 0.3892496 -1.302416 -0.06494437 0.5208983 0.8511447 9668995 male
-2.257725 0.3056267 -1.662901 0.9967474 0.02814233 -0.07551789 16507872 male
-2.399654 0.5303708 -1.549114 0.7928684 0.6036221 0.0836671 11314587 male
-2.538294 -0.2765426 -1.321708 0.9917809 -0.06247436 -0.1116595 2499624 male
-2.703211 0.064223 -1.344463 0.9490758 -0.06532781 -0.3082004 2828590 male
-2.558864 -0.1390809 -1.277422 0.7273526 0.2850034 0.6242849 2170403 male
-2.576746 -0.05420668 -1.363566 0.6527559 0.07160643 -0.7541767 3554629 male
-2.500051 0.6688613 -1.797527 0.2891038 0.20931 -0.9341352 9932935 male
-2.594853 0.3476007 -1.271548 0.4077849 0.715466 0.5672917 6510423 male
-2.712716 -0.4657579 -1.437006 -0.7496545 -0.6616518 0.01532876 264457 male
-2.392163 0.5077548 -1.588705 0.6845074 0.4532058 -0.5710117 11575697 male
-2.703732 -0.02966028 -1.329473 0.9955102 -0.04081518 -0.0854041 2368805 male
-2.435758 0.3496173 -1.882166 -0.8006977 0.2476669 -0.5454764 16573651 male
-2.77889 0.3315727 -1.392054 -0.798156 0.2287616 -0.5573287 2828840 male
-2.725392 0.00778692 -1.381055 0.5754063 -0.02055242 -0.8176097 3948873 male
-2.557429 -0.0006313865 -1.297801 0.9222321 -0.2029127 0.329112 2171174 male
-2.773936 -0.146966 -1.276264 -0.2633192 0.1933306 0.9451384 2763824 male
-2.453045 0.6704646 -1.730438 0.9850972 0.1348907 -0.1067169 4077361 male
-2.574421 -0.1427013 -1.265293 0.3586307 0.2763953 0.8916221 2303014 male
-2.754525 0.02085128 -1.26017 0.08952615 -0.2428196 0.9659317 3749945 male
-2.464947 0.5627004 -1.558859 0.2975712 0.7983841 -0.5234829 6514010 male
-2.780764 -0.2038738 -1.276388 -0.4263099 -0.1519769 0.8917192 3224117 male
-2.778748 -0.3893331 -1.377286 -0.5712085 0.4651259 -0.676298 2368804 male
-2.410513 0.5361347 -1.530105 0.6909067 0.6566751 0.3023671 10854552 male
-2.60731 -0.1319725 -1.349228 -0.4328595 -0.2988932 -0.8504679 2170913 male
-2.596495 0.2855358 -1.711951 0.6057801 -0.01939366 0.795396 14599101 male
-2.611502 0.3943173 -1.547974 0.4528524 -0.6552169 -0.6046616 16245433 male
-2.739631 -0.3416935 -1.31954 0.9957107 0.01538545 0.09123534 2565671 male
-2.691537 0.4114877 -1.327585 -0.0643609 0.4851246 0.8720734 11051415 male
-2.592067 0.7000328 -1.680966 -0.8871505 0.3565285 0.2930048 4472124 male
-2.427145 0.5138081 -1.600318 0.06900543 -0.006554881 -0.9975949 6710366 male
-2.590912 0.7073871 -1.716495 -0.8728243 0.4602361 -0.1623597 4998462 male
-2.576564 0.6201512 -1.758708 -0.8597661 -0.1899112 -0.4740636 12363936 male
-2.573043 0.00263793 -1.269093 0.7440134 -0.1937759 0.6394492 2959661 male
-2.546153 -0.1601132 -1.287709 0.8997566 0.2169329 0.3786537 2303016 male
-2.520482 0.3720471 -1.404343 0.9005836 -0.3061815 0.3085489 3355441 male
-2.650916 0.4384332 -1.346667 -0.3587441 0.5987605 0.7160925 8551031 male
-2.540263 0.09204906 -1.291989 0.9795854 -0.05505891 0.1933425 2302501 male
-2.824843 0.1697466 -1.256783 -0.8461629 -0.1491633 0.5116238 3814714 male
-2.534851 0.6949522 -1.631552 -0.1150623 0.4298374 0.8955449 6313295 male
-2.555218 0.5587955 -1.750285 -0.6610756 -0.5065459 -0.5535255 16574427 male
-2.707514 0.154589 -1.355935 0.7909389 -0.03500517 -0.6108932 3026482 male
-2.702212 0.246426 -1.410235 -0.2142557 -0.4186381 -0.8825173 7497829 male
-2.766885 -0.4577988 -1.385884 0.4455116 -0.8952523 -0.006525159 592137 male
