# .PCD v0.7 - Point Cloud Data file format
VERSION 0.7
FIELDS x y z normal_x normal_y normal_z rgb label
SIZE 4 4 4 4 4 4 4 4
TYPE F F F F F F U U
COUNT 1 1 1 1 1 1 1 1
WIDTH 255
HEIGHT 1
VIEWPOINT 0 0 0 1 0 0 0
POINTS 255
DATA ascii
1.337242 0.192341 -1.338253 0.7642528 0.5634664 0.3137248 12630737 male
1.392234 0.3320992 -1.095285 -0.2908897 0.9040673 -0.3131223 8094610 male
1.739594 0.3650117 -1.255262 0.5698234 0.680469 0.4607202 526600 male
1.398644 0.189988 -1.06727 0.05076081 -0.6389613 0.7675623 2698033 male
1.350015 0.2023961 -1.330721 0.4800271 0.8725914 0.09032254 12433613 male
1.641822 0.2904962 -1.318443 0.4417351 0.1145255 -0.8898056 591113 male
1.280293 0.0623251 -1.385267 -0.5808292 -0.6924061 -0.4280319 11380921 male
1.33355 0.01056076 -1.30873 -0.3735064 -0.9267504 0.04033192 5855073 male
1.328358 0.5802357 -1.502542 0.3997165 -0.3317684 -0.8544919 10980486 male
1.531343 0.2393831 -1.29334 -0.4353323 0.8701444 -0.2309428 9607331 male
1.518526 0.3546028 -0.9432896 0.7394532 0.6490523 0.1787179 526600 male
1.32423 0.6470192 -1.508958 0.5357501 0.266072 -0.8013598 15322318 male
1.335061 0.3539765 -1.375095 0.9103974 0.1927794 0.3660775 15855296 male
1.40898 0.1171147 -1.356704 0.1796221 0.8039214 -0.5669623 12633553 male
1.305156 0.06467565 -1.172041 -0.5172842 -0.53366 0.6690472 12436176 male
1.388315 0.3991013 -1.040962 -0.3250202 -0.5800408 -0.7469368 526600 male
1.551802 0.09964038 -1.326274 0.6306649 -0.4257649 -0.6488344 3224374 male
1.147122 0.4056644 -1.308164 -0.9742885 -0.1987779 0.1060632 9078165 male
1.707222 0.2284054 -0.8827242 -0.6823751 0.4010201 0.611185 986895 male
1.319801 0.3701826 -1.353521 0.7963985 0.3610248 0.485191 14539397 male
1.350735 0.4808317 -1.444457 0.9851357 -0.09149992 0.1453799 15386054 male
1.436559 0.2335138 -1.150127 0.7817852 0.3361652 -0.5251712 3684672 male
1.863643 0.2125457 -1.034381 -0.3563308 0.9087654 0.2171953 526600 male
1.582775 0.2696456 -1.443315 0.8402849 -0.0818914 -0.5359244 13736335 male
1.747659 0.2316962 -1.168582 -0.9601634 -0.2784644 0.02331942 526600 male
1.299071 0.2497618 -1.552847 -0.2184514 -0.4486081 -0.8666197 8552078 male
1.194835 0.4326712 -1.479058 -0.6605501 0.3611113 -0.6582341 13420763 male
1.144142 0.4280889 -1.3636 -0.9350926 0.3521355 0.04002893 8946576 male
1.788021 0.2545505 -1.148774 -0.5064372 0.7448983 0.4343362 526600 male
1.327704 0.4844893 -1.143066 0.4901865 -0.853875 -0.1749708 11309967 male
1.258604 0.06363171 -1.351044 -0.6057572 -0.709594 -0.359909 14406884 male
1.696438 0.2167351 -0.8308744 0.6315514 -0.7696095 0.09404355 526600 male
1.377424 0.3833304 -1.015671 -0.7717864 -0.6008986 -0.2080062 526600 male
1.154252 0.3889049 -1.318439 -0.7664098 -0.6056802 -0.2139338 10526638 male
1.396633 0.6204975 -1.417983 0.9006047 0.3060543 0.3086129 13674404 male
1.535357 0.3489582 -1.474631 0.5913441 0.5895082 -0.5502656 14065818 male
1.399871 0.1715692 -1.236736 0.5432355 0.5220004 -0.6575795 5462628 male
1.200119 0.2444258 -1.081889 0.6532699 -0.4798445 0.5856515 16567753 male
1.632252 0.3427958 -1.256778 -0.4958094 0.0919494 0.8635498 526600 male
1.282366 0.239414 -1.54415 -0.376856 -0.4482562 -0.8105837 10196388 male
1.247302 0.2554004 -1.530212 -0.646664 -0.3575163 -0.673801 10790069 male
1.570905 0.2779348 -1.425564 -0.8452218 -0.0249954 -0.5338309 16041157 male
1.305654 0.5083055 -1.49406 -0.1634886 -0.1553364 -0.9742392 16768472 male
1.224666 0.2465644 -1.492975 -0.8516791 -0.3429873 -0.3962352 10789043 male
1.230303 0.640543 -1.401682 -0.4020204 0.2844277 0.8703336 9933206 male
1.648369 0.3183212 -1.292039 -0.5200096 -0.7523679 0.4043915 526600 male
1.496978 0.4411307 -1.385677 -0.3784137 0.007868109 0.9256031 6442830 male
1.544356 0.2830805 -1.448742 0.1610157 -0.9267626 -0.3393894 16368828 male
1.222305 0.3570798 -1.51419 -0.8362861 0.0743798 -0.5432248 13550550 male
1.397206 0.3249964 -1.489165 0.8690905 -0.3520124 -0.3475184 7564411 male
1.222115 0.2186167 -1.460171 -0.6996401 -0.4309303 -0.5699147 12630481 male
1.734599 0.3544203 -1.238455 0.4631494 0.6975209 0.5467699 526600 male
1.279845 0.1513503 -1.1735 -0.890999 0.22838 0.3923814 3685184 male
1.421899 -0.0004510512 -1.259834 0.1708261 -0.8584165 0.483673 8883624 male
1.225526 0.3486929 -1.191765 0.9573746 0.2840543 0.05241069 13081503 male
1.221799 0.6674854 -1.422532 -0.5062709 0.645906 0.5713976 723723 male
1.461624 0.3571604 -1.02342 0.2903233 -0.4445273 -0.8474123 526088 male
1.583719 0.3001827 -0.8789592 0.1876425 0.2257164 -0.955951 526600 male
1.321523 0.4406153 -1.565439 0.1038621 0.5729686 -0.8129696 7499642 male
1.513233 0.06654748 -1.340658 0.6051722 -0.381439 -0.6987638 3752266 male
1.290291 0.1631151 -1.140745 -0.8474897 0.05998721 0.5274113 4936027 male
1.860983 0.1934982 -1.006749 -0.4202203 -0.05890704 0.905508 526600 male
1.658337 0.3424766 -1.31322 0.4147364 0.5312168 -0.7387844 6777717 male
1.360049 0.03256654 -1.402328 -0.01936522 -0.8046358 -0.5934527 7237501 male
1.351351 0.06207442 -1.156749 0.03871405 -0.5954901 0.8024294 9410213 male
1.914582 0.1451862 -1.128608 0.3927214 -0.7127659 -0.5811494 526600 male
1.52576 0.3533614 -1.454564 0.3699362 0.9240366 0.09645474 16369342 male
1.641355 0.3014457 -0.7939668 0.01102164 0.807469 0.589807 526600 male
1.78941 0.2355412 -1.144804 -0.7746701 0.4897073 0.4000914 526600 male
1.794484 0.2144621 -1.147161 -0.7563112 0.4522314 0.4727368 526600 male
1.236904 0.3856358 -1.244571 0.9929187 0.07447381 -0.0925529 13282996 male
1.236803 0.3456708 -1.128496 -0.7550135 0.5982301 -0.2684687 14923449 male
1.392899 0.2249888 -1.400872 0.9783775 0.06438862 0.1965491 11840959 male
1.248191 0.6774579 -1.511988 -0.2335687 0.6725343 -0.7022417 526600 male
1.696545 0.2735211 -0.82507 0.1952486 0.923448 -0.3303359 526600 male
1.280752 0.05854683 -1.377101 -0.5808647 -0.7073088 -0.4028778 11973317 male
1.682055 0.3855908 -1.301213 0.4370314 0.8290459 0.3488356 527368 male
1.227224 0.1781248 -1.280696 -0.6740408 0.6737624 0.3028418 4934223 male
1.319498 0.4594592 -1.15292 0.7192276 -0.6945297 -0.01844522 15199223 male
1.248032 0.4847132 -1.438647 -0.817476 0.5594867 0.1367752 14659494 male
1.434519 0.403107 -0.9447496 -0.1600648 0.2286555 0.9602582 526600 male
1.224465 0.07479798 -1.296363 -0.7774524 -0.6288797 -0.008832872 10196131 male
1.159788 0.2955332 -1.109722 -0.6794745 0.6925151 0.2423573 15315884 male
1.211362 0.4066433 -1.226602 0.2522377 0.8883334 0.3837185 14592677 male
1.430065 0.4172188 -0.9512438 -0.03771552 0.4002915 0.9156113 526600 male
1.544368 0.2569144 -1.270295 -0.556247 0.8080385 0.1940694 5791079 male
1.206318 0.3433132 -1.247805 0.4585875 -0.7878222 -0.411137 3486257 male
1.471538 0.3897131 -1.026219 0.683942 0.1376508 -0.7164325 526600 male
1.316225 0.6956493 -1.463193 0.4202829 0.8955256 -0.1462745 13212564 male
1.212627 0.1020325 -1.270795 -0.8777612 -0.316048 0.3600679 7696502 male
1.764969 0.175592 -0.9065261 0.6248744 -0.7635341 -0.1629343 526600 male
1.168683 0.3995009 -1.23982 -0.7952994 0.3894092 0.4646066 14397868 male
1.600786 0.3141481 -1.278457 -0.4005224 0.9009256 0.1670771 921358 male
1.551335 0.5401575 -1.373501 -0.5456525 -0.5462814 0.6354841 920334 male
1.152746 0.3313011 -1.360864 -0.8271763 -0.3252638 0.4582387 9472664 male
1.741098 0.33831 -1.222781 0.4608845 0.6802837 0.5699118 526600 male
1.403399 0.1230997 -1.115001 0.3639925 -0.6857643 0.6302674 4935259 male
1.62141 0.3187458 -1.299663 -0.1224119 0.8513101 -0.5101828 7831440 male
1.322443 0.6603057 -1.406222 0.3587835 0.7635765 0.5368662 14333609 male
1.183232 0.358399 -1.287801 -0.06992851 -0.9219311 -0.3809896 12622999 male
1.540131 0.06300135 -1.262628 0.7414593 -0.6604731 0.1183784 12830671 male
1.226588 0.4703299 -1.403465 0.1650021 0.8568527 0.4884442 11511479 male
1.681521 0.3975796 -1.273538 -0.06552237 0.662361 0.746314 526600 male
1.822361 0.1928936 -1.159217 -0.1913457 -0.7263361 -0.6601687 526600 male
1.20142 0.4103373 -1.229668 0.04602648 0.8955455 0.442583 15116968 male
1.338516 0.2301816 -1.084743 -0.7187315 0.07637401 0.6910803 4212304 male
1.566143 0.3107736 -1.465088 0.6807736 0.2643093 -0.6831456 16106939 male
1.348228 0.4756051 -1.445178 0.9830245 -0.07023461 0.169499 15720163 male
1.761969 0.2978974 -1.229958 0.9712316 -0.09024614 -0.2203746 526600 male
1.279617 0.3088363 -1.57105 -0.4487115 -0.3529167 -0.8210407 10921143 male
1.251085 0.5523014 -1.506186 -0.09039295 -0.7143285 -0.6939481 13616328 male
1.199791 0.4334275 -1.264795 0.2060559 0.7861216 0.5827125 13086128 male
1.259682 0.5703116 -1.520436 -0.009742856 -0.5713442 -0.8206528 14933987 male
1.300539 0.5740226 -1.517787 -0.6016514 -0.7307789 -0.3224562 12222072 male
1.389433 0.3787431 -1.037731 -0.2362672 -0.9233358 -0.3027025 526600 male
1.417858 0.07343417 -1.216762 0.9305391 0.3125338 -0.1908392 526600 male
1.295296 0.2626143 -1.302089 0.282677 0.2417711 0.9282459 8684176 male
1.165437 0.3452977 -1.466412 -0.7456312 -0.135649 -0.6524058 13486295 male
1.386749 0.1863974 -1.067976 -0.1378454 -0.566534 0.8124271 4607829 male
1.420013 0.1215163 -1.324134 -0.5405439 0.5679507 -0.6206803 7962513 male
1.206936 0.5570284 -1.438218 -0.7281546 -0.6399641 0.245432 7432812 male
1.404013 0.5986213 -1.423169 0.8810704 0.2281854 -0.4143022 13347494 male
1.561359 0.2578136 -1.240655 -0.5357203 0.5915115 0.6025926 4144964 male
1.355228 0.2611646 -1.347169 0.75683 0.3585153 0.5465118 12051373 male
1.85473 0.1525967 -1.138686 -0.9734691 -0.2135549 0.08217159 526602 male
1.488647 0.3209482 -1.436608 -0.6406901 -0.3200445 0.6979166 14935538 male
1.414654 0.1014693 -1.147246 0.68072 -0.5867677 0.4385473 2828851 male
1.478249 0.3860748 -0.9416077 0.4172433 0.5276465 0.7399304 526600 male
1.341362 0.1976268 -1.521128 0.3705796 -0.5213838 -0.7686544 4210502 male
-2.540252 0.4001386 -1.482371 0.5086874 -0.4612795 -0.7269515 6313810 male
-2.593877 0.01069023 -1.396864 -0.8443464 -0.1270455 -0.5205178 2697513 male
-2.662171 -0.2154646 -1.358317 0.9157634 -0.1708577 -0.3635732 1907997 male
-2.49814 0.03117625 -1.340217 0.8663146 -0.1805443 0.4657285 2696747 male
-2.57019 0.3533207 -1.476183 0.486593 -0.2988722 -0.8209159 6313297 male
-2.756493 -0.1775944 -1.357627 -0.991816 -0.00474323 -0.1275891 1973537 male
-2.730632 0.3851782 -1.415286 -0.9289597 -0.02334001 -0.3694448 3223598 male
-2.671052 0.4141592 -1.497744 -0.456148 -0.3158555 -0.8319643 6510930 male
-2.575532 0.796226 -1.651393 -0.7356567 0.4153353 -0.5350758 16242638 male
-2.671396 0.1140615 -1.426194 0.5373492 -0.0390413 -0.8424559 3223604 male
-2.513453 -0.355161 -1.384089 0.1941024 0.2566841 -0.946804 2171431 male
-2.591556 0.866446 -1.617416 -0.6811896 0.5113606 -0.5239192 5195076 male
-2.735868 0.4447148 -1.409646 -0.997681 -0.06343447 0.02467561 3223085 male
-2.631928 0.2789064 -1.462336 -0.1838252 -0.1931084 -0.9638038 7761004 male
-2.532507 0.3491316 -1.309156 0.4432446 0.5845763 0.6795623 7629416 male
-2.575111 -0.1378339 -1.337612 -0.9824911 0.06071222 0.1761401 2039071 male
-2.764975 0.1131953 -1.32248 -0.8153992 -0.178742 0.5506138 2697257 male
-2.456559 0.5975152 -1.502353 -0.6101974 -0.7888125 0.07371533 1051656 male
-2.524139 -0.444565 -1.398934 -0.634941 -0.705065 -0.315806 3092783 male
-2.477527 0.6136368 -1.559338 -0.4024444 0.2761316 -0.872806 8089963 male
-2.559151 0.7002974 -1.608328 0.3790425 -0.7165522 -0.5855594 12496806 male
-2.580189 0.1393145 -1.436437 -0.4289789 -0.1196004 -0.895362 3026222 male
-2.692322 -0.4449189 -1.497896 0.101017 -0.9908016 -0.0900425 526344 male
-2.595833 0.4273417 -1.688502 0.7284501 -0.2414523 0.6411408 16703965 male
-2.73127 -0.36234 -1.394407 -0.5786208 0.2813443 -0.7655349 1644825 male
-2.690205 0.671922 -1.425555 -0.4001446 0.7203848 0.566507 10656403 male
-2.517922 0.6329085 -1.393393 0.2376513 0.5723528 0.7848148 8748667 male
-2.457318 0.5266801 -1.433296 0.8463628 -0.5312878 0.03746215 3092271 male
-2.646638 -0.03852466 -1.360874 0.9976972 -0.06144151 -0.02872705 1973534 male
-2.416461 0.5508818 -1.509877 0.7596115 -0.5393299 0.3634747 8092019 male
-2.611148 0.3243507 -1.279081 0.05291173 0.485606 0.8725752 11247517 male
-2.508268 0.6746294 -1.501885 0.5453227 0.5344889 -0.6457127 4275769 male
-2.49381 -0.1909441 -1.372652 0.806146 0.02855208 -0.5910277 2434861 male
-2.484358 0.5694936 -1.553178 -0.8395545 0.4679845 -0.2759331 7958384 male
-2.548826 0.7236754 -1.659692 0.5362639 -0.2519335 -0.8055748 13023149 male
-2.768743 0.6394719 -1.523523 -0.8751768 -0.424679 0.2317618 9143166 male
-2.545014 0.2003293 -1.439275 0.1520318 0.209908 -0.9658288 2829617 male
-2.502679 -0.01762307 -1.346299 0.9299726 -0.09505838 0.355127 1842724 male
-2.705856 -0.05173305 -1.427938 -0.1071024 -0.1003655 -0.9891694 4013896 male
-2.698144 0.6698599 -1.428712 -0.4478795 0.71756 0.5333964 9472383 male
-2.651834 0.6330327 -1.383456 0.07143122 0.4884964 0.8696373 9603976 male
-2.619437 0.4539964 -1.725637 -0.216616 0.5999694 -0.7701392 14337465 male
-2.609493 0.7501922 -1.527944 -0.8187764 0.0004877313 0.5741127 3288362 male
-2.640835 0.3207875 -1.274447 0.04696748 0.46626 0.8834003 8681844 male
-2.47631 0.8337896 -1.574443 0.985958 0.01541113 -0.1662819 5919050 male
-2.677747 -0.08489928 -1.398718 0.69434 -0.3190227 -0.6450711 2302499 male
-2.661852 0.6160008 -1.570251 0.9458624 0.29425 0.1369735 6709597 male
-2.778526 0.129427 -1.378822 -0.9868556 -0.03463059 -0.1578514 1842979 male
-2.687612 0.3022813 -1.267617 -0.2118534 0.3713739 0.903991 8617080 male
-2.736534 0.5171559 -1.446375 -0.9577277 -0.1004707 -0.269562 2500646 male
-2.600503 0.3591695 -1.300066 0.08207285 0.5480525 0.8324079 7826791 male
-2.657205 -0.1827759 -1.346208 0.9928724 0.006290837 -0.1190177 1974566 male
-2.480928 0.2152587 -1.388368 0.9644305 0.08498388 -0.2503033 2434597 male
-2.762593 0.3000872 -1.348679 -0.9629705 0.1651198 0.2131281 3223593 male
-2.488655 0.3925236 -1.545352 -0.4340801 -0.5339446 0.7255878 11574425 male
-2.511241 0.777957 -1.495802 0.5914261 -0.4455351 0.6720967 8090222 male
-2.51217 -0.002466791 -1.327044 0.7588871 -0.1250172 0.6391098 3157808 male
-2.484075 0.6812559 -1.469995 0.6429684 0.7627153 0.069693 9998990 male
-2.652133 0.6934832 -1.507072 -0.2295604 0.6354364 -0.73724 4867138 male
-2.69618 0.1703621 -1.268267 -0.07265688 -0.4697198 0.8798206 4342085 male
-2.48367 0.1937703 -1.338904 0.954048 0.05071912 0.2953306 2631465 male
-2.701999 -0.4205464 -1.420105 0.9946525 -0.1027795 0.01015878 1644825 male
-2.739619 -0.2298512 -1.383965 -0.689141 -0.1838516 -0.7009162 1776155 male
-2.734156 0.3855583 -1.401247 -0.9833495 -0.003018317 -0.1817001 2762789 male
-2.587723 0.1525864 -1.288239 -0.3769889 -0.3709098 0.8487082 5724511 male
-2.770262 -0.444783 -1.399433 -0.435957 -0.8508638 0.2932104 526344 male
-2.69318 0.6761873 -1.574445 0.5879061 0.453835 -0.6696271 8484721 male
-2.483243 -0.4599728 -1.411147 -0.08488409 -0.9955022 -0.04207034 526600 male
-2.679657 -0.2572581 -1.371273 0.7195842 -0.1459545 -0.6788934 2565415 male
-2.728141 -0.3847595 -1.320819 -0.8862698 0.1750583 0.4288133 3486519 male
-2.49139 0.4214053 -1.540401 -0.6608974 -0.1711452 0.7307011 14862273 male
-2.551409 0.3573318 -1.690824 0.5561379 0.5042859 -0.6606107 15980745 male
-2.423805 0.6300801 -1.529769 0.6814364 0.7202322 -0.1300392 8683644 male
-2.568636 0.8985387 -1.594458 -0.356362 0.8865233 -0.2950978 5525067 male
-2.688517 0.5445378 -1.539914 -0.403432 -0.2150755 -0.8893737 6840160 male
-2.744043 0.3184011 -1.316139 -0.8199148 0.2315827 0.5235546 6314840 male
-2.67713 -0.1090374 -1.325029 0.7475759 0.2477681 0.6162318 2369067 male
-2.489779 0.3214815 -1.359697 0.958475 0.2737895 0.07978234 4801601 male
-2.425714 0.5410321 -1.563215 0.827038 -0.1580879 -0.5394595 11509660 male
-2.558102 0.7022501 -1.488772 0.1931823 0.5222982 0.8305935 15320507 male
-2.495971 -0.2961856 -1.353702 0.9788326 -0.1493393 -0.1399457 1974564 male
-2.541765 0.3214528 -1.287181 0.3699877 0.4211729 0.8280838 7563619 male
-2.497127 0.3868865 -1.644369 0.5204008 0.3351797 -0.7853904 16374221 male
-2.416995 0.6130429 -1.5646 0.4395666 0.1036317 -0.8922119 7500136 male
-2.500056 -0.2686177 -1.371541 0.7591195 -0.1343569 -0.6369349 2499625 male
-2.631418 0.1176188 -1.377728 0.9545971 -0.1194445 -0.2729061 7631992 male
-2.497216 -0.1119481 -1.347108 0.9852764 0.1577616 0.06589425 2960437 male
-2.561857 -0.07308871 -1.403384 -0.5959954 -0.2864782 -0.7501466 2369322 male
-2.528561 0.8892615 -1.618919 0.3000885 0.7780482 -0.5518949 7168860 male
-2.516447 0.3308092 -1.309113 0.6564249 0.3785172 0.6525574 7301220 male
-2.638445 0.6941631 -1.438761 -4.914403E-05 0.8138718 0.5810446 6972002 male
-2.42749 0.5861776 -1.565447 0.2965991 0.1281623 -0.9463634 11309698 male
-2.670151 0.07873781 -1.423315 0.6086871 -0.06963685 -0.7903488 3157808 male
-2.537452 0.3720296 -1.799479 -0.5138109 0.4397327 -0.7366368 14599354 male
-2.748338 0.3409203 -1.36392 -0.8413569 0.5396409 -0.03010863 2698023 male
-2.662679 -0.006376299 -1.409305 0.7923794 -0.08781414 -0.6036752 3026996 male
-2.502696 -0.03955249 -1.37766 0.9566753 -0.1900741 -0.2205551 3289651 male
-2.748835 -0.1848801 -1.321693 -0.8524801 -0.05583784 0.5197692 2236706 male
-2.488268 0.8386951 -1.607373 0.8756366 0.1057748 -0.4712459 6314583 male
-2.498581 -0.1028209 -1.352219 0.9933014 0.1155497 -0.001027763 2697257 male
-2.645992 0.01731023 -1.349883 0.9805449 -0.07457243 0.1815792 2105377 male
-2.444988 0.6439108 -1.487039 0.7198874 0.6931313 -0.03648561 8616563 male
-2.661134 -0.1454045 -1.340999 0.9880173 0.145252 0.05219269 2105635 male
-2.751834 -0.3914466 -1.356502 -0.9542454 -0.105846 0.279665 2302757 male
-2.404258 0.6092491 -1.551781 0.7666719 0.003659535 -0.6420289 9998727 male
-2.574032 -0.2054303 -1.360137 -0.794311 -0.02856813 -0.6068395 1710876 male
-2.658155 0.4670481 -1.607704 0.5090615 -0.4217867 0.7503017 14599101 male
-2.612105 0.5501176 -1.542865 0.1378155 -0.1852535 -0.9729791 11839120 male
-2.681609 0.02610467 -1.426628 0.4281617 -0.1081258 -0.8972106 3553598 male
-2.726895 0.402703 -1.428133 -0.8982916 -0.1158856 -0.423843 3815480 male
-2.583143 0.8815715 -1.501679 -0.5079636 0.6458173 0.569994 3814706 male
-2.460871 0.6141149 -1.536555 -0.8826779 -0.0555088 -0.4666892 6447194 male
-2.613209 0.8566002 -1.531069 -0.9085952 0.3387668 0.2443194 4406329 male
-2.592974 0.8077683 -1.635874 -0.5098607 0.1624938 -0.844771 15718866 male
-2.544485 0.000415306 -1.307012 0.108656 -0.1194984 0.9868709 2895667 male
-2.49264 -0.1353874 -1.351305 0.9830769 0.1633366 -0.08295357 2565672 male
-2.517741 0.3721405 -1.442056 0.7668958 -0.300731 -0.5669496 4933442 male
-2.554278 0.5995849 -1.37248 -0.09645726 0.3936233 0.9141974 9077881 male
-2.481256 0.05392412 -1.376086 0.9853827 -0.1615047 0.05419821 2499369 male
-2.73313 0.1866208 -1.277206 -0.5843745 -0.2206923 0.780898 2500910 male
-2.528024 0.7981842 -1.476895 0.2645335 -0.2504343 0.9312921 9340029 male
-2.598148 0.7665113 -1.644457 -0.7240855 0.08538757 -0.6844044 15849930 male
-2.730818 0.1722247 -1.434775 -0.3353354 0.1654955 -0.9274491 3487806 male
-2.709284 0.2457552 -1.423626 -0.2458875 0.1540479 -0.9569791 7366248 male
-2.735317 -0.437465 -1.329482 0.215654 -0.8511649 0.4785517 986895 male
-2.700952 0.4839378 -1.615134 -0.6827212 -0.6575634 0.3185945 14599093 male
