# .PCD v0.7 - Point Cloud Data file format
VERSION 0.7
FIELDS x y z normal_x normal_y normal_z rgb label
SIZE 4 4 4 4 4 4 4 4
TYPE F F F F F F U U
COUNT 1 1 1 1 1 1 1 1
WIDTH 249
HEIGHT 1
VIEWPOINT 0 0 0 1 0 0 0
POINTS 249
DATA ascii
1.208201 0.1713229 -1.245013 -0.4350045 0.05390278 0.8988134 5328212 male
1.458121 0.2232693 -1.105544 -0.01524022 0.9141206 -0.405156 4672079 male
1.777109 0.260248 -1.295848 0.3152389 0.7793831 0.5414668 526600 male
1.465391 0.09238888 -1.088622 0.2334005 -0.806612 0.5430482 4212814 male
1.231454 0.1529562 -1.239668 -0.4169019 0.3291898 0.8472466 6643557 male
1.735909 0.3263637 -1.421506 0.8684652 0.4865841 0.09488907 526600 male
1.421614 -0.01633528 -1.363873 0.1273251 -0.8663969 -0.4828506 10067632 male
1.270286 0.4114931 -1.314808 0.7096156 0.5589637 0.4289584 15327880 male
1.27855 0.609646 -1.429638 0.7067827 0.117141 -0.6976648 15645108 male
1.600795 0.2182574 -1.315604 -0.2021591 0.5842831 0.7859675 3948100 male
1.731902 0.2191212 -0.9754843 0.5452231 0.6141548 0.5705661 526600 male
1.254002 0.7017914 -1.389117 0.5828732 0.7985743 -0.150126 1051664 male
1.246889 0.2327493 -1.4972 -0.2550052 -0.4944391 -0.8309647 7762814 male
1.320489 0.2269619 -1.28845 0.6741893 0.3328774 0.6592886 14341354 male
1.166121 0.1721439 -1.317963 -0.8857043 -0.3910044 0.2502868 8947602 male
1.489047 0.2082409 -1.01902 0.3081285 -0.9336363 -0.182702 526344 male
1.608992 0.1166027 -1.375509 0.5011096 -0.619257 -0.6044914 7107198 male
1.168135 0.3869479 -1.268794 0.4020488 -0.6224007 0.671546 526600 male
1.814647 0.2049282 -0.9656688 0.3090881 0.9363129 0.1666812 526600 male
1.207902 0.4230939 -1.25951 0.6516685 0.4887023 0.5800847 11382462 male
1.281609 0.4943454 -1.386151 0.9879407 -0.1275816 0.08772746 16768477 male
1.411672 0.1647063 -1.196941 0.03621049 0.8614787 -0.5065009 3751751 male
1.929868 0.2168912 -1.152584 -0.2750735 0.4602697 -0.8440889 526600 male
1.4037 0.2367651 -1.633133 -0.5466648 -0.3809198 0.7456927 1051664 male
1.791677 0.2427258 -1.351037 0.8760754 -0.1774689 -0.4483266 526600 male
1.19181 0.3479182 -1.51441 -0.7146783 -0.1407924 -0.6851367 12105160 male
1.167723 0.2491741 -1.410152 -0.7403936 -0.4515054 -0.4979559 12827085 male
1.187161 0.3371737 -1.262642 -0.08648324 0.06710583 0.9939907 526600 male
1.732859 0.2817216 -1.311474 -0.1538518 0.575111 0.8034779 526600 male
1.086448 0.3727888 -1.176241 -0.8618714 0.4475766 0.2384385 15118247 male
1.337075 -0.008756584 -1.290992 -0.08404952 -0.993341 -0.07879961 11382978 male
1.170296 0.4745465 -1.402184 -0.7716976 0.4717368 -0.4265527 8419721 male
1.556917 0.2886545 -0.926037 0.501643 0.0821223 0.8611679 526600 male
1.103924 0.4086503 -1.203407 -0.4968088 0.7095295 0.4997489 12953770 male
1.289303 0.555512 -1.341922 0.5651375 -0.122099 0.8159114 12624022 male
1.282409 0.4324872 -1.579947 -0.1685905 0.4512472 -0.8763294 6512747 male
1.343159 0.1252327 -1.125851 -0.7608384 0.2786733 0.5860599 1117449 male
1.119959 0.3547096 -1.250658 0.06999169 -0.8571692 -0.5102568 4340802 male
1.660354 0.2058064 -1.40898 0.1296608 -0.848296 -0.5134023 526344 male
1.184565 0.3652965 -1.508329 -0.7588537 0.02139534 -0.6509095 13748953 male
1.163995 0.3806324 -1.45981 -0.9587523 0.07394282 -0.2744567 14934258 male
1.435667 0.2507732 -1.673115 0.8406993 0.2287453 -0.4908159 13217968 male
1.234952 0.6798707 -1.441207 0.479782 0.5067123 -0.7162764 6184030 male
1.355668 0.02123999 -1.40855 -0.01662868 -0.6356409 -0.7718058 6120307 male
1.172506 0.6428289 -1.325117 -0.3471597 -0.01636578 0.9376633 14207184 male
1.569758 0.2003269 -1.382104 -0.1045468 0.7806122 -0.6162099 7040892 male
1.348649 0.3817017 -1.563263 0.8296446 0.540408 0.1401751 16709107 male
1.27113 0.3696817 -1.533451 0.2762243 -0.843516 -0.460631 526600 male
1.337679 0.02155991 -1.406635 -0.1977675 -0.6786391 -0.7073451 10924227 male
1.331754 0.2977362 -1.473177 0.8422807 0.0005444691 -0.5390387 3750721 male
1.296149 0.0001984709 -1.29036 -0.3908396 -0.9054558 -0.1655122 8752798 male
1.817105 0.2220585 -1.269799 -0.1460056 0.8268778 0.5430981 526600 male
1.328413 0.04960973 -1.150558 -0.516229 -0.3474602 0.782802 3420989 male
1.37083 0.1531961 -1.400617 0.4325417 0.8121466 -0.3915681 7761270 male
1.115546 0.3045163 -1.160453 0.5935011 -0.7435623 -0.3080122 1051664 male
1.150964 0.5687177 -1.373358 -0.6154258 -0.6472938 0.4497354 11971502 male
1.484885 0.1719267 -1.032413 0.1612449 -0.9193577 0.3588613 526352 male
1.867371 0.2097529 -1.024832 -0.2937927 0.8676648 0.4010533 526600 male
1.217066 0.4202517 -1.526096 -0.6201351 0.3546048 -0.6997771 11710403 male
1.502304 0.005779954 -1.361334 0.5984671 -0.657278 -0.4580643 3553607 male
1.336591 0.05533391 -1.139294 -0.499424 -0.3531832 0.7910987 3223609 male
1.870807 0.1453863 -1.251747 -0.7522668 0.5203362 0.4041595 526600 male
1.739253 0.295397 -1.435616 0.7059034 -0.1100264 -0.6997103 526600 male
1.417169 -0.001066884 -1.384266 0.06102827 -0.6984805 -0.7130221 8158860 male
1.426088 0.01048818 -1.210078 0.7660207 -0.6272395 0.1406519 4738131 male
1.916668 0.1268255 -1.238365 0.02888104 -0.4104134 0.9114421 526600 male
1.335414 0.4441191 -1.528548 0.8956394 0.4425403 0.04458699 14406883 male
1.768164 0.2010355 -0.9914713 -0.3420136 0.7970393 -0.4977499 526600 male
1.820328 0.2105985 -1.305785 0.7973753 -0.3613394 -0.4833491 526600 male
1.877971 0.1545539 -1.277378 0.3277714 -0.7103819 -0.622835 526600 male
1.117301 0.3031135 -1.154174 0.6655546 -0.6864324 -0.2929975 13951210 male
1.206089 0.3119536 -1.018041 0.2357022 -0.3516908 0.905957 16572641 male
1.152019 0.4670753 -1.277495 -0.05190411 0.9884156 0.1426202 12499142 male
1.237381 0.7106054 -1.384586 0.3834097 0.9225221 -0.04415724 526600 male
1.270809 0.4600783 -1.377795 0.9083381 0.1194167 0.4008261 9604765 male
1.375218 0.03445001 -1.415785 0.1378448 -0.5170125 -0.8448058 7041403 male
1.664797 0.2735806 -1.39947 -0.8164582 -0.4641893 0.3434012 526600 male
1.265381 0.1033974 -1.194964 -0.60236 0.05536397 0.7963022 5658206 male
1.102418 0.3513364 -1.129337 0.1827495 0.8619893 0.4728393 16764874 male
1.211815 0.7072788 -1.349887 0.02877378 0.8365693 0.547105 2960173 male
1.623479 0.2612948 -0.9740205 0.7116963 0.4084353 0.5715496 526600 male
1.153927 0.20793 -1.331783 -0.8711079 -0.4725663 0.1336113 8685204 male
1.055426 0.2654094 -1.031899 -0.359556 0.482696 0.7985763 15056827 male
1.132698 0.455673 -1.231749 -0.07211719 0.7108099 0.6996773 9209751 male
1.621022 0.2571268 -0.9702781 0.6820754 0.2065996 0.7014911 526600 male
1.642001 0.2690281 -1.340175 -0.107018 0.6424469 0.7588209 4342082 male
1.473539 0.2633494 -0.9414745 -0.4654928 -0.7297394 0.5007963 526600 male
1.502225 0.3092522 -0.966427 0.4978684 0.8609764 0.104148 657418 male
1.261489 0.692279 -1.367685 0.6900219 0.6938467 0.2060254 14401736 male
1.279712 0.01578676 -1.23564 -0.5749275 -0.6847849 0.4478036 6975099 male
1.181269 0.4590425 -1.44446 -0.8352504 0.4513266 -0.3141036 13618399 male
1.097918 0.4297672 -1.24474 -0.8230895 0.5086318 0.2526212 7302264 male
1.699178 0.3313318 -1.383989 0.1649567 0.7001122 0.6947173 526600 male
1.506763 0.2770127 -1.529508 -0.7706356 0.5660256 -0.2928068 16438235 male
1.343459 0.1199585 -1.447628 0.02521008 0.1839053 -0.9826207 4210505 male
1.805509 0.2334342 -1.277366 0.05514528 0.8351083 0.5473144 526600 male
1.406999 0.03039462 -1.14216 0.1601591 -0.7459295 0.6464815 10857909 male
1.718161 0.2680083 -1.441503 0.2562283 -0.5440632 -0.7989633 526600 male
1.20531 0.6562564 -1.31872 -0.06134993 0.1769619 0.9823037 11051944 male
1.471095 0.236345 -0.9617063 -0.4248338 -0.5969566 0.6805579 1776672 male
1.513314 0.08251771 -1.261435 0.1325549 0.003579433 0.9911693 3815999 male
1.15064 0.4710235 -1.326782 -0.2504784 0.9357289 0.2483385 6117988 male
1.780301 0.2705224 -1.380683 0.9213157 0.06113735 -0.3839789 526600 male
1.92267 0.150828 -1.273213 0.2495484 -0.4659104 -0.848913 526600 male
1.110359 0.4535487 -1.270123 -0.699253 0.714818 0.008970708 6973037 male
1.551234 0.2995462 -0.9273577 0.5711388 0.3321768 0.7506391 526600 male
1.380584 0.2486791 -1.65643 -0.7871393 0.2669386 0.5560175 15120832 male
1.352092 0.2982619 -1.426794 0.960488 0.1157819 -0.2530955 10722475 male
1.830185 0.2303564 -1.28756 0.516053 0.851521 0.09274469 526600 male
1.192445 0.19493 -1.406657 -0.8783643 -0.4106212 -0.2446757 10920628 male
1.160729 0.6576598 -1.463641 -0.313011 0.196945 -0.9291054 5591125 male
1.17077 0.409945 -1.239755 0.9262199 -0.03248307 0.3755815 5723746 male
1.183867 0.6841866 -1.456185 -0.01921225 0.5733739 -0.8190686 4276805 male
1.2886 0.6097761 -1.41213 0.9131246 0.2647799 -0.3099921 15711669 male
1.467955 0.1403739 -1.045211 -0.08958286 -0.6816689 0.7261559 7435131 male
1.518181 0.2524781 -0.9400661 -0.207824 -0.7758722 0.5956774 526600 male
1.191524 0.2115497 -1.26104 -0.574428 -0.1801157 0.7984928 6447467 male
1.253617 0.02631044 -1.283377 -0.6702263 -0.7353404 -0.1003554 11975371 male
1.420967 0.02582949 -1.158425 0.3909015 -0.7770614 0.4933271 3026230 male
1.481857 0.003088441 -1.372334 0.5048988 -0.6568088 -0.5600708 7698822 male
1.116983 0.661653 -1.383564 -0.9519393 0.2237634 0.2091446 526344 male
1.30599 0.5735239 -1.377225 0.9401599 -0.2772888 -0.1980157 11303034 male
1.467698 0.1568662 -1.350402 -0.503619 0.8612536 -0.06789926 11121098 male
1.401987 0.1490444 -1.301364 0.4971464 0.6963298 -0.5176585 9277598 male
1.952589 0.1614813 -1.194473 0.2082932 -0.4031497 0.8911141 526600 male
1.371402 0.2165853 -1.734979 0.5280303 -0.05599266 -0.8473776 13740197 male
-2.465948 0.2119654 -1.351166 0.9972975 -0.0260088 0.06871504 4077621 male
-2.511235 -0.02549395 -1.391395 -0.2506751 0.4063081 -0.8786785 2960431 male
-2.666282 -0.1029548 -1.498204 0.5811917 0.1151089 -0.8055845 3223609 male
-2.507224 -0.03224843 -1.218786 0.2143825 -0.6551807 0.724416 3948356 male
-2.472034 0.2049739 -1.319041 0.9856436 -0.1097803 0.1282789 3814706 male
-2.745394 -0.1712143 -1.552148 -0.8705031 -0.1323849 -0.4740243 4803665 male
-2.712567 0.1879218 -1.272712 -0.8453702 0.4611334 0.2696397 5920082 male
-2.543967 0.1241355 -1.463165 0.3469698 -0.87442 -0.339119 16640953 male
-2.56619 0.1188356 -1.809646 -0.3951728 -0.9126483 0.1044581 9274244 male
-2.649065 -0.001486878 -1.379994 0.5090351 0.4568544 -0.7294982 3554116 male
-2.515602 -0.3547526 -1.423547 -0.979606 0.123923 -0.1581627 1841948 male
-2.570592 0.1426897 -1.860977 -0.6466676 -0.5459358 -0.5327057 5326917 male
-2.67145 0.2510282 -1.314962 -0.6057042 0.5197131 0.6025121 8616822 male
-2.514754 0.1322963 -1.389196 0.6437578 -0.7621874 -0.06816489 6116948 male
-2.545427 0.2686432 -1.293932 0.04635496 0.7160266 0.6965324 8616306 male
-2.487414 -0.1254345 -1.403577 -0.3542198 -0.2310027 0.9061824 2500394 male
-2.705245 -0.1149449 -1.352952 -0.4519996 -0.5435947 0.7072492 3289395 male
-2.428873 0.2734781 -1.603693 0.05839251 -0.9942314 -0.08996747 8683132 male
-2.553147 -0.4504622 -1.444375 -0.9636966 0.07560004 -0.2560737 1777184 male
-2.437873 0.2206382 -1.564201 0.8404685 -0.5349561 -0.08622563 6183505 male
-2.51939 0.151614 -1.695618 0.6931187 -0.3640138 0.622158 12035479 male
-2.460608 0.02293601 -1.347014 0.6889469 0.4269965 -0.5856847 3487805 male
-2.69986 -0.4265557 -1.47407 -0.09258052 0.9682739 -0.2321089 2763050 male
-2.685505 -0.167028 -1.603774 -0.451719 -0.09067066 0.8875409 8747128 male
-2.709084 -0.234622 -1.543343 0.1944642 -0.4835271 -0.853455 2895156 male
-2.649705 0.2690029 -1.608951 -0.3516573 0.866748 -0.3536735 12234925 male
-2.592149 0.3231005 -1.548362 -0.6252474 0.7773046 -0.06973758 9471874 male
-2.501952 0.3423333 -1.51741 0.1614934 0.9012611 0.4020551 8156787 male
-2.666677 -0.1440572 -1.544546 0.7762107 -0.4106227 -0.4784207 2697257 male
-2.442255 0.1182212 -1.393366 0.658071 -0.5271274 -0.5376612 16767438 male
-2.518353 0.08794539 -1.165261 0.4042605 0.004480089 0.9146332 5395802 male
-2.602247 0.1101057 -1.580133 0.4232006 -0.8190848 -0.3873001 6445653 male
-2.423806 -0.2127141 -1.489675 0.8529571 -0.1900423 -0.4861567 2500910 male
-2.378678 0.2670888 -1.535119 0.4316845 -0.7312271 -0.5281625 15519680 male
-2.515418 0.1282599 -1.70209 0.4444297 -0.1327148 0.8859285 11444885 male
-2.70703 0.1235916 -1.656854 -0.5895613 0.1968162 -0.7833781 9998472 male
-2.43814 0.02481305 -1.288586 0.9926082 0.1000901 -0.06863815 2697259 male
-2.422135 0.3264921 -1.515992 -0.468016 0.5689331 0.676222 6313302 male
-2.733838 -0.1215668 -1.472304 -0.7795125 0.1643743 0.604435 2959665 male
-2.663038 0.2675647 -1.597715 -0.3894912 0.8640351 -0.318967 4340793 male
-2.624823 0.2944416 -1.466197 -0.3220001 0.9129523 0.2506672 8025202 male
-2.659114 -0.07393121 -1.600945 0.2267464 0.04225 0.9730372 10061955 male
-2.582553 0.1754946 -1.871487 -0.7396594 -0.2311775 -0.6320295 3551278 male
-2.676519 0.1252275 -1.184749 -0.4695361 0.2889889 0.8342791 11116701 male
-2.459691 0.2032572 -1.825983 0.9983855 0.04992191 -0.0270983 4472636 male
-2.690784 -0.08322063 -1.466794 -0.2291899 0.4788943 -0.847427 3618110 male
-2.664871 0.05844918 -1.675747 0.01248223 -0.3739994 -0.9273452 5327945 male
-2.738682 -0.0002149442 -1.328031 -0.9456827 0.2384112 -0.2210084 2368293 male
-2.633796 0.1655496 -1.195084 -0.1193 0.5457315 0.8294244 9012089 male
-2.698292 0.1497491 -1.485688 -0.7027462 -0.708295 0.06682807 2632488 male
-2.576834 0.1990516 -1.209396 -0.1479122 0.7030708 0.695567 10788246 male
-2.655668 -0.07268206 -1.444015 0.5362731 0.3314203 -0.7762551 3816514 male
-2.448358 0.09488399 -1.230539 0.9779493 0.1318089 0.1619941 2303014 male
-2.616571 0.1278631 -1.366632 -0.2758017 -0.7822012 -0.5586544 6774104 male
-2.372946 0.293354 -1.454448 -0.7188789 -0.6904155 0.08086842 16771814 male
-2.504011 0.2530349 -1.755567 0.553753 0.5892103 0.5883784 7432551 male
-2.481256 -0.1215063 -1.37749 0.08189464 -0.4211879 0.9032687 3092015 male
-2.517151 0.1921626 -1.650966 0.9330535 -0.317237 0.1696233 4866361 male
-2.690758 0.2062613 -1.651458 -0.6173398 0.2887504 -0.731789 4934211 male
-2.641798 -0.01517266 -1.187931 0.3491073 -0.7771762 0.523566 4933966 male
-2.452126 0.06525211 -1.216399 0.9496977 0.03975761 0.3106346 2631465 male
-2.684141 -0.3764556 -1.379987 0.9969999 -0.05182124 0.05749881 2105378 male
-2.741287 -0.1479664 -1.498563 -0.7489165 0.4079025 0.5222452 2169889 male
-2.698275 0.2133931 -1.308976 -0.8449208 0.5320616 0.05495137 5590602 male
-2.558394 -0.01434097 -1.195229 -0.4433286 -0.7057599 0.5525964 2105893 male
-2.717498 -0.411616 -1.335572 -0.1670532 -0.9495038 0.2655855 1184274 male
-2.636336 0.08917595 -1.611287 0.5268443 -0.8316544 0.1754594 7894131 male
-2.512777 -0.4731591 -1.43073 0.0540536 -0.9769623 -0.2064533 526600 male
-2.710765 -0.2946751 -1.499905 -0.1153465 -0.5105119 -0.8520993 2169889 male
-2.720498 -0.3714216 -1.359649 -0.7581764 0.249243 0.6025336 3028022 male
-2.424406 0.2801614 -1.521155 -0.8712827 -0.328178 0.3649192 14666955 male
-2.34402 0.2255314 -1.352375 -0.4035012 -0.1080677 0.9085749 8154987 male
-2.438675 0.2283716 -1.597405 0.5004445 -0.7978882 -0.3360505 7367528 male
-2.540717 0.1829327 -1.896155 -0.1708968 -0.1436063 -0.9747676 4932930 male
-2.564789 0.1477396 -1.611812 0.4865441 -0.774969 -0.4033583 7433065 male
-2.507291 0.201802 -1.629193 0.6185614 -0.4241252 -0.6614378 5854027 male
-2.7531 -0.2169554 -1.494765 -0.9804033 -0.06947003 0.1843464 1907998 male
-2.46713 0.1906781 -1.256423 0.8846158 0.3944912 0.2486599 5195589 male
-2.404691 0.3422857 -1.56255 0.5085816 0.8531323 0.1162333 8748668 male
-2.498531 0.1693358 -1.886468 0.4944658 -0.2265141 -0.8391633 6708568 male
-2.450111 -0.2393771 -1.499551 0.2038061 -0.2968023 -0.9329371 2697265 male
-2.556051 0.2741579 -1.302603 -0.04173222 0.7372163 0.6743668 11181211 male
-2.31199 0.3364654 -1.390309 0.5911741 0.416625 0.6906062 15258317 male
-2.426515 0.3566309 -1.595004 0.2765687 0.9501022 0.1442765 8484464 male
-2.440951 -0.259338 -1.486527 0.6013308 -0.3624275 -0.712073 2303275 male
-2.631856 -0.02372191 -1.373495 0.8208991 0.222662 -0.5258769 2500649 male
-2.445125 -0.1077547 -1.394441 0.9913425 -0.03942506 0.1252438 2631728 male
-2.482959 -0.122108 -1.497187 -0.3486025 -0.1295565 -0.9282734 3750977 male
-2.572256 0.1374888 -1.852932 -0.6660118 -0.5916207 -0.4543274 5457733 male
-2.510406 0.1347589 -1.179334 0.5533322 0.284323 0.7829331 7695973 male
-2.613796 0.2544748 -1.658363 -0.2226876 0.7460244 -0.6275811 10921118 male
-2.413839 0.2741522 -1.589015 0.3312956 -0.8850787 -0.3269236 8947069 male
-2.627407 -0.08168037 -1.385277 0.9792265 -0.07334581 -0.18904 2500648 male
-2.654196 -0.4063562 -1.632934 0.3523001 0.2961973 -0.8877793 15713470 male
-2.711943 0.1949529 -1.30775 -0.8389133 0.5301416 -0.1231852 4472636 male
-2.653653 -0.0868586 -1.458951 0.6958724 0.2005409 -0.689598 3027254 male
-2.452212 -0.03374734 -1.271529 0.8690854 -0.3442171 0.3552541 2697257 male
-2.71013 -0.131943 -1.491522 -0.04404646 0.5794734 0.8138002 2894640 male
-2.476026 0.1563776 -1.858906 0.8250508 -0.3166254 -0.4680169 5195328 male
-2.462261 -0.1131377 -1.364969 0.7082279 -0.3542093 0.6106958 3224121 male
-2.636597 -0.08404097 -1.290682 0.5999239 -0.6935323 0.3988791 2697258 male
-2.453722 0.3358802 -1.606591 0.2135604 0.9236727 -0.318152 11052447 male
-2.722828 -0.166717 -1.472972 -0.3447945 0.4249668 0.8369709 2303531 male
-2.711188 -0.3701345 -1.427755 -0.3607276 0.5679127 -0.7398317 2368292 male
-2.415391 0.3512608 -1.594297 0.4810277 0.8737655 0.07173787 9142653 male
-2.470341 -0.2047518 -1.501186 -0.4463437 -0.1608463 -0.8802875 2696747 male
-2.669038 -0.1002434 -1.596662 -0.01684967 0.02484415 0.9995494 5721159 male
-2.610649 0.1054937 -1.457372 -0.0397184 -0.9842049 -0.1725196 7761512 male
-2.679389 -0.3316596 -1.432069 0.9788558 -0.04943411 -0.1984894 2105635 male
-2.649431 0.2424006 -1.290673 -0.3778428 0.7182563 0.5842455 10129805 male
-2.586032 0.2614518 -1.799914 -0.7660394 0.626448 0.1440377 4208440 male
-2.400071 0.3111778 -1.633596 0.893463 0.1848237 -0.4093466 8684415 male
-2.5967 0.2451997 -1.821228 -0.9030688 0.4289399 -0.02185345 4801601 male
-2.54297 0.1114956 -1.79663 -0.67493 -0.5223449 -0.521177 13282728 male
-2.461931 -0.09912957 -1.332763 0.8030196 -0.3910636 0.4496988 2829357 male
-2.435774 -0.161252 -1.428489 0.6089692 0.3185706 0.7264087 2565671 male
-2.482707 0.2802951 -1.405337 0.6487304 0.6539952 0.3891519 3224625 male
-2.595442 0.2960757 -1.422592 -0.5014776 0.8308771 0.2411711 9406339 male
-2.477324 -0.01218994 -1.211165 0.6162965 -0.498452 0.6096921 2039592 male
-2.669792 -0.01766206 -1.192622 -0.1536108 -0.7820553 0.6039813 4737872 male
-2.491064 0.2641136 -1.853998 0.6011556 0.7081468 -0.3703245 7037274 male
-2.587937 0.1340654 -1.752614 -0.8813158 -0.4490729 0.1470249 15389897 male
-2.613749 0.02688875 -1.314565 0.7736229 0.3122542 -0.5513667 3158840 male
