# .PCD v0.7 - Point Cloud Data file format
VERSION 0.7
FIELDS x y z normal_x normal_y normal_z rgb label
SIZE 4 4 4 4 4 4 4 4
TYPE F F F F F F U U
COUNT 1 1 1 1 1 1 1 1
WIDTH 246
HEIGHT 1
VIEWPOINT 0 0 0 1 0 0 0
POINTS 246
DATA ascii
1.371239 1.016548 -0.7094659 -0.4560211 -0.3327084 0.8254392 10721438 male
1.41331 0.7325175 -0.7818425 0.9583625 -0.04355527 -0.2822134 2698289 male
1.51317 0.7360332 -0.8233455 -0.02871257 0.03776012 0.9988742 4145480 male
1.307105 0.7284972 -0.7473665 -0.8794334 -0.2115247 0.4264436 5001305 male
1.37351 1.001873 -0.7164408 -0.3890154 -0.460696 0.7977632 5789790 male
1.637179 0.5513642 -0.8677994 0.969734 -0.1058689 -0.2200177 526600 male
1.589771 1.166435 -0.5616723 0.2510834 -0.145363 0.9569883 10196129 male
1.527638 1.039868 -0.6435584 0.3365096 -0.8977147 0.2843757 12036028 male
1.768318 1.142133 -0.4781949 0.8540536 -0.4173643 -0.3104827 15054767 male
1.523438 0.8237337 -0.8536735 0.6349952 0.3199256 0.7031561 9475747 male
1.328666 0.4405425 -0.6981324 -0.7706051 -0.142024 0.6212865 526600 male
1.810693 1.216965 -0.5121248 0.8343592 -0.1442477 -0.5320126 12694969 male
1.482024 1.100472 -0.882824 0.2123167 0.5321127 -0.8196205 7039347 male
1.462734 0.9824116 -0.7127645 0.121819 -0.7822201 0.6109762 14341354 male
1.358102 1.090027 -0.8058219 -0.7173777 0.5370826 -0.443747 9406615 male
1.386547 0.6325926 -0.7675774 -0.14243 -0.2421915 -0.959717 526344 male
1.480891 0.7782854 -0.9691439 0.1862591 -0.2065012 -0.9605544 7699850 male
1.508778 1.19634 -0.5539547 0.4451275 -0.5836705 -0.6791099 986895 male
1.435894 0.2522544 -0.7012206 -0.2914467 -0.9536957 0.07431905 526600 male
1.499158 1.13206 -0.550382 -0.3929059 -0.7116109 0.5824386 4802385 male
1.650481 1.127506 -0.5688407 -0.2377118 -0.9098552 0.3400832 16508645 male
1.354036 0.8302495 -0.7150456 0.01214814 0.2250437 0.974273 6577501 male
1.624291 0.3058952 -0.8505836 -0.4631357 0.01429054 0.8861721 526600 male
1.650154 0.8473105 -0.8023455 -0.9218767 -0.003536631 -0.3874671 8090995 male
1.594585 0.4017633 -0.894262 0.9672914 -0.03867592 0.2507021 526600 male
1.619659 1.221736 -0.7418324 0.02124232 0.9430303 -0.3320282 14408425 male
1.50619 1.214335 -0.7217005 -0.1362696 0.8144401 -0.5640194 15918842 male
1.429724 1.155072 -0.6204419 -0.8170977 -0.03455211 0.5754629 5920348 male
1.537189 0.6592088 -0.8079223 -0.3099613 -0.2727911 0.9107739 724747 male
1.427742 1.209646 -0.5344461 -0.7841984 0.3895763 0.4829732 15843003 male
1.310379 0.9735213 -0.899949 -0.6188257 0.3649922 -0.6955829 7569036 male
1.650763 1.090535 -0.6457489 0.4528043 -0.6159152 0.6446834 11380922 male
1.367369 0.5523123 -0.6575912 -0.217309 -0.01311842 0.9760147 526600 male
1.495943 1.17818 -0.5477411 0.6446123 -0.7616054 -0.06657487 11052978 male
1.691536 1.148113 -0.4625041 -0.542263 -0.5331609 0.6493767 14462891 male
1.756843 1.109961 -0.7442258 0.8501575 0.1139169 -0.5140576 6775661 male
1.283353 0.8264443 -0.7557108 -0.8347886 -0.03459622 0.5494826 3355964 male
1.323084 0.6892463 -0.7344152 -0.884226 -0.1189905 0.4516476 5197391 male
1.59783 0.6734387 -0.8252637 0.8852463 0.1862177 0.4262182 6909817 male
1.614914 1.215124 -0.757602 -0.0006937832 0.8878478 -0.4601367 12630481 male
1.495892 1.176558 -0.7774924 -0.4675536 0.7822692 -0.4116412 11183287 male
1.66246 0.9676715 -0.7671229 -0.9450532 0.2687448 -0.1861467 723722 male
1.825103 1.23366 -0.4605815 0.9850438 0.08866988 0.1477379 6644064 male
1.339622 0.9334092 -0.9438351 -0.7825976 0.04467805 -0.6209227 6844801 male
1.704774 1.243125 -0.419387 -0.63221 0.04947568 0.7732158 9735055 male
1.603582 0.6573324 -0.8076329 0.6614347 -0.1362003 0.737532 8553874 male
1.709627 1.049152 -0.6958311 0.09761515 -0.3172066 0.9433192 8681601 male
1.528979 0.8244484 -0.9370824 0.8363917 0.2064146 -0.5077814 7369857 male
1.347903 0.9682568 -0.9386713 -0.7005114 0.3260844 -0.6347855 9539481 male
1.625165 1.057297 -0.7638334 0.6932575 -0.6248912 -0.3590335 6644588 male
1.270123 0.9319901 -0.8654091 -0.9457433 0.1360767 -0.2950472 2698289 male
1.54619 0.5104535 -0.8440195 -0.6900707 -0.3245643 0.6468852 526344 male
1.285424 0.9443074 -0.771605 -0.8575478 0.1423826 0.4943066 3487814 male
1.485443 0.9657287 -0.7779706 0.5243826 -0.7726874 0.3577388 11513029 male
1.306608 1.145881 -0.6289304 0.2627203 0.2285484 -0.9374133 9271941 male
1.664512 1.25321 -0.5005597 -0.9745498 0.2209319 0.03797165 11971502 male
1.398862 0.6183086 -0.7565882 0.1405704 -0.2150632 -0.9664304 526600 male
1.595977 1.177639 -0.5607047 -0.03965229 -0.1438858 0.9887996 9932443 male
1.706746 1.181032 -0.6482498 0.887579 -0.09590846 0.4505608 5525592 male
1.364855 0.8814408 -0.9773934 -0.5550202 -0.337268 -0.7603965 9016233 male
1.301396 0.9322755 -0.748821 -0.5806454 0.1440944 0.8013037 4210760 male
1.548339 0.3486083 -0.9157075 -0.7542182 -0.09573636 0.6496071 526600 male
1.623213 0.5425697 -0.8931772 0.7710369 -0.02640079 -0.636243 526600 male
1.511631 1.035869 -0.8873135 0.7394586 -0.05678741 -0.6708026 4472645 male
1.32614 0.8132499 -0.8875915 -0.09081164 -0.4494025 -0.8887017 7500927 male
1.566112 0.3324825 -0.9734517 0.2345218 -0.3720008 -0.8981174 526600 male
1.730406 1.079112 -0.6801863 0.08151731 -0.7281973 0.6805025 11841724 male
1.374865 0.2553142 -0.6949685 -0.07381004 -0.9900545 0.1197667 526600 male
1.593343 0.4593821 -0.8629187 0.4198853 -0.4034818 0.8129568 526600 male
1.569646 0.3408706 -0.9694068 0.3980623 0.3601029 -0.8437252 526600 male
1.328762 1.14564 -0.6156002 0.7441384 0.03327265 -0.6671963 12820647 male
1.340111 1.011794 -0.6246936 0.2547309 -0.2068992 0.9446189 16638175 male
1.501932 1.1488 -0.5430874 -0.342163 -0.8717791 0.3506075 13487830 male
1.804211 1.274162 -0.4397814 0.7747794 0.439383 0.454598 526600 male
1.576014 1.026183 -0.6935916 0.1343271 -0.8858472 0.4441068 15127762 male
1.531398 1.022595 -0.8571519 0.8655095 -0.3188299 -0.3863167 7366262 male
1.579188 0.5386252 -0.9136974 -0.04462945 0.138685 -0.9893304 526600 male
1.306167 0.9812731 -0.7450491 -0.686017 0.1946466 0.7010658 4078402 male
1.409082 1.141286 -0.5395737 0.007916331 -0.349781 0.936798 16234670 male
1.790834 1.21025 -0.4117823 0.4667008 -0.1206794 0.8761431 789516 male
1.385112 0.4718564 -0.6825447 0.7289062 -0.3239524 0.6031173 526600 male
1.383217 1.12605 -0.7778007 -0.7469759 0.5950003 -0.2966503 10657199 male
1.261764 1.073803 -0.6067606 -0.7214017 -0.5495372 0.4214123 14789546 male
1.488849 1.228799 -0.5015076 -0.1921012 0.6352924 0.7479977 7103342 male
1.386929 0.4899909 -0.6753746 0.6643111 -0.2947194 0.6868998 526600 male
1.501443 0.82207 -0.8423611 0.3437582 0.2537811 0.9041158 9870512 male
1.328388 0.5736342 -0.7204408 -0.9103339 0.3584868 -0.2068317 526600 male
1.431583 0.6484389 -0.7155978 0.9728065 -0.2310812 0.01578203 3093302 male
1.817455 1.189577 -0.4645647 0.9319345 -0.3622291 0.01697385 15313834 male
1.318065 1.047999 -0.819739 -0.5802199 0.7854415 -0.2154685 10196646 male
1.658753 1.220062 -0.6213616 0.2043592 0.9785496 -0.02603821 11447991 male
1.444337 1.227093 -0.5230724 -0.7774428 0.4208092 0.4674424 6249832 male
1.46831 0.7206736 -0.8435777 -0.5721105 -0.2070947 0.7936002 4211269 male
1.652076 0.7039704 -0.7855935 0.7351962 0.09071058 0.6717575 16443122 male
1.504641 1.002386 -0.9264615 0.7385111 0.3479416 -0.5775275 6511971 male
1.550157 0.4859322 -0.8531303 -0.6281982 -0.3278197 0.7056212 526600 male
1.35831 0.6709279 -0.6995559 -0.4252049 -0.07793643 0.9017354 3290426 male
1.554919 0.5999492 -0.8835085 -0.7019892 0.4303557 -0.5674549 526600 male
1.76207 1.201118 -0.4050576 0.0222483 -0.20636 0.9782231 1051656 male
1.329968 0.5795783 -0.7146901 -0.922055 0.3782473 -0.08212 526600 male
1.457838 0.7163504 -0.8547277 -0.6928879 -0.2963549 0.657328 3092271 male
1.536358 1.21082 -0.5250031 0.4265723 0.4658677 0.7752441 7169905 male
1.543968 0.5944899 -0.8365787 -0.9159225 0.1910032 0.3529925 526600 male
1.589585 0.3708926 -0.887902 0.4158152 0.287994 0.8626455 526600 male
1.491686 1.236192 -0.5170479 -0.1649907 0.8030078 0.5726748 8816014 male
1.404332 0.5002709 -0.7238266 0.9745976 -0.2210135 -0.03622833 526600 male
1.657272 0.9439294 -0.784463 -0.872917 0.2482827 -0.419966 12825006 male
1.594558 1.03256 -0.7813103 0.7456058 -0.6134732 -0.2602356 9209236 male
1.542209 0.7505929 -0.839351 0.6349139 0.1306817 0.7614503 8687002 male
1.404604 1.084899 -0.8586314 -0.526439 0.6593156 -0.5368099 11906749 male
1.72902 1.310081 -0.5180807 -0.1379229 0.886288 -0.4421209 16709374 male
1.50433 1.177574 -0.5424826 -0.204978 -0.940271 -0.2717988 658442 male
1.746661 1.276084 -0.5509943 0.2327139 0.4660688 -0.8535948 9406607 male
1.765559 1.134251 -0.4756067 0.6327036 0.1193178 -0.7651467 14068132 male
1.305087 0.7123537 -0.7881488 -0.9352022 -0.2972713 -0.192423 5462370 male
1.330945 0.5379202 -0.682358 -0.7812837 0.04751415 0.6223649 526600 male
1.396129 1.137928 -0.6778542 -0.9079297 0.3522456 0.2271272 5723738 male
1.443794 1.150558 -0.7828386 -0.2278222 0.732469 -0.6415498 10130594 male
1.316616 0.7665534 -0.7203668 -0.6593001 -0.06731546 0.7488605 3949901 male
1.371297 0.847093 -0.9720459 -0.5274377 -0.638292 -0.5607074 9739948 male
1.725679 1.302286 -0.4338612 -0.3293698 0.7221332 0.6083084 526344 male
1.75738 1.181326 -0.561151 0.5878199 -0.1307188 -0.798361 14072244 male
-2.465914 0.3930536 -1.409139 0.851876 -0.2780048 -0.4438704 4933187 male
-2.557614 -0.121601 -1.348601 -0.9716841 -0.1840824 0.1481349 2039328 male
-2.659683 -0.04707543 -1.436513 0.8162987 -0.3314624 -0.4730639 2631979 male
-2.461109 0.09162904 -1.340646 0.8531304 -0.1509244 0.4993902 2368036 male
-2.459338 0.4050379 -1.406534 0.8683744 -0.2990474 -0.3955966 4867906 male
-2.725167 -0.1404805 -1.334807 -0.09840797 0.2255404 0.9692512 3026739 male
-2.481274 0.5530046 -1.476758 0.2121263 -0.003303822 -0.9772368 9537149 male
-2.442563 0.6715667 -1.415596 0.1580255 0.5992307 -0.7848253 4867385 male
-2.528434 0.7691886 -1.560303 -0.2606533 -0.3635604 -0.8943623 16376280 male
-2.605912 0.1240161 -1.413638 0.9260404 -0.1668767 -0.3385289 2170913 male
-2.491331 -0.2300633 -1.293251 0.4445898 -0.1820506 0.8770392 2828844 male
-2.508984 0.8492075 -1.586926 -0.2915338 0.2476998 -0.9239336 6709083 male
-2.659469 0.4262201 -1.318487 -0.6163415 -0.007432021 0.7874441 6972506 male
-2.553595 0.2785788 -1.457942 0.4379209 -0.1177052 -0.8912749 8813943 male
-2.514924 0.2483473 -1.269929 0.4988594 0.01945425 0.8664647 7892584 male
-2.485671 0.003395812 -1.332956 0.7636979 -0.1619816 0.6249222 3025198 male
-2.720199 0.09945156 -1.337352 -0.6026046 -0.1072515 0.7908002 2303531 male
-2.363432 0.5717077 -1.300216 -0.4503334 -0.7718181 -0.4488838 16770788 male
-2.524656 -0.4730254 -1.462646 0.04619275 -0.9925433 -0.1128004 724235 male
-2.429688 0.5993945 -1.312394 0.4436722 -0.1613233 0.8815497 7038307 male
-2.495296 0.7039929 -1.484187 0.4293428 -0.8467445 0.3141476 11904668 male
-2.560569 0.1330892 -1.440683 -0.459274 -0.196189 -0.8663589 2434347 male
-2.715977 -0.4339088 -1.518556 0.690002 -0.7009238 -0.1805637 2236450 male
-2.771648 0.3421729 -1.363854 0.7303748 -0.4571432 0.5075165 12759726 male
-2.705444 -0.2950063 -1.388177 0.9177394 -0.2160449 -0.3332855 1776411 male
-2.580392 0.5529726 -1.300604 -0.1340471 0.05373274 0.9895173 7892584 male
-2.545585 0.5711954 -1.293333 -0.2929678 0.1417908 0.9455504 7957353 male
-2.544999 0.4643985 -1.476054 0.1772937 0.03504106 -0.9835341 9406855 male
-2.625142 0.04347669 -1.388694 0.9615191 -0.2739586 -0.02068937 3422012 male
-2.344956 0.641717 -1.313332 0.8692998 0.4860737 -0.08972424 10722963 male
-2.546472 0.1920163 -1.264536 0.06926221 -0.2520715 0.9652269 3092023 male
-2.59344 0.6214552 -1.487552 0.08404642 0.1977097 -0.9766512 8945270 male
-2.477844 -0.2439889 -1.37068 0.7447003 -0.1277177 -0.6550649 2368811 male
-2.365136 0.676706 -1.342847 0.7947844 0.5871497 0.1535355 10326916 male
-2.487183 0.6923414 -1.513239 0.6963146 -0.7138016 -0.0750556 12628650 male
-2.724613 0.6866063 -1.442627 -0.6862302 0.7063333 -0.173728 7762030 male
-2.456449 0.1186473 -1.341527 0.8972214 -0.1084363 0.4280602 2170913 male
-2.476664 -0.1064162 -1.339828 0.9849405 0.0541277 0.1642034 2433573 male
-2.701549 -0.1002827 -1.443449 0.3262748 -0.5413566 -0.7749053 2895409 male
-2.588017 0.5258417 -1.299234 -0.0264436 -0.01917013 0.9994666 8024178 male
-2.621602 0.3802876 -1.305496 -0.1830076 0.001264748 0.9831108 5787723 male
-2.7393 0.4059267 -1.348855 0.9049265 -0.4240152 -0.03632486 15782351 male
-2.54711 0.8571916 -1.560382 -0.6959642 0.2387415 -0.677227 8090995 male
-2.69722 0.3813298 -1.399635 -0.974993 0.002967541 -0.2222165 3222569 male
-2.426388 0.8361581 -1.500366 0.9880361 -0.03586794 0.149995 5919050 male
-2.715609 -0.1538971 -1.428267 0.3373189 -0.1524171 -0.92897 3224634 male
-2.728475 0.6265892 -1.429862 -0.7795222 -0.02817542 -0.6257409 5197383 male
-2.717655 0.08613279 -1.465694 -0.4802083 -0.0434015 -0.8760803 3026223 male
-2.71729 0.2565476 -1.322979 -0.8624099 0.1258339 0.4903216 6709083 male
-2.656933 0.5765752 -1.480623 -0.6421148 -0.4348631 -0.6313342 5459531 male
-2.590511 0.2877787 -1.270395 -0.1060652 0.2884758 0.9515945 10130578 male
-2.666981 -0.08784177 -1.416903 0.787938 -0.3555287 -0.5027458 2631464 male
-2.449938 0.2049321 -1.384462 0.987268 0.06706765 -0.1442366 2434597 male
-2.706138 0.2677 -1.437023 -0.453067 0.2301225 -0.8612632 5854545 male
-2.311242 0.5322757 -1.177567 -0.8670828 -0.0981058 -0.4884087 16575460 male
-2.439713 0.8877041 -1.490082 0.8486572 0.5013235 0.1686891 4340793 male
-2.527169 -0.004966793 -1.311036 0.002667606 -0.1126309 0.9936334 3158064 male
-2.49399 0.6731475 -1.446578 0.8542164 -0.3462093 -0.3878835 5787722 male
-2.649376 0.6945782 -1.381828 -0.4109892 0.7995588 0.4379427 7565161 male
-2.627913 0.1836445 -1.293929 0.4996441 -0.6791207 0.5377277 2894892 male
-2.458835 0.1816847 -1.335891 0.9152516 0.01472132 0.4026143 2631465 male
-2.736794 -0.3844806 -1.42599 0.9076937 0.3498406 -0.231741 2959663 male
-2.748024 -0.1910134 -1.338047 -0.5286881 -0.0643863 0.8463708 3026483 male
-2.491481 0.5175954 -1.472707 0.1297646 -0.3223541 -0.9376829 9536117 male
-2.576413 0.1299146 -1.306156 -0.548034 -0.279421 0.7884053 2105893 male
-2.802727 -0.428108 -1.402173 -0.9556895 -0.110466 0.2728643 2237221 male
-2.665066 0.6311971 -1.439076 0.8146573 -0.5395364 -0.212683 7497828 male
-2.494052 -0.4748325 -1.436069 0.04578205 -0.9867128 -0.1558903 526600 male
-2.718896 -0.324474 -1.395016 0.9668496 -0.03063434 -0.253503 2170917 male
-2.781916 -0.4010432 -1.371467 -0.8973873 0.1438041 0.417153 3028022 male
-2.313719 0.5177925 -1.151629 -0.862404 -0.4254986 0.2742453 14797256 male
-2.252937 0.4656938 -1.165622 0.8186266 -0.1992507 0.5386556 15453130 male
-2.466797 0.4945086 -1.451861 0.62985 -0.2696434 -0.7284104 6116943 male
-2.475497 0.862127 -1.584076 0.2417794 0.4277806 -0.8709458 10459279 male
-2.566246 0.568406 -1.490004 0.3466936 0.005539452 -0.9379623 11315363 male
-2.480762 0.5117669 -1.467756 0.3196547 -0.3515593 -0.8799018 7367272 male
-2.684772 -0.1627684 -1.345943 0.727123 0.0676272 0.6831684 2632238 male
-2.502383 0.2635302 -1.429251 0.4608895 -0.0180496 -0.8872741 8354167 male
-2.340363 0.5794157 -1.312089 0.349898 -0.4546671 -0.819054 16773353 male
-2.449515 0.8700138 -1.560847 0.6802204 0.4902731 -0.5449152 6708568 male
-2.513008 -0.310632 -1.373536 -0.229167 -0.01896001 -0.9732025 2893868 male
-2.511958 0.4167719 -1.299333 0.3841166 -0.1461708 0.9116408 9734788 male
-2.270195 0.4848331 -1.207501 0.1855513 0.2776173 -0.9426026 14072749 male
-2.39764 0.6142845 -1.408284 0.5384858 -0.7018323 -0.466331 7169381 male
-2.517001 -0.2533435 -1.375781 -0.3297302 -0.05347912 -0.9425594 2696745 male
-2.69786 0.1249361 -1.473197 -0.2085929 0.02770856 -0.9776101 4211529 male
-2.472027 -0.1886089 -1.306481 0.8514941 0.04606419 0.5223373 2565415 male
-2.555615 -0.0798489 -1.388988 -0.6944287 -0.2421001 -0.677611 2301987 male
-2.504501 0.8301163 -1.591411 -0.2352917 0.03285012 -0.9713696 6510163 male
-2.503704 0.2432125 -1.277905 0.6268196 0.01151392 0.7790796 7104099 male
-2.575642 0.7204162 -1.394917 -0.03643113 0.861392 0.5066327 5787983 male
-2.370535 0.6875834 -1.363593 0.6855697 0.7221968 0.09179413 9145731 male
-2.685693 0.09639405 -1.473352 0.03680953 -0.06344559 -0.9973064 4278352 male
-2.819535 0.2961673 -1.404067 -0.863091 0.1943829 -0.4661433 14137774 male
-2.707688 0.3226665 -1.419292 -0.6677873 0.4379008 -0.6019164 3222828 male
-2.657266 -0.05880315 -1.419393 0.8311469 -0.298314 -0.4692588 2236713 male
-2.492904 -0.1978385 -1.381467 0.2042341 0.01895494 -0.9787387 2500910 male
-2.687447 -0.1182458 -1.353072 0.7211983 0.1997732 0.6632979 2303273 male
-2.431262 0.8663017 -1.522723 0.9243742 0.3345452 -0.1833358 3749169 male
-2.471857 -0.1363949 -1.352461 0.981207 0.1096231 -0.1587955 2170146 male
-2.679704 -0.08265755 -1.362799 0.5373077 -0.05109385 0.8418374 2697261 male
-2.418789 0.5867975 -1.34721 0.5267547 -0.8434798 0.1052209 527368 male
-2.702208 -0.2173274 -1.341632 0.435762 -0.2275985 0.8708103 2895404 male
-2.776257 -0.3746257 -1.40739 -0.9506102 0.1543809 -0.2692712 856084 male
-2.399321 0.6222326 -1.396525 0.3276516 -0.8760659 -0.3537698 4406586 male
-2.551182 -0.2658405 -1.336284 -0.9826387 -0.184964 -0.014485 1775131 male
-2.760283 0.3674388 -1.374062 0.9087739 -0.2073221 -0.3621432 16375766 male
-2.613756 0.4769824 -1.477504 -0.284116 -0.06610543 -0.9565086 7631211 male
-2.673262 -0.1797668 -1.375795 0.9970608 -0.03761002 -0.06674951 2170657 male
-2.694622 0.2974946 -1.298901 -0.6381212 0.2422415 0.7308356 8485497 male
-2.554384 0.9004716 -1.509311 -0.7364243 0.6581843 -0.1564373 5327945 male
-2.406464 0.6151888 -1.346847 -0.5998644 -0.7879537 -0.1388945 7104099 male
-2.543288 0.8928682 -1.540033 -0.5904551 0.6127568 -0.5252542 5196100 male
-2.529715 0.7795691 -1.564451 -0.4662839 -0.2138507 -0.8583983 12956584 male
-2.566731 -0.02787054 -1.333718 -0.7524604 -0.0934773 0.6519706 2828845 male
-2.466178 -0.2162033 -1.324936 0.9764483 -0.09284765 0.1947518 2040353 male
-2.451866 0.4207935 -1.357993 0.9004222 -0.3421575 0.2686414 3289393 male
-2.580853 0.4392236 -1.304056 -0.203092 -0.0295314 0.9787144 8551544 male
-2.48164 -0.06283488 -1.374238 0.9788952 -0.09987929 -0.1782941 3289909 male
-2.642691 0.185238 -1.282754 0.1786636 -0.6579005 0.7316053 2105893 male
-2.47341 0.9046066 -1.458001 0.4011358 0.7299851 0.5533642 4406587 male
-2.544269 0.7299589 -1.533912 -0.6894918 -0.4482642 -0.5689118 15718606 male
-2.734757 0.1746596 -1.440523 -0.8208281 0.1583913 -0.5487747 2303275 male
-2.578166 0.1877052 -1.455615 0.144503 -0.6686269 -0.7294225 4013117 male
