# .PCD v0.7 - Point Cloud Data file format
VERSION 0.7
FIELDS x y z normal_x normal_y normal_z rgb label
SIZE 4 4 4 4 4 4 4 4
TYPE F F F F F F U U
COUNT 1 1 1 1 1 1 1 1
WIDTH 249
HEIGHT 1
VIEWPOINT 0 0 0 1 0 0 0
POINTS 249
DATA ascii
1.240988 0.1539668 -1.22902 -0.3065544 0.2807375 0.9095114 3091505 male
1.433167 0.1902097 -1.077845 -0.507243 0.714743 0.4815049 7172991 male
1.7915 0.2540887 -1.310793 0.3331023 0.7976387 0.5028075 526600 male
1.482044 0.05847956 -1.147925 0.6187851 -0.7819567 0.07515794 8357015 male
1.248685 0.1939964 -1.231818 0.04541394 0.3023095 0.9521275 11972534 male
1.702275 0.3234273 -1.408294 0.3980716 0.7147604 0.5750275 526600 male
1.408854 -0.01114814 -1.372972 0.006032616 -0.8002222 -0.5996733 8818595 male
1.281643 0.3888928 -1.321298 0.8403301 0.4641799 0.2799681 15724736 male
1.253525 0.6182595 -1.426216 0.6857991 0.2569912 -0.6809076 15514030 male
1.607077 0.2135155 -1.321454 -0.1503087 0.5833535 0.7981892 3948100 male
1.776942 0.2076637 -0.9841968 0.4860511 0.7443284 0.4579624 526600 male
1.228245 0.6999729 -1.385944 0.5397392 0.8236035 -0.174238 1051664 male
1.238308 0.2391178 -1.492881 -0.2707025 -0.4805335 -0.8341509 8419977 male
1.321103 0.246451 -1.28113 0.7040535 0.338657 0.6241955 12826828 male
1.239146 0.05809881 -1.310913 -0.7537223 -0.5655316 -0.3347789 11906750 male
1.508458 0.1995851 -1.018415 0.2988591 -0.9270781 -0.2262946 526344 male
1.561542 0.08009563 -1.395564 0.4142239 -0.5038981 -0.7579612 4804180 male
1.166649 0.3788353 -1.258612 0.3310989 -0.6115919 0.7185603 526600 male
1.818638 0.2015852 -0.9815644 0.3806839 0.9057345 0.1863457 526600 male
1.129028 0.460208 -1.253432 -0.1577721 0.9507464 0.2668132 9209492 male
1.26412 0.4893809 -1.377231 0.9696788 -0.1418609 0.1989937 16574948 male
1.41294 0.164791 -1.188366 -0.06799559 0.8962242 -0.4383592 2304556 male
1.970556 0.218047 -1.198947 -0.416909 0.8673494 -0.2718302 526600 male
1.383776 0.2650843 -1.628084 -0.8274746 0.3646283 0.4270035 13871793 male
1.834403 0.218118 -1.323687 0.8875033 0.07778952 -0.4541879 526600 male
1.178106 0.341751 -1.504151 -0.7351788 -0.18105 -0.6532481 12105160 male
1.150445 0.2762366 -1.408388 -0.7522797 -0.4336835 -0.4959777 11381437 male
1.193612 0.3388625 -1.252483 -0.1526421 0.01589429 0.9881538 592137 male
1.744873 0.2737433 -1.322528 -0.1039196 0.5801341 0.8078645 526600 male
1.07482 0.3712815 -1.181718 -0.8411619 0.4645408 0.2768545 15908277 male
1.331609 -0.007339833 -1.296551 -0.2029712 -0.9719962 -0.1184316 8094868 male
1.148344 0.4705672 -1.38246 -0.7765499 0.5269709 -0.3453578 9799564 male
1.58817 0.2236597 -0.9619635 0.0225915 -0.8326383 0.5533563 526600 male
1.102746 0.4076251 -1.200219 -0.2229317 0.7103514 0.6676093 14334393 male
1.24283 0.5811236 -1.317859 0.3450978 -0.07690602 0.9354107 14199975 male
1.249075 0.4217843 -1.577444 -0.3720913 0.3874165 -0.8434788 7037811 male
1.366002 0.088214 -1.103836 -0.578676 -0.1309678 0.8049729 4474698 male
1.114645 0.3474982 -1.24505 0.410848 -0.7779421 -0.4754052 1052688 male
1.582362 0.162312 -1.407964 0.1687413 0.1528722 -0.9737333 4277321 male
1.170092 0.3590156 -1.497625 -0.788501 -0.01976554 -0.6147158 13748953 male
1.150068 0.3638377 -1.446589 -0.9700334 -0.01554427 -0.2424736 14736112 male
1.381782 0.2531189 -1.700604 0.628973 0.4857167 -0.6070191 13677746 male
1.209352 0.6761633 -1.437313 0.4411753 0.5160274 -0.7342207 6184030 male
1.358849 0.00539796 -1.389252 -0.1251921 -0.7401187 -0.6607202 12633812 male
1.150842 0.6381443 -1.319455 -0.3300374 -0.01599739 0.9438322 14207184 male
1.672781 0.2460673 -1.432689 -0.4673057 -0.8264856 -0.3139215 526600 male
1.329858 0.3674168 -1.578945 0.8439582 0.5311101 0.0752098 16048092 male
1.237515 0.3698457 -1.531724 -0.330542 -0.6344072 -0.6987628 526344 male
1.291873 0.02677292 -1.356634 -0.6306476 -0.7154046 -0.3007987 7370624 male
1.292774 0.2614076 -1.495238 0.5251134 -0.2928074 -0.7990744 4736333 male
1.332663 -0.01289708 -1.254338 -0.1934458 -0.9808579 0.0222816 14016246 male
1.836429 0.2173365 -1.288567 -0.1261877 0.8301855 0.5430182 526600 male
1.32075 0.05608338 -1.153028 -0.5415324 -0.2819274 0.7919973 2894900 male
1.344679 0.1956228 -1.321475 0.8064384 0.5221962 0.2774313 11841476 male
1.10162 0.2947472 -1.163653 0.6167217 -0.7133725 -0.3327971 1051664 male
1.132002 0.562234 -1.36581 -0.5753726 -0.6668207 0.4735996 11971502 male
1.527766 0.3090333 -0.9867239 -0.1096617 0.6501758 -0.7518283 526600 male
1.872379 0.1904087 -1.054313 -0.3747208 0.1809324 0.9093117 526600 male
1.230608 0.4811341 -1.451365 0.5051512 0.6673991 -0.5471753 15579315 male
1.503846 0.005474514 -1.364489 0.5625466 -0.6647471 -0.4915817 3553607 male
1.333857 0.05363057 -1.146759 -0.5185558 -0.2880411 0.8050665 3289915 male
1.897414 0.1868462 -1.275327 -0.449097 0.6783667 0.5814899 526600 male
1.7282 0.2690664 -1.451252 0.3916244 -0.3973749 -0.8298937 526600 male
1.345375 0.1991654 -1.41453 0.9118178 0.1009485 -0.397992 9143443 male
1.426266 0.001871145 -1.21782 0.7758353 -0.6231586 0.09875709 10264491 male
1.930509 0.1190268 -1.268204 -0.1247616 -0.3742097 0.9189132 526602 male
1.307977 0.4461947 -1.537796 0.8175009 0.5458882 -0.1835703 10789298 male
1.757144 0.199866 -1.012886 -0.3439623 0.7422023 -0.5751745 526600 male
1.83579 0.2057508 -1.323978 0.7644118 -0.3406145 -0.5474088 526600 male
1.931522 0.1321752 -1.297491 0.04762036 -0.7868394 -0.6153178 526600 male
1.106772 0.296334 -1.152649 0.7986307 -0.555125 -0.232433 15200255 male
1.196538 0.2815629 -1.02186 0.4816512 -0.734036 0.4787517 11767433 male
1.181056 0.4416038 -1.25829 0.5868345 0.7362857 0.3369102 9472152 male
1.211265 0.7080523 -1.381268 0.3358075 0.939567 -0.06668751 526600 male
1.253272 0.4660567 -1.361062 0.8725603 0.06822631 0.4837186 10984622 male
1.380646 0.04367721 -1.41558 0.1486597 -0.4625249 -0.8740543 5791593 male
1.6988 0.2375672 -1.423286 -0.3333478 -0.8154681 -0.4731714 526600 male
1.284001 0.1142842 -1.176455 -0.4803081 0.3675847 0.7963578 3421754 male
1.088506 0.3893243 -1.184948 -0.4879589 0.7243389 0.4870616 14986154 male
1.186465 0.7040234 -1.346074 -0.004712626 0.8465108 0.5323507 2960173 male
1.627398 0.2722009 -0.9761488 0.7010818 0.6384068 0.3176809 526600 male
1.203628 0.106378 -1.32791 -0.6679702 -0.7208642 -0.1848528 12696273 male
1.038015 0.2461176 -1.039809 -0.3760304 0.4345785 0.818378 15056827 male
1.113759 0.4525105 -1.230173 -0.2565367 0.7527832 0.6062231 7960454 male
1.630225 0.2593173 -0.964039 0.7344021 0.3096836 0.603945 526600 male
1.646445 0.26188 -1.347279 -0.05989692 0.6459581 0.7610194 4342082 male
1.493844 0.2515183 -0.9634398 -0.5863813 -0.809596 -0.02667117 526600 male
1.516731 0.2901069 -0.9774385 0.2855804 0.9501566 0.1250851 723467 male
1.236566 0.6912698 -1.364434 0.6581966 0.7304011 0.1824595 14401736 male
1.236852 0.04867611 -1.260375 -0.7654238 -0.6293539 0.134313 9077650 male
1.179916 0.4710111 -1.446937 -0.8330653 0.4767482 -0.280559 8814478 male
1.077249 0.3926854 -1.261814 -0.9517756 -0.1594117 -0.2621279 8618387 male
1.701892 0.3217549 -1.392908 0.2020937 0.7134426 0.670938 526600 male
1.486826 0.2721075 -1.561926 -0.6484032 0.6936499 -0.3137246 16235458 male
1.342084 0.1217324 -1.442008 -0.02078632 0.2003664 -0.9795004 4210505 male
1.871705 0.2063083 -1.283746 -0.3213408 0.8692512 0.3756892 526600 male
1.419297 0.04733972 -1.116176 0.01721892 -0.6742345 0.7383166 8884123 male
1.759693 0.2851138 -1.429222 0.7791235 0.1430782 -0.6103237 526600 male
1.160027 0.6612408 -1.318662 -0.2270724 0.293501 0.9285986 11972276 male
1.493945 0.2516921 -0.9499301 -0.5665917 -0.7980576 0.2051288 526600 male
1.521227 0.08060361 -1.264262 0.1826783 -0.01209509 0.9830984 3815999 male
1.128928 0.4625578 -1.324477 -0.5223025 0.830838 0.1921152 6183263 male
1.765809 0.2337991 -1.405494 0.4970412 -0.5813881 -0.6441567 526600 male
1.954134 0.1939455 -1.279678 0.02507418 0.9692242 -0.2448996 526600 male
1.096014 0.4441316 -1.270647 -0.7539101 0.6513427 -0.08586138 7762302 male
1.545804 0.2946815 -0.9133874 0.4543189 -0.064379 0.8885098 526600 male
1.302128 0.2633823 -1.631126 -0.234444 -0.7358584 0.6352546 525832 male
1.293326 0.4041239 -1.364824 0.7368075 0.4823065 0.4738091 16052881 male
1.847373 0.2258852 -1.30724 0.4929156 0.869233 0.03831738 526600 male
1.301852 0.1503227 -1.450436 0.3219741 -0.09126095 -0.9423396 5328212 male
1.135894 0.649945 -1.458016 -0.3390499 0.1656736 -0.9260656 5591125 male
1.167988 0.4047948 -1.243518 0.6519373 -0.4443176 0.6144588 658442 male
1.157852 0.6777101 -1.451439 -0.06161571 0.5566954 -0.8284285 4276805 male
1.262605 0.6147692 -1.412932 0.8277668 0.387503 -0.4057629 14790566 male
1.495654 0.1252689 -1.057101 0.1709901 -0.8332159 0.5258457 7765126 male
1.544558 0.236447 -0.9470868 -0.1960415 -0.8437133 0.4997156 526600 male
1.186107 0.2291637 -1.251109 -0.5234446 -0.2333134 0.8194942 5657692 male
1.2573 0.0387623 -1.312092 -0.6856923 -0.6567407 -0.3138755 10196646 male
1.468956 0.09671402 -1.07419 0.02314836 -0.6844038 0.7287356 5988460 male
1.482671 0.003125655 -1.374287 0.4665761 -0.6589442 -0.5899994 7698822 male
1.093451 0.6531922 -1.377226 -0.9578292 0.1815548 0.2227128 526344 male
1.285042 0.5623595 -1.382371 0.9379771 0.03255832 -0.3451648 14200743 male
1.472835 0.157246 -1.350245 -0.48321 0.8748173 -0.03468205 11121098 male
1.399004 0.1345608 -1.30949 0.2638547 0.832738 -0.4867526 4934491 male
1.976669 0.1542628 -1.251075 0.1474786 -0.1086546 0.9830789 526600 male
1.316403 0.240371 -1.737008 0.269025 0.3667678 -0.8905655 16767958 male
-2.472059 0.1627188 -1.342125 0.9628584 -0.2686716 -0.02682453 4736832 male
-2.471225 -0.04810541 -1.397144 0.4560496 0.3651999 -0.8115714 3553089 male
-2.687334 -0.330522 -1.473247 0.8646112 -0.08707622 -0.4948388 2302246 male
-2.524479 -0.08000828 -1.246125 -0.06389874 -0.71609 0.6950772 2960432 male
-2.474507 0.1561721 -1.345325 0.9327228 -0.3497248 -0.08786863 4472894 male
-2.67869 -0.1846351 -1.568298 0.7160776 -0.3128031 -0.6240091 2368296 male
-2.717794 0.1158239 -1.245419 -0.9184442 0.2108304 0.3346806 5920594 male
-2.494998 0.1136109 -1.541948 0.4423065 -0.8778441 -0.1837248 16376764 male
-2.588307 0.07598742 -1.805632 -0.9089054 -0.3890401 -0.1501298 13153965 male
-2.640963 -0.1311236 -1.4441 0.9800882 -0.1693563 -0.103662 1711391 male
-2.505748 -0.3435133 -1.451856 -0.9000247 0.01373504 -0.4356229 1578523 male
-2.557441 0.06104726 -1.859443 -0.5599227 -0.6309195 -0.5370544 6445395 male
-2.681056 0.2174378 -1.355377 -0.8621333 0.4678383 0.1945606 8616313 male
-2.544916 0.09381516 -1.37879 0.2834617 -0.9450476 -0.1628944 7169893 male
-2.546284 0.1758014 -1.212842 0.0369817 0.7140537 0.6991136 9142397 male
-2.481765 -0.1536525 -1.459952 -0.6639829 0.3996648 0.631977 2632240 male
-2.73225 -0.0891483 -1.311549 -0.8831441 -0.3699196 0.2884722 2696233 male
-2.401939 0.2558012 -1.64089 0.9010249 0.01545555 -0.4334922 7566699 male
-2.553509 -0.4577991 -1.440512 -0.6827683 -0.7152855 -0.1489767 1775899 male
-2.44192 0.1637912 -1.555986 0.8425648 -0.5238851 -0.1250175 6380632 male
-2.519974 0.08974757 -1.68991 0.6559812 -0.3373402 0.6751966 12035479 male
-2.566498 -0.00835937 -1.323768 -0.7670217 0.2182676 -0.6033552 1841948 male
-2.694905 -0.424622 -1.493696 -0.01924033 0.9935606 -0.111656 2895148 male
-2.670702 -0.2290339 -1.613413 -0.2831629 -0.1222101 0.9512538 6379604 male
-2.730139 -0.3147756 -1.497236 -0.790529 -0.4446997 -0.4210774 2302499 male
-2.660613 0.2078432 -1.617568 -0.4092478 0.7956339 -0.4466352 4341562 male
-2.596611 0.2696438 -1.57654 -0.6566738 0.7164177 -0.2356381 10918805 male
-2.47762 0.2759572 -1.516636 0.6446196 0.6262889 0.4384382 3223856 male
-2.648136 -0.1169142 -1.471676 0.908702 -0.07039567 -0.4114674 2763051 male
-2.426792 0.1299921 -1.342229 -0.658547 0.267017 0.7035751 4208440 male
-2.602666 0.1650317 -1.212572 -0.1612533 0.6829932 0.7124029 10130321 male
-2.602615 0.05605953 -1.574078 0.447033 -0.8441393 -0.2959569 8024681 male
-2.414677 -0.1899993 -1.505973 0.9570176 -0.06491014 -0.2826734 3092530 male
-2.382067 0.2584906 -1.572437 0.8971338 -0.1044083 -0.429244 10721940 male
-2.483655 0.04914171 -1.75801 0.7021652 -0.7059912 0.09241498 16374736 male
-2.701406 0.05120623 -1.654282 -0.6774137 0.152713 -0.7195761 9603202 male
-2.500697 0.06320615 -1.306322 0.2232336 0.718817 -0.6583837 3224633 male
-2.351163 0.3051064 -1.40965 -0.5589693 0.3528277 0.7503774 5590860 male
-2.70034 -0.04370603 -1.410599 -0.3202665 0.4950776 -0.8076681 3553086 male
-2.684173 0.2022392 -1.600354 -0.5401322 0.7402419 -0.4003738 10788248 male
-2.635987 0.2466178 -1.536594 -0.4371231 0.8935528 -0.1024054 8353652 male
-2.675811 -0.2882124 -1.675442 -0.4902318 -0.08953108 -0.8669817 15782855 male
-2.57668 0.1007165 -1.868712 -0.7366744 -0.2482168 -0.6290464 3551278 male
-2.630209 0.1072309 -1.181564 -0.06747231 0.3250149 0.9432991 10985372 male
-2.455963 0.1475502 -1.818602 0.9805077 0.1940531 0.03079563 4868418 male
-2.743806 -0.1310478 -1.497762 -0.8360392 0.1782296 0.5189151 2104609 male
-2.672737 -0.01435908 -1.667123 -0.3063071 -0.1991819 -0.9308613 6906461 male
-2.744652 -0.01607666 -1.277652 -0.9989641 0.03817117 0.02478272 1972767 male
-2.658188 0.1358707 -1.200045 -0.236194 0.5740654 0.7840035 8748152 male
-2.657195 0.04837712 -1.570482 -0.1854888 -0.7500338 0.6348569 6510931 male
-2.530408 0.1369293 -1.186823 0.3050178 0.4598561 0.8339645 8683898 male
-2.666093 -0.1086589 -1.494737 0.6288044 0.1988169 -0.7517161 3355195 male
-2.468699 0.09231954 -1.271516 0.6989745 0.373289 -0.609992 3750969 male
-2.69363 0.1038969 -1.343985 -0.4979605 -0.1434859 -0.8552471 3881011 male
-2.424743 0.2467683 -1.519692 -0.8652456 -0.2800406 0.4158456 14667212 male
-2.497205 0.18412 -1.758186 0.5709983 0.6090993 0.5504174 7432551 male
-2.477949 -0.1363229 -1.442358 -0.3907136 -0.02839665 0.9200743 2303018 male
-2.512085 0.1607379 -1.648201 0.9687683 -0.1625797 -0.1872332 5261894 male
-2.619536 0.1290161 -1.676227 -0.3783157 -0.700859 -0.6047099 3748913 male
-2.688174 -0.01658932 -1.183778 -0.5051228 -0.6106108 0.6099226 2828843 male
-2.448917 0.06240375 -1.236118 0.9825506 0.167967 0.07988477 2368808 male
-2.682518 -0.3805133 -1.401043 0.9935631 -0.07473387 -0.08513266 2039329 male
-2.71206 -0.2198277 -1.573203 0.2343602 -0.4652708 -0.8535799 3158839 male
-2.700369 0.1662323 -1.352058 -0.9820321 -0.1665354 -0.08876419 2698281 male
-2.546475 0.01178724 -1.162498 -0.05168137 -0.6290219 0.7756678 2565927 male
-2.719119 -0.4133614 -1.366044 -0.130304 -0.9696913 0.2066876 526601 male
-2.621351 -0.00298753 -1.635438 0.9253528 -0.314319 -0.2119578 8222067 male
-2.500131 -0.4733144 -1.428411 0.1106566 -0.9747723 -0.1938402 526344 male
-2.737246 -0.2715827 -1.531536 -0.6705375 -0.5242773 -0.5248934 1907741 male
-2.732789 -0.393164 -1.353754 -0.8279091 0.3623949 0.4280615 2171171 male
-2.450276 0.2664217 -1.557053 -0.8632924 -0.2547418 0.4356984 4472124 male
-2.351361 0.2222774 -1.353352 -0.5921194 0.08773232 0.8010604 11903907 male
-2.446725 0.1743927 -1.600265 0.4766399 -0.775054 -0.4148566 5262664 male
-2.533937 0.1035933 -1.892799 -0.1557985 -0.2252225 -0.9617702 4932930 male
-2.55795 0.07664826 -1.544851 0.6894751 -0.7051577 -0.1654596 11315363 male
-2.701933 0.1801637 -1.301708 -0.7460947 0.6654872 0.02167326 5590604 male
-2.755254 -0.2351545 -1.538051 -0.9342647 -0.2882835 -0.2098629 1908256 male
-2.452833 0.1164387 -1.264167 0.9761155 0.2148159 0.03245181 4078389 male
-2.447924 0.307377 -1.58302 -0.3013116 0.8927556 0.3349609 6643548 male
-2.492935 0.08844624 -1.880743 0.4974802 -0.3344342 -0.8004171 6708568 male
-2.437018 -0.2469916 -1.517291 0.5020722 -0.3578919 -0.7872974 2171945 male
-2.522974 0.2568645 -1.387273 0.35328 0.8521504 0.386048 9077116 male
-2.30464 0.3149646 -1.409044 0.9572408 0.2869744 0.03655082 16573914 male
-2.398659 0.2871729 -1.60161 0.8441285 0.4697559 -0.2584118 10655633 male
-2.424281 -0.250731 -1.453733 0.9047843 -0.1722023 0.3895023 2171169 male
-2.694668 -0.009700017 -1.384958 -0.2325982 0.6324161 -0.7388831 3422013 male
-2.452765 -0.1165434 -1.364601 0.8972877 -0.2908341 0.3321004 2697773 male
-2.450191 -0.1203832 -1.476639 0.8996693 0.1776823 -0.3987788 2828843 male
-2.587156 0.08014934 -1.826587 -0.9074726 -0.3777755 -0.183792 8680819 male
-2.505728 0.1684402 -1.219702 0.5114608 0.525223 0.6801096 6117204 male
-2.634099 0.1826086 -1.67021 -0.2178777 0.5945305 -0.7739916 8484468 male
-2.409005 0.2210438 -1.546304 -0.0609259 -0.9857445 -0.1568305 11509916 male
-2.657706 -0.03029469 -1.397408 0.4092717 0.5153834 -0.7529123 3949644 male
-2.655145 -0.4681292 -1.647499 -0.0107761 0.1583377 -0.9873263 15124156 male
-2.725793 0.1218643 -1.272439 -0.9682127 0.1825686 0.1709771 4143671 male
-2.660851 -0.111946 -1.491746 0.7659303 0.07651212 -0.6383548 3158840 male
-2.450771 -0.0810136 -1.314277 0.9099423 -0.3386104 0.2394751 2697257 male
-2.762352 -0.1860394 -1.544499 -0.9991507 0.008583827 -0.04030371 2170403 male
-2.466513 0.08583709 -1.846871 0.8657522 -0.3515359 -0.3562247 5327936 male
-2.596888 -0.005618561 -1.210025 -0.7330252 -0.446909 -0.5127832 526600 male
-2.615732 -0.08330646 -1.293784 0.869684 -0.4793097 0.1179501 2170401 male
-2.478616 0.2621065 -1.640448 0.1748596 0.5877228 -0.7899408 9274749 male
-2.708932 -0.1517211 -1.505663 0.1035008 0.5822137 0.8064211 2960690 male
-2.727383 -0.3654702 -1.423628 -0.9891982 0.1292271 -0.06919223 856084 male
-2.41045 0.2333348 -1.621033 0.5985776 -0.8001765 -0.037716 8485489 male
-2.438518 -0.176939 -1.535332 0.5022668 -0.274647 -0.8199375 2566445 male
-2.64099 -0.292256 -1.670367 0.7753363 0.1115224 -0.6216242 16373192 male
-2.630898 0.06367078 -1.459007 -0.2132697 -0.9748881 -0.0641038 6116175 male
-2.696172 -0.3569365 -1.459919 0.3828446 0.1038341 -0.917959 1908517 male
-2.67821 0.198864 -1.295351 -0.5638974 0.7629049 0.3162215 4868418 male
-2.56553 0.2032217 -1.810576 -0.5237377 0.8518613 0.005592525 4932154 male
-2.457976 0.2991606 -1.593352 0.02078289 0.961225 0.2749813 6314840 male
-2.584619 0.1721353 -1.847347 -0.8315428 0.446607 -0.3302712 6511192 male
-2.550094 0.04858298 -1.793963 0.1203585 -0.8737776 -0.4711971 10654346 male
-2.493808 -0.1476606 -1.466903 -0.8108876 0.07531796 0.5803351 2631208 male
-2.420105 -0.1502934 -1.483341 0.9751691 0.1399794 0.1716138 2500653 male
-2.473125 0.2241349 -1.405053 0.8118463 0.4846426 0.3256183 4736320 male
-2.620847 0.2547699 -1.483485 -0.468187 0.8686879 0.1618096 10261132 male
-2.459708 -0.04742917 -1.25192 0.795499 -0.4301268 0.4268166 2433829 male
-2.723644 0.01479104 -1.211304 -0.8977787 -0.09321692 0.4304698 2170913 male
-2.480734 0.1853136 -1.856769 0.6509589 0.6369966 -0.4129019 7037274 male
-2.557492 0.0381099 -1.756061 -0.4616644 -0.8625298 -0.2071436 15914441 male
-2.60333 -0.02732985 -1.307889 0.9225364 0.07515597 -0.3785214 2828846 male
