# .PCD v0.7 - Point Cloud Data file format
VERSION 0.7
FIELDS x y z normal_x normal_y normal_z rgb label
SIZE 4 4 4 4 4 4 4 4
TYPE F F F F F F U U
COUNT 1 1 1 1 1 1 1 1
WIDTH 246
HEIGHT 1
VIEWPOINT 0 0 0 1 0 0 0
POINTS 246
DATA ascii
1.428214 1.055225 -0.7639994 -0.2589239 -0.3112853 0.9143631 6380903 male
1.417396 0.6277161 -0.8240259 0.9236252 -0.363165 -0.1225873 591369 male
1.547783 0.7604257 -0.8813172 0.05718648 -0.07512791 0.9955328 5198688 male
1.323967 0.805311 -0.8117215 -0.948271 -0.05203967 0.3131676 4212560 male
1.441571 1.10413 -0.7330349 -0.4302218 -0.3840514 0.816954 5459539 male
1.540773 0.6178587 -0.9691198 -0.8515046 0.2486309 -0.4616521 526600 male
1.573973 1.057577 -0.9227074 0.8695863 -0.253653 -0.4236505 6774376 male
1.540131 1.136699 -0.6935974 0.1207533 -0.7651455 0.6324326 11447487 male
1.777373 1.283648 -0.6232238 0.4275507 -0.8198485 0.3808528 9926262 male
1.502505 0.8027371 -0.8840755 -0.2043683 -0.1553528 0.9664881 5461344 male
1.308243 0.4267 -0.7916566 -0.9396117 -0.1068504 0.3251348 526600 male
1.802714 1.339632 -0.6584365 0.6346062 -0.2543501 -0.7297813 10655642 male
1.537414 1.135484 -0.9444015 0.2077058 0.2005729 -0.9574073 6381418 male
1.498003 1.044171 -0.7648124 0.1152094 -0.5073944 0.8539776 14999789 male
1.395318 1.141341 -0.8444792 -0.886305 0.3998441 -0.2336409 9735580 male
1.350632 0.69341 -0.8667383 -0.5219936 -0.1907156 -0.8313544 6580852 male
1.53527 0.8271936 -1.019214 0.3201169 -0.09927139 -0.9421626 5592666 male
1.516179 1.296337 -0.6622713 0.2791554 -0.4855092 -0.8284642 526600 male
1.353596 0.2654974 -0.7362128 0.09664588 -0.9942804 -0.04545388 526600 male
1.491273 1.257946 -0.6733288 -0.5776973 -0.7668493 0.2796567 526600 male
1.661657 1.281767 -0.6545394 -0.5164946 -0.6385434 0.5705224 10917781 male
1.439811 0.8569276 -0.7842925 0.7144108 0.05714029 0.6973896 8687008 male
1.646595 0.30324 -0.9064792 -0.6547703 0.009961478 0.7557623 526600 male
1.722197 0.9177538 -0.8877333 -0.05761987 -0.02220629 0.9980916 13743034 male
1.609486 0.42819 -0.9450309 0.4601049 -0.1052519 0.8816039 526600 male
1.594089 1.297663 -0.8638847 -0.3166994 0.7585262 -0.5695081 14671083 male
1.569712 1.320102 -0.7918952 -0.06269763 0.8371465 -0.5433733 14669546 male
1.442509 1.268208 -0.7412532 -0.9235128 0.3641954 -0.1203571 9407383 male
1.540022 0.6178622 -0.9132562 -0.7222201 -0.37181 0.5832285 6775393 male
1.436372 1.292641 -0.6354833 -0.6433647 0.3084414 0.7006752 16636376 male
1.342638 0.9560227 -0.9443548 -0.7130821 0.07050949 -0.6975259 10002873 male
1.660213 1.24892 -0.7000292 0.3044561 -0.8489085 0.4320425 12433102 male
1.300953 0.49091 -0.7965757 -0.9649518 -0.05056812 0.257509 526600 male
1.455621 1.331635 -0.6487383 -0.7759799 0.6228983 0.09926164 6972786 male
1.672086 1.279368 -0.6418934 -0.9110061 -0.4102215 0.04226467 9205107 male
1.744434 1.218623 -0.8790036 0.5205067 0.0880871 -0.8493016 11180701 male
1.3233 0.8502306 -0.8108855 -0.9048451 0.0272215 0.4248698 3355964 male
1.336509 0.6507165 -0.7884738 -0.7973676 0.1183995 0.5917655 2499368 male
1.624833 0.6249252 -0.9412744 0.956404 0.03527088 -0.2899091 526600 male
1.60615 1.333321 -0.7721552 -0.04791388 0.9465319 -0.3190324 14802929 male
1.504931 1.240111 -0.8633894 -0.5955539 0.5548205 -0.5809386 11051700 male
1.724951 0.9388909 -0.936269 0.3692187 -0.06774326 -0.9268702 13611440 male
1.786377 1.39992 -0.6712543 0.433179 0.3246626 -0.8408032 10130330 male
1.41079 0.9446585 -1.009585 -0.6477937 0.01169361 -0.7617261 4869723 male
1.730089 1.368531 -0.5386975 -0.5112364 0.01524822 0.8593049 13221316 male
1.627333 0.6002354 -0.9382127 0.9982947 -0.05141975 0.02763361 526600 male
1.749863 1.153082 -0.8455356 0.9172544 -0.1251597 0.3781263 14393241 male
1.577088 0.8513436 -0.983191 0.8557913 0.1441166 -0.4968415 4672085 male
1.424531 0.9840828 -1.010059 -0.518204 0.2724167 -0.8107119 12238026 male
1.675745 1.157954 -0.8188109 0.5577028 -0.6725667 -0.4864376 7564667 male
1.373525 1.030495 -0.9370065 -0.5594118 0.5357466 -0.6324825 6578804 male
1.56005 0.5077183 -0.9231058 -0.3049959 -0.2630855 0.9152943 526600 male
1.36226 0.9562436 -0.7873527 -0.486456 0.1705794 0.8568916 2632240 male
1.537482 0.9942866 -0.843526 0.7911691 -0.4539346 0.4098718 11315644 male
1.326389 1.189724 -0.7390352 0.728485 -0.08339648 -0.6799666 14074312 male
1.755842 1.410188 -0.537042 -0.1739005 0.4128785 0.8940302 526600 male
1.327093 0.7377903 -0.8361502 -0.9944289 -0.1054083 -0.0004205406 6383474 male
1.591448 1.356105 -0.7022046 0.07885758 0.9967765 0.01477239 11644345 male
1.70774 1.313897 -0.8045151 0.6974703 0.6736999 -0.2442614 7499642 male
1.441485 0.8707845 -1.019256 -0.4376275 -0.4992567 -0.7478133 8685720 male
1.356622 0.9375234 -0.7894614 -0.5524238 0.1699538 0.8160537 3421497 male
1.616981 0.3359862 -0.9344009 -0.4793274 0.2067602 0.8529335 526600 male
1.622915 0.5271583 -0.9861006 0.8255868 0.0001007146 -0.5642751 526600 male
1.597841 1.271485 -0.6571903 0.3918574 0.01593807 0.9198878 14208995 male
1.412705 0.7294129 -0.8809561 0.5603715 -0.3106132 -0.7677912 2894636 male
1.602582 0.2907322 -0.9992936 0.006544523 -0.9641049 -0.2654409 526600 male
1.752697 1.264768 -0.849654 0.6898364 0.6805589 -0.2469116 6446952 male
1.355717 0.2747242 -0.7749572 0.648747 -0.7597008 -0.04451931 526600 male
1.612452 0.4355136 -0.9445696 0.5275529 -0.1240637 0.8404143 526600 male
1.625095 0.3080688 -1.006099 0.5043138 0.2683071 -0.8207794 526600 male
1.310513 1.193322 -0.7482771 0.1187626 -0.1390846 -0.9831332 16246767 male
1.299346 1.038154 -0.7003897 -0.7519374 -0.2232357 0.620287 16768999 male
1.508791 1.199223 -0.6556208 -0.6588684 -0.4000727 0.6370512 8290187 male
1.823754 1.397562 -0.5592942 0.7823486 0.3118375 0.5391549 526600 male
1.655248 1.1708 -0.7425015 0.52908 -0.4677176 0.7080357 14668263 male
1.587576 1.263656 -0.652801 0.4329496 -0.02994522 0.9009206 10393511 male
1.582472 0.511997 -1.008774 0.03528783 -0.04424445 -0.9983973 526600 male
1.431715 0.9517654 -0.7972057 0.4286215 0.1238144 0.89496 10396078 male
1.442204 1.276837 -0.6289012 -0.3201083 0.01050526 0.9473227 14986154 male
1.81635 1.328287 -0.5481811 0.6506659 -0.2952715 0.6996061 526600 male
1.371801 0.4915004 -0.7728794 0.8102524 -0.127866 0.5719627 526600 male
1.396886 1.100848 -0.8877292 -0.7118081 0.4077715 -0.5718843 12630731 male
1.297466 1.122509 -0.6884807 -0.564871 -0.1499482 0.8114408 12493725 male
1.514759 1.283336 -0.6211387 0.3047959 -0.8974923 0.3187586 10524072 male
1.353693 0.4266537 -0.7679752 0.4757819 -0.11478 0.8720419 526600 male
1.571751 0.8216495 -0.8924105 0.6008153 0.09377711 0.7938683 9213094 male
1.314827 0.5692708 -0.78365 -0.8227621 0.2427028 0.5139629 526600 male
1.390226 0.7075122 -0.7651029 0.06449771 -0.1897989 0.9797022 6515835 male
1.830418 1.323568 -0.5747652 0.8951322 -0.3752621 0.2406588 789260 male
1.317281 0.9144076 -0.9049441 -0.9638815 -0.0656024 -0.2581254 11317693 male
1.733317 0.2811147 -0.9406202 -0.125943 -0.991851 0.01923274 526600 male
1.483969 1.335675 -0.6799338 -0.7612294 0.3956476 -0.5138022 6184038 male
1.589293 0.8014187 -0.9084859 0.8400673 0.07534244 0.5372247 7829638 male
1.722981 0.7843733 -0.9450622 0.7324333 -0.3672185 0.5733167 1841690 male
1.572358 1.042808 -0.8596269 0.8966159 -0.4374357 0.06877348 9078169 male
1.55991 0.4894953 -0.9293531 -0.3984083 -0.3121924 0.8624424 526600 male
1.352785 0.5697641 -0.7588119 -0.06828886 0.08721855 0.9938458 526600 male
1.546142 0.5745193 -0.9919906 -0.6925395 0.2161109 -0.6882479 526600 male
1.75633 1.29535 -0.5514356 -0.1296243 -0.540638 0.8312088 14134182 male
1.31751 0.5865762 -0.7893824 -0.8533356 0.2935663 0.4308563 526600 male
1.508174 0.7136688 -0.9914287 -0.514602 -0.2588019 -0.8174389 6449274 male
1.546712 1.305445 -0.6207443 0.5410919 0.365584 0.7573426 12959437 male
1.534945 0.5971481 -0.9408551 -0.961464 0.1006227 0.2558551 526600 male
1.627832 0.3521208 -0.9358044 0.2610425 0.4659843 0.8454084 526600 male
1.511578 1.289778 -0.6005989 0.1091283 -0.6875716 0.7178692 13353171 male
1.385372 0.4870954 -0.8126862 0.9757914 -0.2186461 0.004986525 526600 male
1.671821 1.055642 -0.8811938 -0.7746199 -0.1315725 0.6185892 15658742 male
1.604862 1.175375 -0.7017585 0.616144 -0.6046812 0.5047051 15657635 male
1.569315 0.4858719 -0.9282212 -0.2104479 -0.2981137 0.9310424 526600 male
1.45655 1.106382 -0.938434 -0.5527018 0.364514 -0.7494333 10131368 male
1.752255 1.445414 -0.6438181 -0.05872673 0.8921274 -0.4479507 16183030 male
1.513576 1.277304 -0.6552682 -0.4490286 -0.8819893 -0.1430672 526345 male
1.779346 1.418166 -0.6661717 0.3337021 0.4808894 -0.8107948 6775909 male
1.763234 1.265257 -0.6154035 0.8751757 -0.3156001 -0.3666933 14592678 male
1.396587 0.6654751 -0.8648388 0.2283417 -0.2262574 -0.9469254 1907999 male
1.335336 0.5826085 -0.7659182 -0.5328456 0.1958816 0.823229 526600 male
1.417225 1.149491 -0.7443546 -0.8526012 -0.04226166 0.5208504 7039347 male
1.490427 1.227442 -0.8596219 -0.5261357 0.5187898 -0.6738236 12696269 male
1.34548 0.6979464 -0.7885727 -0.7837767 -0.04514904 0.6193995 4014149 male
1.474805 0.89183 -1.034346 -0.003415912 -0.1876253 -0.9822347 8160909 male
1.755617 1.439121 -0.5590693 -0.1728647 0.7647588 0.6206948 526344 male
1.755817 1.298125 -0.6834098 0.4827073 -0.3333839 -0.8098449 14266797 male
1.479763 0.8723292 -0.8772716 -0.2191433 -0.2316822 0.9477867 3354936 male
-2.6785 0.4735412 -1.239893 0.9488265 0.06126528 -0.3097984 5921106 male
-2.583653 0.224119 -1.330944 -0.03466278 0.3487651 -0.9365691 3223601 male
-2.771173 -0.2198734 -1.23493 0.9580243 -0.1670955 0.2329565 1841948 male
-2.578741 0.2084551 -1.195779 0.6297351 -0.0885976 0.7717413 2434085 male
-2.674324 0.5091521 -1.230044 0.9760221 0.003822625 -0.2176385 5985875 male
-2.815291 -0.1601624 -1.308824 -0.3661948 -0.2755428 -0.8888069 1973534 male
-2.826948 0.4380503 -1.32742 -0.1977316 -0.04136153 -0.9793834 6051923 male
-2.693702 0.6745397 -1.265385 0.5526618 0.4184323 -0.7207493 7301993 male
-2.749542 0.8788244 -1.34914 0.1488833 -0.4050953 -0.9020709 12168360 male
-2.785249 0.1461625 -1.362594 0.09342656 -0.07356966 -0.9929045 4145739 male
-2.24839 -0.08423056 -1.403679 0.6593993 0.3996533 -0.6367652 2367268 male
-2.793036 0.9228939 -1.3524 -0.2547961 0.003517873 -0.9669886 5065541 male
-2.893238 0.4407132 -1.256734 -0.9855584 -0.1386677 -0.09719241 3816504 male
-2.71241 0.4486111 -1.30454 0.5269496 0.0995366 -0.844048 7892841 male
-2.733161 0.3327497 -1.110026 -0.03429034 0.08434492 0.9958466 7761257 male
-2.528627 0.1347647 -1.270968 0.2010931 -0.4325936 0.8788769 2565930 male
-2.810138 0.06903262 -1.228784 -0.4939045 -0.1684554 0.8530424 2763311 male
-2.603719 0.6436263 -1.21238 -0.01683682 0.3876255 -0.9216633 16773095 male
-2.234333 -0.2083534 -1.45484 0.383898 -0.9049278 0.1836514 526600 male
-2.69075 0.6403748 -1.144008 0.7890316 -0.6042796 0.1107946 2696742 male
-2.750407 0.7821564 -1.278819 0.8086152 -0.5816271 0.08860898 13416877 male
-2.614738 0.2841145 -1.295083 0.1679473 0.6802476 -0.7134824 4144968 male
-2.76756 -0.3895709 -1.298558 -0.1040522 0.9413825 -0.3208928 2763050 male
-2.885255 0.5356383 -1.485305 0.6921834 0.03382048 0.7209289 16309463 male
-2.804703 -0.295305 -1.262578 -0.02378088 -0.04175546 -0.9988449 2368292 male
-2.892881 0.6054279 -1.179866 -0.5687611 -0.01383831 0.8223866 10788251 male
-2.854089 0.64523 -1.163077 -0.5926462 0.171565 0.7869792 8683132 male
-2.672508 0.5627949 -1.215859 0.9978672 0.05909914 -0.02772671 4669245 male
-2.729176 -0.01571517 -1.279913 0.9796416 -0.1989628 -0.02676708 1907997 male
-2.578194 0.651356 -1.179563 0.6764916 0.7318255 0.0824053 16242633 male
-2.779788 0.2693194 -1.13462 -0.3771709 -0.3494197 0.8576994 11247513 male
-2.751693 0.7328068 -1.273779 0.8700912 0.02805928 -0.492092 8089706 male
-2.363131 0.0504132 -1.338871 0.8399545 0.3535717 0.41166 2434342 male
-2.642483 0.723693 -1.174112 0.6114627 0.400622 -0.6823604 8419440 male
-2.743639 0.7946169 -1.26996 0.4030649 -0.7866546 0.4676679 11378324 male
-2.97339 0.7093627 -1.32293 -0.947635 0.317446 0.03487444 9077375 male
-2.583017 0.2594599 -1.197835 0.7493957 0.3071154 0.5865889 2105892 male
-2.735831 0.2175827 -1.217711 -0.5747852 -0.6771344 -0.4594684 526600 male
-2.762493 -0.01501976 -1.344775 0.2686857 -0.2008386 -0.9420574 4013896 male
-2.903229 0.6206687 -1.188332 -0.600071 -0.02046387 0.7996851 7959919 male
-2.869873 0.4383602 -1.307517 -0.6627064 -0.1244236 -0.7384709 2828585 male
-2.93514 0.5311597 -1.496049 -0.7834764 0.5587456 -0.2719713 14534328 male
-2.793963 0.9455308 -1.349806 -0.222693 0.2669834 -0.9376183 6972770 male
-2.854614 0.2555885 -1.175687 -0.7085053 -0.2890969 0.6437728 10392718 male
-2.727439 0.9332364 -1.231442 0.6777003 0.1275611 0.7241896 5919050 male
-2.743176 -0.04619585 -1.309663 0.8839043 -0.3986088 -0.2445906 2302499 male
-2.895488 0.6663969 -1.359226 0.9333869 0.1111353 -0.3412305 8222581 male
-2.848509 0.1381579 -1.324551 -0.8818646 -0.1048663 -0.4596936 2368293 male
-2.838267 0.2542531 -1.161976 -0.4901996 -0.281239 0.8249905 11708324 male
-2.919682 0.5419017 -1.29219 -0.7789012 -0.3429278 -0.5250845 3223601 male
-2.707969 0.2541477 -1.117917 0.1113845 -0.2864769 0.9515907 3487805 male
-2.758404 -0.1538822 -1.235024 0.8988785 -0.1209754 0.4211683 1842977 male
-2.654342 0.3360541 -1.157207 0.6661402 0.3210819 0.6731744 4077878 male
-2.796949 0.3481208 -1.32828 -0.000130266 0.01897213 -0.9998201 6577242 male
-2.539933 0.4922099 -1.201076 -0.9893523 -0.05162137 -0.1360794 16376800 male
-2.758852 0.9770988 -1.227687 0.3952835 0.5984667 0.696842 4340793 male
-2.522688 0.150621 -1.261549 0.5143399 -0.152809 0.8438627 2434085 male
-2.753224 0.7671499 -1.196512 0.6039004 0.79325 -0.07783887 4800569 male
-2.819098 0.7489308 -1.30465 -0.1860759 -0.06601946 -0.980315 5327680 male
-2.821301 0.1779417 -1.209362 -0.4565005 -0.3871122 0.8010941 3158835 male
-2.641922 0.3411553 -1.184124 0.7763151 0.5494916 0.3088593 5591373 male
-2.786433 -0.344404 -1.231285 0.9199542 0.223832 0.3218444 2236708 male
-2.8135 -0.1866021 -1.300227 -0.3118661 -0.363968 -0.8776486 1776155 male
-2.723831 0.6755913 -1.284465 0.5091937 0.3507282 -0.7859464 6644565 male
-2.691401 0.1692436 -1.198035 -0.3648865 -0.8902611 0.2725676 1908773 male
-2.848868 -0.3835313 -1.234854 -0.6202655 -0.7746098 0.1234932 789516 male
-2.884727 0.6831467 -1.36151 0.4041113 -0.2891449 -0.8678074 7894131 male
-2.21219 -0.1535551 -1.415586 -0.2436432 -0.9685304 -0.05086131 2697769 male
-2.785492 -0.2310228 -1.271264 0.7210484 -0.2783699 -0.6345077 3156784 male
-2.85418 -0.3677665 -1.218068 -0.9796777 0.1173692 -0.1626538 2171171 male
-2.541938 0.5105382 -1.177234 -0.9125589 0.4037969 -0.06468913 16769496 male
-2.541943 0.6221402 -1.293297 -0.701702 0.2799389 0.6551708 16771806 male
-2.683785 0.6620162 -1.177944 0.7137253 -0.6990188 -0.04437518 723723 male
-2.769095 1.00093 -1.295404 0.1695069 0.9536763 -0.2485337 7169118 male
-2.795797 0.5745654 -1.34443 0.3515494 -0.1989245 -0.9147909 13416346 male
-2.727299 0.6625972 -1.291669 0.4541695 0.2814357 -0.8452953 3749686 male
-2.771165 -0.04244269 -1.2514 0.3665097 0.2602312 0.8932808 2565927 male
-2.682515 0.320592 -1.262488 0.2546431 0.6737968 -0.6936534 1841948 male
-2.601165 0.6725133 -1.190377 0.4891129 0.7925224 -0.3642483 15128262 male
-2.714573 0.9689977 -1.304627 0.7207097 0.6730409 -0.1661133 9076602 male
-2.379017 0.01800152 -1.390735 0.1489419 -0.167911 -0.9744858 2697257 male
-2.760131 0.5053406 -1.128826 0.06813586 -0.2584252 0.9636255 9077116 male
-2.487833 0.5541883 -1.218545 0.7539805 0.5494715 0.3599926 16768982 male
-2.661898 0.7246169 -1.185434 0.4048594 -0.003601965 -0.914372 6446169 male
-2.362705 0.02449404 -1.386788 0.5350723 0.008963886 -0.8447589 2434601 male
-2.768513 0.1440949 -1.359018 0.3701747 -0.06362326 -0.9267811 4409683 male
-2.422725 0.1099518 -1.320159 0.2510273 0.4433272 0.8604919 2105893 male
-2.503398 0.1962116 -1.310111 0.8727789 0.4803445 -0.08675504 3289915 male
-2.745287 0.9529319 -1.347506 0.2285707 0.4266169 -0.8750735 6511189 male
-2.686861 0.250561 -1.12191 0.2483816 -0.1751187 0.9527016 3225149 male
-2.875158 0.7633717 -1.24352 -0.5012142 0.7314559 0.4623384 6116945 male
-2.658743 0.7244788 -1.113285 0.5284809 0.292021 0.7971398 10855068 male
-2.749963 0.1188313 -1.344118 0.6499755 -0.09017576 -0.7545863 3554116 male
-2.836334 0.6850364 -1.565124 -0.4890491 0.58758 0.6446556 16572378 male
-2.74337 0.4880699 -1.322366 0.5186269 0.0781555 -0.8514212 8418929 male
-2.765057 -0.1844655 -1.234566 0.8924459 -0.1891778 0.409576 2039327 male
-2.521664 0.2174191 -1.270235 0.8713914 0.3997606 0.2843744 2434600 male
-2.835261 -0.1935607 -1.277911 -0.845243 -0.250692 -0.4719302 2105377 male
-2.70796 0.9562939 -1.276852 0.8305289 0.4873368 0.2696753 5524550 male
-2.440283 0.1010336 -1.315923 -0.1559636 0.2459468 0.9566535 2565929 male
-2.752845 0.05229639 -1.233675 0.4667352 -0.06072605 0.88231 2565677 male
-2.665311 0.7518209 -1.178757 0.344268 0.9155997 -0.2077421 5723215 male
-2.757383 -0.09264565 -1.245834 0.8587465 0.2017525 0.4710102 2105635 male
-2.81672 -0.3292085 -1.259344 -0.4982878 0.3241762 -0.8041265 2500646 male
-2.653597 0.7368848 -1.184859 0.5662972 0.2590715 -0.7824256 4933698 male
-2.370784 -0.05218543 -1.359228 -0.7246896 -0.5712193 -0.3854007 1973022 male
-2.943421 0.4393571 -1.422058 0.7069863 -0.6787391 0.198705 6379607 male
-2.728001 0.5760643 -1.298282 0.3926455 0.09108707 -0.9151683 8023919 male
-2.746055 0.05228877 -1.332916 0.6662284 -0.1357789 -0.7332832 3948873 male
-2.880437 0.3635725 -1.203837 -0.7992792 0.3032497 0.5188377 7563619 male
-2.86546 0.9246168 -1.281056 -0.9802637 0.04114442 -0.1933659 4208440 male
-2.694156 0.6891757 -1.163155 0.2610896 -0.8434114 -0.4695631 723980 male
-2.854805 0.937471 -1.305321 -0.8797604 0.1162118 -0.4609952 4801601 male
-2.729359 0.8689135 -1.33153 0.1906802 0.2317336 -0.9539083 13019813 male
-2.541079 0.1572471 -1.240116 0.5091818 -0.2156014 0.8332168 2499878 male
-2.4211 0.08029332 -1.310794 0.05187377 0.1537323 0.9867502 2565932 male
-2.687683 0.466313 -1.16867 0.7923218 0.1396353 0.5939095 3748913 male
-2.810365 0.3850188 -1.15463 -0.5022708 0.2683638 0.8220129 6642520 male
-2.564772 0.2435803 -1.211699 0.7678947 0.2637617 0.5837532 2237222 male
-2.85602 0.2045562 -1.228383 -0.8437769 -0.3279125 0.4248697 3421242 male
-2.808033 0.9784927 -1.222092 -0.2288534 0.6365326 0.7365137 4406587 male
-2.785456 0.8311977 -1.340144 -0.2628589 -0.3576358 -0.8961039 15389897 male
-2.817205 0.1750823 -1.35655 -0.4533614 0.00362432 -0.8913197 2894386 male
