# .PCD v0.7 - Point Cloud Data file format
VERSION 0.7
FIELDS x y z normal_x normal_y normal_z rgb label
SIZE 4 4 4 4 4 4 4 4
TYPE F F F F F F U U
COUNT 1 1 1 1 1 1 1 1
WIDTH 247
HEIGHT 1
VIEWPOINT 0 0 0 1 0 0 0
POINTS 247
DATA ascii
1.425661 0.8873682 -0.7455985 -0.6166083 -0.2726891 0.7385356 5393746 male
1.450799 0.6653352 -0.7565136 0.8786256 0.3484466 0.3264997 6317426 male
1.672969 0.4236867 -0.8573431 -0.02640489 -0.2768681 0.960545 526600 male
1.312098 0.6632577 -0.8610976 -0.7677413 -0.6022076 -0.2189049 11778766 male
1.422474 0.8800488 -0.7532998 -0.5441352 -0.3809993 0.7475001 4079175 male
1.756695 0.5728699 -0.8355607 0.9267161 -0.350885 0.1344507 526600 male
1.40324 0.7782327 -1.042727 -0.1482443 0.1771975 -0.9729464 8818595 male
1.535973 0.8147437 -0.8701079 0.2919014 -0.9148112 -0.2791309 10392743 male
1.859484 0.8156024 -0.6145524 0.02521072 -0.9066946 -0.4210336 11704210 male
1.601592 0.6087901 -0.8357477 -0.3453841 -0.1606014 0.9246172 3618616 male
1.427028 0.3274324 -0.7409348 0.7038015 0.1260223 -0.6991293 526600 male
1.89456 0.8644224 -0.6176342 0.6700382 -0.1540233 -0.7261719 8091000 male
1.547827 0.9386659 -0.9311528 0.1445891 0.3535521 -0.9241725 7236472 male
1.469276 0.8261982 -0.8205934 0.2770363 -0.9009259 0.334041 14406635 male
1.342966 0.9104531 -0.8952953 -0.5207746 0.7737769 -0.3606425 12038593 male
1.420447 0.5758398 -0.7310904 -0.7455558 -0.3741651 -0.5514952 526344 male
1.567904 0.6512219 -0.9786622 0.5962743 -0.09937497 -0.7966062 5067613 male
1.58497 0.9768863 -0.5673626 -0.4768728 -0.5932636 0.6485604 11512255 male
1.420781 0.2508044 -0.7422208 0.09420546 -0.978223 -0.1849464 526600 male
1.591206 0.9050349 -0.6229851 -0.04516879 -0.6971077 0.7155422 14013161 male
1.726117 0.8490351 -0.631879 -0.6716621 -0.6102452 0.4200843 10917781 male
1.426564 0.7265531 -0.7818514 0.7872762 0.467398 0.4021631 8357784 male
1.704173 0.3132307 -0.8553897 0.0224779 0.7025858 0.7112439 526600 male
1.782735 0.4541357 -0.7411125 0.3274575 0.201604 0.9231075 13539996 male
1.723147 0.4674973 -0.8840588 0.8510119 -0.3098989 -0.4239591 526600 male
1.741304 0.9590113 -0.765769 0.5708514 0.8156644 -0.09391655 11841729 male
1.686899 0.995863 -0.7387515 0.6094065 0.6975638 -0.3768667 14670567 male
1.564336 1.029028 -0.6726693 -0.5832319 0.810689 0.05122367 8421514 male
1.562235 0.6473905 -0.8567393 -0.1691375 0.1315687 0.9767712 5658725 male
1.3584 0.9201143 -0.7867117 -0.03995684 0.3931327 -0.9186131 8680053 male
1.308614 0.8461129 -0.9323511 -0.7512807 0.4025602 -0.5229938 7963026 male
1.69722 0.8351688 -0.7281072 0.1837876 -0.7643798 0.6180175 12959445 male
1.465287 0.5128768 -0.6050895 -0.2099741 -0.07816507 0.9745774 526600 male
1.530432 1.009321 -0.5885001 -0.3093388 -0.1235614 0.9428903 15512240 male
1.73815 0.8325261 -0.6214336 -0.9699898 -0.2431051 0.004441887 9205107 male
1.744916 0.8075854 -0.845948 0.2093721 0.008651776 -0.9777976 6775659 male
1.331639 0.7264877 -0.7689418 -0.5522401 0.2179582 0.8046895 3751234 male
1.530966 1.043485 -0.6505014 -0.0192174 0.6809433 -0.732084 12489618 male
1.64232 0.6140329 -0.9275819 0.275516 0.02805998 -0.9608868 3948612 male
1.735978 0.9579199 -0.7926494 0.6012055 0.7753466 -0.1933635 14011359 male
1.650898 0.9889466 -0.819437 0.1730163 0.9431801 -0.2836843 12039368 male
1.777663 0.5015025 -0.8035502 0.2814504 -0.1549711 -0.9469792 13083558 male
1.922243 0.8665304 -0.5692263 0.9827442 -0.1692791 -0.07455489 6644064 male
1.376567 0.8463562 -1.003502 -0.5894247 0.4804436 -0.6494248 13949412 male
1.814183 0.8753882 -0.5028417 -0.4841364 -0.1755703 0.8571972 14207184 male
1.684916 0.6119903 -0.8953037 -0.06366897 0.1918767 -0.9793516 526600 male
1.774143 0.711862 -0.7747595 0.9239676 0.007570522 0.3823959 15123909 male
1.708467 0.7377982 -0.7987586 -0.9868391 -0.1253712 0.1021301 921102 male
1.407902 0.8562893 -1.017578 -0.2640839 0.5075268 -0.8201684 8225947 male
1.646145 0.8255934 -0.8465973 0.345788 -0.8116265 -0.470843 8881290 male
1.319636 0.8767725 -0.9155741 -0.6801668 0.6026503 -0.4173555 6909825 male
1.671361 0.4324216 -0.8529136 -0.07043421 -0.3167879 0.9458776 526600 male
1.322355 0.8100457 -0.8058237 -0.3942214 0.2907837 0.8717995 2632240 male
1.488792 0.8277528 -1.016443 0.5612965 0.1571696 -0.812554 5722970 male
1.422081 1.059706 -0.6424579 0.6032662 -0.7601548 -0.2413184 13410467 male
1.77237 0.9374147 -0.5655371 -0.8244884 0.4856723 0.2904157 11708329 male
1.489634 0.5269002 -0.6949462 0.5352652 0.1527934 -0.8307499 526600 male
1.71647 0.9540943 -0.6413931 0.5372704 0.5367696 0.6505526 15780802 male
1.772857 0.8827626 -0.7357631 0.7212107 -0.5274964 0.4490018 8355208 male
1.427954 0.742576 -1.050668 0.1147591 -0.02592888 -0.9930549 5001052 male
1.288907 0.7638556 -0.8263821 -0.8176267 0.1254897 0.5619065 3026486 male
1.649487 0.3487697 -0.8985392 -0.4355008 -0.005675796 0.9001704 526600 male
1.746817 0.5831042 -0.875501 0.7433741 0.1119315 -0.659444 526600 male
1.54408 0.8308957 -0.897784 0.3654082 -0.8396123 -0.4019055 8682380 male
1.457981 0.5808886 -0.7782391 0.4613604 -0.3413876 -0.8189024 527376 male
1.642843 0.3165837 -0.9819149 0.08209705 -0.4606457 -0.883779 526600 male
1.78129 0.7736043 -0.7643308 0.8204874 -0.1464877 0.5525774 7367283 male
1.405234 0.2593123 -0.7767131 0.5754423 -0.7584044 -0.3060866 526600 male
1.664972 0.4027879 -0.9193693 0.2722671 -0.02563408 -0.9618802 526600 male
1.647302 0.3251297 -0.9767751 0.2518752 0.2900578 -0.9232688 526600 male
1.479174 0.9999852 -0.6497492 0.1077025 -0.8602743 -0.4983256 10784147 male
1.323485 1.052349 -0.6917357 -0.8322562 0.1866892 -0.5220122 11507349 male
1.629938 0.9626355 -0.5814984 0.5669078 -0.115963 0.8155785 12499142 male
1.916623 0.9007374 -0.5332966 0.9258533 0.1003717 0.3643091 526600 male
1.60418 0.8074821 -0.7699562 -0.2759022 -0.906125 0.3206487 14532025 male
1.541514 0.8807502 -0.9426011 0.6693479 -0.2826504 -0.6870824 6183518 male
1.667339 0.6051265 -0.8581256 -0.9424017 0.2160047 -0.2553837 526600 male
1.365439 0.8360954 -0.7895148 0.09813356 0.06740624 0.9928878 4471364 male
1.597164 1.049875 -0.62547 0.120317 0.8678775 -0.4819879 9078674 male
1.891121 0.8347252 -0.5233675 0.5623 -0.5065815 0.6536007 789516 male
1.41489 0.4380718 -0.6467217 -0.742012 -0.1088276 0.6614943 526600 male
1.413212 0.9720755 -0.8496928 -0.5888526 0.7466897 -0.3093657 11379894 male
1.375293 1.077714 -0.6179515 -0.03097582 -0.3186531 0.947365 15053995 male
1.57262 1.008424 -0.5708909 -0.3960312 0.03059603 0.9177272 7235958 male
1.476173 0.4557035 -0.6260608 0.5517278 -0.4477388 0.7036523 526600 male
1.606726 0.596082 -0.8355985 -0.5306057 -0.2680338 0.8041241 4342082 male
1.414713 0.5816185 -0.6999733 -0.9909484 -0.0652749 0.1173043 591369 male
1.492542 0.5774405 -0.6494569 0.4236135 0.1092425 0.8992317 592137 male
1.898877 0.8209764 -0.5661387 0.7216727 -0.6917974 -0.02459762 8750469 male
1.340465 0.9202912 -0.8547736 -0.5953801 0.8009166 0.0636805 9341595 male
1.748939 0.9409505 -0.6936993 0.5739307 0.809671 0.1226231 11447991 male
1.540669 0.9733888 -0.6202936 -0.02493207 -0.9836619 0.1782907 15054521 male
1.674118 0.605134 -0.8094892 -0.07692161 -0.2522192 0.964608 855053 male
1.766525 0.3226765 -0.751477 0.7504626 0.3581878 0.5554345 16235458 male
1.529606 0.8263286 -0.8876461 0.4281919 -0.8485466 -0.3108383 9341078 male
1.650259 0.398359 -0.8790911 -0.4709429 -0.05935133 0.8801648 526600 male
1.333165 0.6695066 -0.7660637 -0.7747962 -0.1206567 0.6205907 5463396 male
1.744352 0.5737113 -0.8810803 0.7112007 0.111376 -0.6941101 526600 male
1.853393 0.8280028 -0.512872 -0.006596804 -0.5460252 0.8377428 9996677 male
1.396424 0.5864404 -0.7238752 -0.9576068 -0.2167272 0.1897857 657675 male
1.439137 0.6316445 -0.9320634 -0.6230551 -0.6852407 0.3771572 4079172 male
1.662062 0.9863195 -0.6124718 0.4806402 0.3505289 0.8038125 5854815 male
1.743142 0.5102643 -0.8461674 0.8350048 -0.4013948 0.3763631 526600 male
1.681449 0.3598652 -0.8908935 0.5562955 0.3349178 0.7605034 526600 male
1.575781 0.9870736 -0.572328 -0.5179182 -0.4760821 0.7107086 8947092 male
1.499148 0.4948758 -0.6279377 0.8483658 -0.4130626 0.3311416 526600 male
1.798486 0.4700762 -0.7653781 0.9995947 -0.003853551 0.02820444 15383225 male
1.583979 0.8409242 -0.7157568 -0.001456663 -0.9935005 0.1138186 16120310 male
1.687234 0.3694104 -0.9100119 0.9445138 0.05880059 -0.3231659 526600 male
1.491198 0.9140302 -0.973561 0.2684971 0.5583581 -0.7849493 5855586 male
1.841768 0.9742485 -0.5783585 0.02683429 0.9909458 -0.1315533 16709374 male
1.599246 1.037578 -0.6127991 -0.08073305 0.9964529 -0.02374506 8946320 male
1.844031 0.9496538 -0.6235942 0.1994804 0.6627839 -0.7217514 9406607 male
1.836625 0.801125 -0.6047416 0.8090979 -0.2444635 -0.5344137 13606551 male
1.374605 0.5899627 -0.7656149 -0.8838873 -0.4620993 -0.07216385 1710876 male
1.429325 0.5443464 -0.6621212 -0.8543181 0.5085028 -0.1075425 526600 male
1.486003 0.9868296 -0.7228068 -0.6666071 0.6541395 0.3574025 6315620 male
1.610826 1.003923 -0.7959383 0.2296588 0.8326429 -0.5039472 12039109 male
1.291157 0.6866872 -0.8446215 -0.9019477 -0.4049556 0.1500044 9672867 male
1.412809 0.6733795 -1.023965 -0.1263362 -0.7477636 -0.6518348 5462628 male
1.85021 0.9399691 -0.5014714 -0.03095904 0.5347619 0.8444353 526344 male
1.82881 0.8403946 -0.6582429 0.3739367 -0.2448829 -0.894541 14594990 male
1.488503 0.7266552 -0.8991284 0.05217984 0.4778105 0.8769119 7239302 male
-2.535389 0.4183046 -1.29382 0.7645754 -0.0930544 -0.637782 4077621 male
-2.542275 -0.001027945 -1.291259 -0.8759882 -0.3360259 -0.3460225 1908771 male
-2.732454 -0.2465179 -1.204279 0.7811195 -0.351745 -0.5158761 2171688 male
-2.454574 0.1437331 -1.22113 0.9711187 -0.001165391 0.2385949 2697257 male
-2.537912 0.3830365 -1.289095 0.6891732 -0.2298875 -0.6871624 5264208 male
-2.78175 -0.1127591 -1.215645 -0.9380438 0.2258406 -0.2628118 2434090 male
-2.678938 0.5744175 -1.39867 -0.4394206 -0.1825749 -0.8795319 16772013 male
-2.64595 0.6331912 -1.412507 -0.3262869 0.08146223 -0.9417542 7104099 male
-2.864657 0.7686898 -1.435987 -0.9022222 -0.4186539 -0.103558 13153965 male
-2.687943 0.1031255 -1.268066 0.2263286 -0.04223099 -0.9731352 3554116 male
-2.428696 -0.2342821 -1.203763 0.9512548 -0.2689427 -0.1509447 2105894 male
-2.873822 0.7876436 -1.419518 -0.8957635 -0.4440679 0.02029234 4801857 male
-2.742159 0.4327633 -1.192539 -0.8556517 -0.0794938 0.5114108 5261637 male
-2.591815 0.3441605 -1.302908 0.320648 -0.4099827 -0.8538731 7236454 male
-2.5121 0.3245789 -1.136245 0.726364 0.2639426 0.6346102 7564649 male
-2.509015 0.01397237 -1.225054 -0.2560445 -0.157736 0.953709 3158840 male
-2.741005 0.061396 -1.163939 -0.7927569 -0.1635957 0.5871741 1842466 male
-2.602628 0.6537559 -1.401467 -0.3120558 -0.9030095 -0.2952881 5262152 male
-2.457417 -0.3310497 -1.177225 -0.728529 0.00993592 -0.6849431 2106152 male
-2.5868 0.5532951 -1.384536 0.719378 -0.2898711 -0.6312452 4735808 male
-2.747254 0.6670951 -1.412493 -0.03006016 -0.711818 -0.7017205 16773352 male
-2.521764 0.1934737 -1.307655 0.04918677 0.1785908 -0.9826934 4014408 male
-2.773246 -0.4267146 -1.28933 0.02439739 0.9958413 0.08777691 2105120 male
-2.759312 0.3958487 -1.308191 0.6299434 0.7532287 0.189256 16573664 male
-2.794054 -0.3084626 -1.159302 -0.4202434 0.09796418 0.9021081 3552824 male
-2.703133 0.6469744 -1.213569 0.343536 0.6594561 0.668656 6906977 male
-2.689035 0.6863106 -1.263572 -0.01192755 0.7043101 0.7097923 8418928 male
-2.554453 0.4996903 -1.346404 0.6390994 -0.1269297 -0.7585784 4275000 male
-2.682706 -0.07005191 -1.239161 0.727479 -0.458213 -0.5107009 2697257 male
-2.535876 0.6682113 -1.368227 0.8465018 0.2515976 0.4691839 8682108 male
-2.531842 0.2705636 -1.109241 0.41205 0.01739332 0.9109954 8617082 male
-2.67236 0.7158618 -1.371907 0.008899987 0.5725088 -0.8198504 4209974 male
-2.432677 -0.1417594 -1.309609 0.5185724 -0.5085083 -0.6873879 3026998 male
-2.561668 0.5844939 -1.432796 -0.7558249 -0.22592 -0.6145643 16773356 male
-2.746447 0.7074361 -1.438294 0.8140831 -0.567808 -0.1219135 11379348 male
-2.850273 0.5964873 -1.20052 -0.2459829 -0.1360448 0.9596795 8025970 male
-2.464356 0.2294132 -1.227805 0.9805769 0.1891415 -0.05190951 2565673 male
-2.575533 0.654364 -1.365054 -0.4776542 -0.6227886 0.6196621 3553076 male
-2.737617 -0.0002613895 -1.256048 -0.7456406 0.03293689 -0.665534 3289396 male
-2.704076 0.633877 -1.202813 0.3164815 0.5704072 0.7579415 7037791 male
-2.72976 0.4001636 -1.165807 -0.7673963 -0.1376868 0.6262153 4998980 male
-2.800477 0.3624004 -1.277434 -0.9970872 -0.01719276 -0.07430917 14205359 male
-2.883705 0.8356572 -1.435416 -0.9794618 0.1012971 -0.174338 3551278 male
-2.666228 0.2481074 -1.081081 -0.1737686 -0.02849466 0.9843743 4408651 male
-2.755312 0.8554168 -1.450004 0.8070953 0.4054833 -0.4291627 5919050 male
-2.752675 -0.06999862 -1.255001 -0.8109455 -0.07206659 -0.5806669 2434858 male
-2.813842 0.5219265 -1.286784 -0.1109944 0.08042743 -0.9905614 12498605 male
-2.816103 0.5963722 -1.227449 0.4986605 -0.8658462 -0.0405966 526344 male
-2.675983 0.2675661 -1.084641 -0.3196191 0.04659472 0.9463999 10064012 male
-2.772427 0.4836572 -1.245848 -0.8940918 -0.4471557 0.02553129 3946035 male
-2.534001 0.3096299 -1.113712 0.4330618 0.2403397 0.8687316 9339773 male
-2.718864 -0.2234465 -1.196398 0.8960288 -0.3662263 -0.25102 2038559 male
-2.473642 0.2717263 -1.223625 0.9682027 0.2499728 -0.009873569 2501420 male
-2.725873 0.2826267 -1.224452 -0.6231935 0.1625026 -0.7649988 5854289 male
-2.467745 0.4965964 -1.388197 -0.9294002 0.3651644 0.05357599 16775147 male
-2.773602 0.8835838 -1.442418 0.5425762 0.7278029 -0.4194211 3354670 male
-2.471713 0.0584425 -1.20741 0.7368623 -0.05647039 0.6736805 2434086 male
-2.616827 0.2078365 -1.257993 0.1872711 -0.8842667 -0.4277872 3750209 male
-2.804321 0.6784096 -1.306296 -0.8473307 0.3649813 -0.3857711 4669759 male
-2.739027 0.247336 -1.13506 -0.8694365 0.1057136 0.4826025 2302499 male
-2.479121 0.2897924 -1.243708 0.9417207 0.2445143 -0.2310309 6182997 male
-2.788435 -0.3439268 -1.201428 0.9671317 0.03748779 0.2514981 2106151 male
-2.782302 -0.1680159 -1.230128 -0.7926719 -0.03986334 -0.6083441 1842205 male
-2.670832 0.572135 -1.401719 -0.40385 -0.1835972 -0.8962129 9932162 male
-2.565948 0.07363825 -1.205562 -0.7912316 -0.4164929 0.4477571 2302499 male
-2.849833 -0.3947827 -1.174379 -0.0295127 -0.9316508 0.3621545 920846 male
-2.856902 0.5928844 -1.295715 -0.2111541 -0.3392065 -0.9167078 6907232 male
-2.44078 -0.2857624 -1.185866 0.189464 -0.1098961 -0.9757184 2829100 male
-2.737475 -0.1912864 -1.231953 0.4373041 -0.2728315 -0.8569296 2566189 male
-2.839461 -0.3490277 -1.190224 -0.9196422 -0.001581477 0.3927546 2499878 male
-2.489158 0.5109882 -1.382258 -0.9926262 -0.08157612 0.08965957 16704990 male
-2.51128 0.4326387 -1.509464 -0.5473854 0.8320771 -0.08953787 16772826 male
-2.562127 0.5997428 -1.356741 0.7004532 -0.1745018 -0.6920367 3749937 male
-2.859637 0.8738709 -1.453123 -0.6585826 0.6283897 -0.4139995 4932930 male
-2.780792 0.5883132 -1.349528 -0.5267075 -0.06996302 -0.8471628 7432027 male
-2.671992 0.5455353 -1.392062 -0.4636374 -0.3463136 -0.8155411 16704180 male
-2.789662 -0.1642732 -1.181691 -0.9595747 0.05478612 0.2760712 1777185 male
-2.553548 0.2988493 -1.287184 0.149784 -0.01039256 -0.9886643 7104356 male
-2.516268 0.6350133 -1.403533 0.921594 0.3801757 -0.0783025 10525079 male
-2.739685 0.7422866 -1.33662 0.2622466 0.4757163 0.8395957 16380126 male
-2.447266 -0.203927 -1.252845 0.08558068 -0.7046874 -0.7043378 2303529 male
-2.553438 0.4785682 -1.195583 0.7107844 0.226608 0.6659088 9734788 male
-2.429989 0.4702739 -1.448365 0.7843781 0.2083384 -0.5842485 16773095 male
-2.549485 0.6869316 -1.34889 0.7673257 0.3439105 0.5412365 10263188 male
-2.441093 -0.202456 -1.253161 0.3183714 -0.6777092 -0.6628349 2303529 male
-2.665344 0.08932367 -1.254972 0.5987375 -0.118905 -0.7920703 2500649 male
-2.442642 -0.06034353 -1.265969 0.4938936 0.7040592 0.5102646 2434085 male
-2.524842 -0.03000188 -1.31499 -0.7844559 -0.4643342 -0.4111241 2433573 male
-2.862198 0.8373173 -1.480898 -0.7336903 0.2076825 -0.6469675 12168099 male
-2.484209 0.2657245 -1.167258 0.8947573 0.2264912 0.3848526 2763050 male
-2.749969 0.7038787 -1.303312 -0.0535819 0.8928759 0.4471035 5787983 male
-2.530189 0.6689425 -1.386827 0.9314957 0.3229786 0.1673348 9735044 male
-2.648949 0.04067027 -1.225029 0.9019369 -0.1629304 -0.3999548 2500648 male
-2.794482 0.4317033 -1.439884 -0.9436339 0.1429302 0.2985404 14530992 male
-2.706149 0.3539768 -1.273888 -0.7106843 -0.4250992 -0.5605522 7038307 male
-2.744188 -0.2755901 -1.181684 0.9405236 -0.3248293 -0.09950578 1776669 male
-2.434405 -0.1171266 -1.324796 0.5968995 -0.425896 -0.679944 3224377 male
-2.721001 -0.07976372 -1.162797 0.2099366 0.3386495 0.9171932 2632496 male
-2.784756 0.824984 -1.495412 0.4940518 0.2437327 -0.8345702 6904657 male
-2.469083 -0.03995925 -1.278453 0.01889528 0.7695222 0.6383405 2500652 male
-2.630786 0.07910817 -1.172662 0.9086322 -0.3600789 0.2114972 2171425 male
-2.612689 0.5631499 -1.408349 0.2185325 -0.3720205 -0.9021333 5394506 male
-2.776839 -0.1784561 -1.158903 -0.6687891 0.01746291 0.7432473 2499110 male
-2.834554 -0.3587261 -1.237308 -0.7764664 0.4616084 -0.428973 2105894 male
-2.547394 0.7045132 -1.395956 0.7911027 0.5942241 -0.1451015 11249569 male
-2.494533 -0.1720732 -1.226462 -0.9626551 -0.15881 0.21926 1907229 male
-2.734803 0.3740126 -1.203968 0.9300044 0.366816 0.02319777 15651277 male
-2.720757 0.5524647 -1.367718 -0.1861818 -0.2825375 -0.9410149 11839120 male
-2.763546 -0.302312 -1.188085 0.9921858 -0.1215803 0.02803391 2105635 male
-2.709211 0.3570014 -1.123608 -0.4907351 0.4295617 0.7580608 5985102 male
-2.829494 0.8337615 -1.328957 -0.313058 0.1089498 0.9434644 4932154 male
-2.582598 0.700244 -1.427421 0.04507633 0.7157618 -0.6968883 4605248 male
-2.869635 0.843191 -1.361643 -0.8077555 0.09973116 0.5810207 6511192 male
-2.834059 0.768003 -1.471047 0.09817152 -0.3066753 -0.946738 9273214 male
-2.529741 -0.03565173 -1.281599 -0.8405988 -0.2278855 0.491388 2499878 male
-2.416727 -0.104496 -1.266167 0.9617448 0.2078508 0.178452 2367780 male
-2.524462 0.4824503 -1.282896 0.9939123 -0.03446712 -0.104646 3683377 male
-2.643794 0.6006404 -1.208429 0.2754451 0.3736502 0.885729 9012094 male
-2.45248 0.06166334 -1.270139 0.9844089 -0.05766352 -0.166176 2237481 male
-2.733618 0.1692412 -1.129027 -0.6853662 -0.1668727 0.7088207 3684161 male
-2.7869 0.8954899 -1.372267 0.3671309 0.8308308 0.4182526 4406587 male
-2.834322 0.7276491 -1.452539 -0.68883 -0.5625153 -0.4572636 16772577 male
-2.739036 0.1544523 -1.252463 -0.6913399 0.1352301 -0.7097622 2829875 male
-2.590915 0.2506675 -1.287816 0.1413352 -0.04847446 -0.9887745 2040100 male
