# .PCD v0.7 - Point Cloud Data file format
VERSION 0.7
FIELDS x y z normal_x normal_y normal_z rgb label
SIZE 4 4 4 4 4 4 4 4
TYPE F F F F F F U U
COUNT 1 1 1 1 1 1 1 1
WIDTH 247
HEIGHT 1
VIEWPOINT 0 0 0 1 0 0 0
POINTS 247
DATA ascii
1.508022 1.077809 -0.7413181 0.09672678 -0.09866613 0.9904085 8683148 male
1.471155 0.6562511 -0.8352026 0.707643 -0.2210467 -0.6711034 591881 male
1.530263 0.4976161 -0.9381747 -0.7350165 -0.2579594 0.6270628 526600 male
1.405037 0.7785068 -0.7431896 -0.7931737 -0.06676352 0.6053248 4213073 male
1.512298 1.031524 -0.7498206 0.2685848 0.01536217 0.9631335 8682892 male
1.535134 0.6032092 -0.967433 -0.8584963 0.3580817 -0.3670987 526600 male
1.5752 1.309577 -0.7540113 0.7942063 0.1847785 0.5788723 16053974 male
1.510612 1.354004 -0.7215121 0.4689372 0.4063249 0.784218 14801129 male
1.655126 1.548428 -0.8021759 0.9481065 -0.06911545 -0.31035 16175821 male
1.595854 0.8148318 -0.8394442 0.2072322 -0.1690555 0.9635742 5923697 male
1.342882 0.4581318 -0.8125008 -0.9788704 -0.07030483 -0.1920153 526600 male
1.656702 1.598495 -0.7812926 0.9569144 0.2896713 -0.02013272 15446707 male
1.556805 1.149624 -0.9499212 0.06452984 -0.2474654 -0.9667454 7236472 male
1.576357 1.114065 -0.7580541 0.6587458 -0.06821804 0.7492664 11644094 male
1.384495 0.9277718 -0.8238498 -0.9938278 0.1043304 0.03770211 4408139 male
1.436985 0.6882531 -0.8495911 -0.1030445 -0.1185638 -0.9875851 6975616 male
1.571529 0.821598 -0.9769459 -0.03244951 -0.07371499 -0.9967513 8093324 male
1.432502 1.282837 -0.7185426 0.9626791 -0.2209384 0.1563177 13679808 male
1.404196 0.2597596 -0.7446042 0.1838915 -0.9722857 -0.1443761 526600 male
1.51501 1.252829 -0.7174969 0.02061772 -0.377161 0.9259182 8354183 male
1.57899 1.417475 -0.7763075 0.3767179 -0.4962025 0.7822191 16373714 male
1.542432 0.854628 -0.7944543 0.9014624 -0.4204397 0.1029377 8686228 male
1.699626 0.2746528 -0.8762801 0.142818 -0.9425601 -0.3019661 526600 male
1.644846 1.108106 -1.016401 -0.7981877 -0.5386667 -0.2696935 13480626 male
1.583574 0.3936308 -0.9517146 0.08024555 0.0352059 0.9961532 526600 male
1.490229 1.29777 -0.9355506 -0.7632589 0.10679 -0.6372063 11906758 male
1.417299 1.310057 -0.8628941 -0.7629977 0.03026157 -0.6456925 14540526 male
1.53258 1.203789 -0.7272548 0.3320218 -0.08666699 0.9392818 9866911 male
1.542215 0.6818589 -0.8786291 -0.5283474 -0.1610669 0.8336106 4144710 male
1.371366 1.305049 -0.7135251 -0.8304007 0.2458919 0.4999718 15908277 male
1.395873 0.9575489 -0.8874573 -0.841579 0.0165746 -0.5398796 7765647 male
1.642024 1.339314 -0.846381 0.7852094 0.3156816 0.5327207 16051194 male
1.37036 0.4449348 -0.7647836 -0.3868007 -0.1069997 0.9159346 526600 male
1.404552 1.355525 -0.7015901 -0.2081386 -0.02221548 0.977847 7829378 male
1.585358 1.457202 -0.7308717 -0.4629566 -0.6385615 0.6147441 10718082 male
1.615221 1.356174 -0.9966305 -0.2814119 0.08411492 -0.9558933 10986417 male
1.405084 0.8982913 -0.7533906 -0.8029749 0.1110615 0.5855738 3553606 male
1.35815 0.587571 -0.8070154 -0.9197373 0.3916313 0.02661294 526600 male
1.617711 0.641072 -0.8838512 0.5890709 -0.3278302 0.7385952 8619667 male
1.496218 1.321097 -0.938687 -0.7700479 0.1808464 -0.6118177 15526648 male
1.499756 1.125411 -0.9324825 -0.6146994 -0.1543803 -0.7735059 10262699 male
1.6186 1.218367 -0.9762792 -0.9135293 -0.2357983 0.3314562 657674 male
1.579665 1.545303 -0.8765692 0.1979881 -0.2296611 -0.95292 14339028 male
1.530869 0.9234708 -0.9871789 -0.1064285 0.03030505 -0.9938585 7568520 male
1.537169 1.594972 -0.741467 -0.6441125 0.1922729 0.7403717 11314087 male
1.590314 0.5791076 -0.9093686 0.1871303 -0.3820181 0.9050106 526600 male
1.675037 1.275805 -0.9475415 0.8514448 0.09826005 0.515157 16178393 male
1.643808 0.80148 -0.9365194 0.8678166 -0.02113624 -0.4964349 6711414 male
1.537912 0.9868363 -0.9828961 0.06990427 0.09499576 -0.9930203 8553617 male
1.636386 1.248095 -0.9021502 0.9397278 -0.08783766 -0.3304486 526344 male
1.388345 0.9760241 -0.8673476 -0.9524274 0.1086468 -0.2847418 7830416 male
1.570045 0.6980704 -0.8635598 -0.2457949 -0.2140092 0.945402 5067869 male
1.436205 0.9590383 -0.7334033 -0.4386311 0.1604109 0.8842347 2632240 male
1.605938 0.9993529 -0.8241732 0.9051062 -0.1386888 0.4019304 11906501 male
1.373782 1.145989 -0.707226 0.9908752 0.08455845 0.1049572 15779530 male
1.538971 1.625733 -0.7570063 -0.5500298 0.5722252 0.6082973 723723 male
1.424507 0.712006 -0.8494776 -0.3200914 -0.1034744 -0.9417189 5725548 male
1.490907 1.443775 -0.8304977 -0.4680251 0.7812943 -0.4129549 15254461 male
1.559044 1.399104 -0.9428078 -0.2005442 0.6371101 -0.7442262 11381180 male
1.509661 0.8900505 -0.9741435 -0.4183534 -0.4182018 -0.8062801 6843516 male
1.448941 0.9491576 -0.728224 -0.1976701 0.1860757 0.962446 3882051 male
1.570517 0.3073082 -0.9617809 -0.7399049 -0.04039146 0.6714978 526600 male
1.607824 0.4769965 -0.9864922 0.8317624 -0.1432423 -0.5363327 526600 male
1.565893 1.306741 -0.7414132 0.7411078 0.2064769 0.6388478 14998409 male
1.457075 0.8139001 -0.874446 -0.1019798 -0.1898857 -0.9764955 5989227 male
1.604162 0.2832129 -1.014867 0.213888 -0.7439222 -0.6331125 526600 male
1.676973 1.379963 -0.927597 0.7924412 0.5639697 0.2323253 16248826 male
1.379395 0.2604555 -0.7006653 -0.07418305 -0.9860225 0.1491862 526600 male
1.594969 0.3778622 -0.9583425 0.7215563 0.1542648 0.674951 526600 male
1.558346 0.3250871 -1.021173 0.1897624 0.4022948 -0.8956278 526600 male
1.365036 1.188739 -0.7016145 0.8558819 0.2562815 0.449206 15184821 male
1.327825 1.121361 -0.7333289 -0.5494917 -0.4835548 -0.6813469 13474726 male
1.422255 1.283863 -0.7489783 -0.4551959 -0.4064858 0.7921906 460808 male
1.633989 1.632877 -0.7655105 0.6371732 0.7331352 0.2377459 526600 male
1.644712 1.244699 -0.8413004 0.924144 -0.3369781 0.1800099 8682893 male
1.577387 1.281946 -0.7513951 0.8674043 0.02570709 0.4969396 16251895 male
1.537098 0.6190861 -0.9332172 -0.9972532 0.06853339 0.02809533 526600 male
1.509048 1.015745 -0.7466054 0.3301753 0.04697101 0.9427502 9406871 male
1.40053 1.276735 -0.6919237 0.2363026 0.2110447 0.9484836 16766162 male
1.521093 1.464346 -0.8479283 -0.669372 0.3112241 -0.6745967 15643044 male
1.399638 0.3949355 -0.7966415 0.9854696 -0.1552535 0.06889254 526600 male
1.391785 1.015301 -0.8554289 -0.9304482 0.2631333 -0.2550039 9608106 male
1.365737 1.103999 -0.6648844 0.5369465 0.4405355 0.719456 15317948 male
1.456389 1.364707 -0.7072852 0.6055936 -0.467334 0.6440926 8025218 male
1.403932 0.4086855 -0.8102974 0.9497724 -0.2822863 -0.1350813 526600 male
1.532816 0.8188694 -0.8458703 -0.4925531 -0.2274777 0.8400269 2697261 male
1.361848 0.5325707 -0.7687703 -0.6601822 0.09802741 0.7446811 526600 male
1.450068 0.7201191 -0.7313595 0.01893607 -0.3174841 0.9480745 7304067 male
1.65854 1.592466 -0.7775824 0.9735503 0.2278834 0.01640043 15713222 male
1.404483 1.05966 -0.8188298 -0.8498555 0.5259362 0.03371471 6907505 male
1.534677 1.430447 -0.8869769 -0.4757725 0.7781342 -0.4100582 12762833 male
1.379953 1.386084 -0.7454872 -0.9433455 0.3306744 -0.02745199 7038323 male
1.533391 0.7516329 -0.8704035 -0.594782 -0.2504126 0.7638899 2829099 male
1.760669 0.956875 -1.029725 0.1897821 -0.101714 -0.9765434 15380141 male
1.605658 1.125198 -0.7848083 0.7371791 -0.06672568 0.6723946 11577792 male
1.538543 0.5440004 -0.9232236 -0.524147 -0.01728283 0.8514525 526600 male
1.420352 0.5482682 -0.7657781 0.7051195 -0.19826 0.6808079 526600 male
1.579198 0.5178253 -1.008872 0.226856 -0.005034066 -0.9739153 526600 male
1.579308 1.612153 -0.7258465 -0.2480456 0.4672968 0.8485913 9275016 male
1.347455 0.5434851 -0.8266722 -0.9055232 0.1710388 -0.3882955 526600 male
1.525875 0.6798753 -0.8981963 -0.9246317 -0.08085809 0.3721802 723981 male
1.52032 1.285502 -0.7070202 0.2685658 -0.1513467 0.9512972 9604766 male
1.519361 0.5394509 -0.9552228 -0.9969611 0.03066487 0.07161158 526600 male
1.573654 0.3472926 -1.012693 0.1196697 -0.002247681 -0.9928112 526600 male
1.44943 1.362229 -0.7139506 0.7346845 -0.4199901 0.5327728 10524840 male
1.446928 0.6044691 -0.7537762 0.5550487 -0.5131864 0.6546454 526344 male
1.61367 1.171928 -1.003358 -0.9196868 -0.3890269 0.05323714 10128528 male
1.604162 1.23304 -0.787599 0.5974602 0.05556717 0.799971 14533052 male
1.581462 0.7199113 -0.8569933 -0.06345949 -0.1936296 0.9790202 4145482 male
1.542061 1.039747 -0.9720154 -0.05053267 0.412071 -0.9097494 6382698 male
1.588731 1.605204 -0.8771945 0.23722 0.2410503 -0.9410746 5591125 male
1.403733 1.257918 -0.6951407 0.5353332 0.02150897 0.844367 16435402 male
1.613305 1.622138 -0.8569623 0.5533514 0.4889117 -0.6743646 4276805 male
1.649366 1.545753 -0.7590815 0.5359086 -0.3582861 0.7644821 7232090 male
1.40425 0.741994 -0.840152 -0.7346087 -0.04174934 -0.6772053 3421759 male
1.343878 0.5257839 -0.8230368 -0.9493188 0.06575428 -0.3073602 526600 male
1.474329 1.082969 -0.7420815 -0.2574691 -0.08138201 0.9628533 11247275 male
1.464304 1.332054 -0.8916066 -0.5306375 0.2889481 -0.7968268 13354714 male
1.395205 0.592562 -0.7582125 -0.4165419 0.1051785 0.9030118 526600 male
1.555865 0.9126455 -0.9855812 0.08330274 -0.01265534 -0.9964439 6514547 male
1.516132 1.628675 -0.825866 -0.7880027 0.5751501 -0.2196681 526344 male
1.652112 1.503361 -0.7732426 0.9714547 -0.2093824 0.1115109 16237757 male
1.627152 0.8810049 -0.8470529 0.6543841 0.08714539 0.7511238 6712703 male
-2.607895 0.2649719 -1.24834 0.7836498 -0.5922483 -0.1874436 7695725 male
-2.629269 -0.01754188 -1.256102 -0.5632083 -0.00964989 -0.8262588 2368039 male
-2.70988 -0.3122084 -1.357234 0.9067101 -0.05279521 0.418437 1775643 male
-2.62936 0.04641539 -1.110377 0.08935237 -0.342784 0.9351555 3223606 male
-2.589865 0.2687337 -1.283049 0.6290137 -0.7759556 -0.04727429 6116946 male
-2.744996 -0.120889 -1.392048 -0.4998796 0.1556253 -0.8519985 3553598 male
-2.836436 0.2542582 -1.168326 -0.9227523 0.2520328 0.2915613 6578012 male
-2.776909 0.2928423 -1.305384 -0.6398045 -0.3972977 -0.6578792 4143671 male
-2.519415 0.391331 -1.686154 -0.4855062 0.001180862 -0.8742326 16242638 male
-2.688616 -0.04716592 -1.27617 0.8683069 -0.05589636 0.4928682 1973534 male
-2.56421 -0.283338 -1.268176 -0.5261913 -0.09526518 -0.8450133 1776411 male
-2.465429 0.4811145 -1.709031 0.5035371 0.2429 -0.8291262 7827304 male
-2.774614 0.4103508 -1.339579 -0.8937485 0.4069115 0.1887777 4406843 male
-2.668982 0.1718666 -1.265334 0.4378144 -0.15241 -0.8860532 7697269 male
-2.645892 0.3704468 -1.171381 0.03749001 0.5319861 0.8459229 7036251 male
-2.602662 -0.1578382 -1.214381 -0.9590238 0.07168901 0.2741063 2302500 male
-2.793956 0.03945366 -1.316918 -0.6192077 -0.04238049 -0.7840829 2763309 male
-2.415522 0.4079106 -1.41589 0.6984506 0.4118077 0.5853044 5393994 male
-2.53964 -0.437833 -1.278977 -0.4888102 -0.7720815 -0.4061465 526600 male
-2.487251 0.4162157 -1.483695 -0.3066052 0.1889562 -0.9328929 10920345 male
-2.551266 0.3675876 -1.581841 0.1221398 -0.9499705 0.2874682 12496806 male
-2.554488 0.09409849 -1.187254 0.987065 0.1541329 -0.0441159 2829363 male
-2.635584 -0.4597074 -1.425365 0.0115843 -0.9906847 -0.1356819 526600 male
-2.690932 0.3407978 -1.904949 -0.05573896 0.9962634 -0.06597266 14599607 male
-2.72445 -0.2859241 -1.396662 -0.09894896 -0.1301142 -0.9865494 2302499 male
-2.717514 0.4998914 -1.421121 -0.3591195 0.9117829 0.1992118 9011583 male
-2.545146 0.4998825 -1.376869 0.1322553 0.9627823 0.2357091 9275776 male
-2.52777 0.3118632 -1.389314 0.4855756 -0.8737823 -0.02684963 4538428 male
-2.681341 -0.02602561 -1.299259 0.9935885 0.005445806 0.1129276 2763050 male
-2.236861 0.1733919 -1.749324 -0.7275239 -0.5919295 0.3468843 6246734 male
-2.683696 0.2343087 -1.073501 -0.001406759 0.2215677 0.9751441 11314337 male
-2.553402 0.498369 -1.480733 0.2011377 0.9412318 -0.2713417 8024941 male
-2.509758 -0.173068 -1.224813 0.9821115 0.06851806 0.1753932 2632488 male
-2.364354 0.3421616 -1.516491 0.5500485 0.7493106 -0.3687551 10721940 male
-2.505811 0.3289483 -1.637043 0.6379018 -0.7368449 -0.2239221 13023149 male
-2.743629 0.3913686 -1.603822 -0.9990174 0.02979706 0.03281105 8024433 male
-2.602901 0.1753338 -1.207033 0.5094326 0.4695788 -0.7210925 4276289 male
-2.407593 0.3220959 -1.444118 -0.1077175 -0.6175426 0.7791266 3092007 male
-2.739629 0.02941807 -1.332463 0.1731669 0.1902809 -0.9663368 4344138 male
-2.717793 0.5008336 -1.433628 -0.353809 0.9312633 0.08699432 9143683 male
-2.612053 0.5042435 -1.443092 0.09581976 0.9929699 0.06949405 6117452 male
-2.684016 0.3326186 -1.867251 0.7311692 0.6498845 0.2074654 16504774 male
-2.587034 0.4569967 -1.577693 -0.7704724 0.6368891 -0.02729008 3946547 male
-2.808096 0.274494 -1.143032 -0.5686269 0.5195106 0.6377872 8617080 male
-2.429451 0.4690953 -1.624566 0.9849198 -0.09480749 0.1447228 3947060 male
-2.721736 -0.05194391 -1.379442 -0.3213781 0.1049644 -0.9411159 3289140 male
-2.66729 0.3727418 -1.702787 0.7904291 0.5785415 -0.2012753 10392461 male
-2.705952 0.333188 -1.648475 0.3155707 -0.9332992 0.1713703 2895404 male
-2.805325 0.3049199 -1.169189 -0.5560088 0.6433833 0.5262244 7959152 male
-2.733285 0.3762886 -1.478372 -0.8811483 -0.4728306 -0.003022432 5196359 male
-2.704203 0.3716348 -1.191675 -0.345237 0.7214067 0.6003198 10064009 male
-2.68525 -0.02123704 -1.338211 0.8684466 0.2083861 -0.4498623 3355195 male
-2.586974 0.223932 -1.168694 0.8494975 0.2806362 -0.4467635 3750969 male
-2.679865 0.2540196 -1.343814 0.04972541 -0.8491434 -0.5258164 7629670 male
-2.313907 0.2734202 -1.546933 0.01687139 0.8983765 -0.4389023 13678759 male
-2.4863 0.4756529 -1.543992 0.3722102 0.07476328 0.9251326 8090222 male
-2.602192 -0.07298568 -1.184422 -0.385958 -0.3055902 0.8704317 2566447 male
-2.51487 -0.4215024 -1.365761 0.1264113 0.9570988 -0.2607337 3158067 male
-2.652832 0.4425462 -1.534933 0.7216946 0.01446465 -0.6920606 4670271 male
-2.857328 0.1107947 -1.192259 -0.9531177 -0.3012991 0.02803284 3419956 male
-2.595093 0.2048187 -1.185712 0.6547107 0.3846595 -0.6506852 1579032 male
-2.678486 -0.4387075 -1.428405 0.4561743 -0.8346096 0.3087587 1776667 male
-2.746191 -0.09644976 -1.307093 -0.5218651 0.08601054 0.848681 2566186 male
-2.839946 0.2418784 -1.170793 -0.9499387 0.2027421 0.2377236 6249047 male
-2.702305 0.1506771 -1.069948 -0.2997669 -0.5289413 0.7939528 2565927 male
-2.714853 -0.4497609 -1.442026 0.1100335 -0.9912094 0.07346128 526600 male
-2.73783 0.4375525 -1.588715 -0.6507162 0.7292594 -0.2115401 8945279 male
-2.54354 -0.402629 -1.275895 -0.9303547 0.1974572 -0.3089516 1973793 male
-2.712759 -0.2428923 -1.398473 0.291039 -0.1099576 -0.9503715 2039329 male
-2.757191 -0.3868702 -1.368135 0.6961725 0.1995745 0.6895754 2302757 male
-2.421204 0.3150099 -1.473609 -0.6567037 -0.7430813 0.1287268 5590857 male
-2.250847 0.1730865 -1.662446 -0.766095 -0.5560461 -0.3223529 14601158 male
-2.440841 0.4519349 -1.423041 0.6814117 0.7317255 -0.01599771 7629927 male
-2.500662 0.5206735 -1.69492 -0.05108428 0.6623339 -0.7474653 6116172 male
-2.534669 0.4209171 -1.487202 0.6883652 -0.3740647 -0.6214734 5590084 male
-2.819036 0.1774028 -1.114609 -0.6029638 -0.09847371 0.7916678 4342346 male
-2.766857 -0.1278092 -1.325238 -0.8353045 0.1574591 0.5267575 2697519 male
-2.623733 0.219577 -1.21122 0.6533231 0.06756507 -0.7540585 10985369 male
-2.387308 0.3391562 -1.447694 0.6397409 -0.007896256 0.7685502 8091763 male
-2.535299 0.4718195 -1.499183 0.8924784 0.4091942 -0.189849 6643290 male
-2.510395 -0.2247458 -1.243533 0.9945848 -0.08197597 -0.06388646 2434085 male
-2.687505 0.3414306 -1.149377 -0.1976069 0.7821089 0.5909799 8880253 male
-2.283337 0.2258235 -1.516372 0.8012756 0.2659213 0.5359511 16507093 male
-2.38136 0.3613744 -1.459255 0.817337 0.2765875 0.5054305 9800837 male
-2.512484 -0.2288645 -1.226971 0.9659247 -0.1129524 0.2328766 2105120 male
-2.694845 -0.01356176 -1.258969 0.907137 -0.02627943 0.4200143 1710362 male
-2.554015 -0.05499197 -1.196545 0.8547958 0.02861085 0.5181755 2697257 male
-2.569983 -0.06450389 -1.282458 0.09560722 0.003514351 -0.9954131 4277062 male
-2.5434 0.4332017 -1.697813 -0.6450716 -0.1653337 -0.7460213 14336953 male
-2.639158 0.2303836 -1.084329 0.5273501 0.1870868 0.8287947 5919568 male
-2.651544 0.5005292 -1.523373 -0.06976242 0.8044378 -0.5899265 6905692 male
-2.410272 0.3131503 -1.531828 -0.6928899 -0.136983 -0.7079121 7892847 male
-2.731735 0.05897835 -1.319121 0.4333656 0.3097679 -0.8463086 4541008 male
-2.833836 0.1695475 -1.128623 -0.7901038 -0.0847035 0.6070927 3422012 male
-2.704754 -0.002863858 -1.337427 0.5048792 0.3513471 -0.7884493 4869466 male
-2.587677 0.09595315 -1.112357 0.689406 -0.1795182 0.7017784 2631982 male
-2.754842 -0.1543052 -1.391747 -0.6257633 0.06635098 -0.777186 2170403 male
-2.441778 0.4230834 -1.652049 0.9452352 -0.3085127 -0.1065397 9799292 male
-2.577623 -0.06048992 -1.180934 0.3854396 -0.1675841 0.9073876 2171429 male
-2.766423 0.09671658 -1.127778 0.3942901 -0.5061843 0.7670156 3684928 male
-2.50748 0.4052628 -1.472826 0.1004778 -0.09615419 -0.9902822 4341050 male
-2.743449 -0.2086254 -1.398054 -0.4546973 -0.1246414 -0.8818816 1908256 male
-2.778894 -0.390462 -1.384781 -0.9957568 0.01914899 0.09001195 3225145 male
-2.382448 0.3727125 -1.48643 0.7174203 0.6784284 -0.1582506 16639444 male
-2.565231 -0.1867686 -1.269532 -0.3364011 0.04330557 -0.9407227 2565934 male
-2.751204 0.3025929 -1.843645 -0.8909857 -0.2254218 -0.394119 15847880 male
-2.581908 0.3591992 -1.479218 0.1763462 -0.6860496 -0.7058598 11115932 male
-2.700871 -0.2777416 -1.372843 0.9905342 -0.00275835 -0.1372394 2565671 male
-2.659186 0.4715659 -1.331904 -0.05700654 0.8069319 0.5878873 7563877 male
-2.569362 0.4973864 -1.592034 -0.9112356 0.3020876 0.2799878 3288362 male
-2.404607 0.3896171 -1.427323 0.7003772 0.3117905 0.6420738 8485753 male
-2.571064 0.505753 -1.629735 -0.934172 0.3532846 -0.05012828 3946804 male
-2.541347 0.412533 -1.686362 -0.4782704 -0.2951805 -0.8271191 14666434 male
-2.616122 -0.04759273 -1.165104 -0.2592944 -0.4138583 0.8726327 2960173 male
-2.534971 -0.131232 -1.195955 0.643127 0.229874 0.7304423 2170660 male
-2.584369 0.3087973 -1.199231 0.9236646 -0.1909771 0.3322226 3880242 male
-2.590484 0.4941376 -1.359238 -0.2463486 0.9188439 0.308283 9077881 male
-2.571701 0.04889607 -1.144568 0.7612334 -0.2172418 0.6110073 2301990 male
-2.856538 0.1272496 -1.180587 -0.9686351 -0.2384862 0.06978995 3222578 male
-2.510451 0.5302515 -1.566045 -0.1193791 0.6856577 0.7180684 10195339 male
-2.571838 0.3762624 -1.634962 -0.908622 -0.3703994 -0.1929002 13550517 male
-2.763197 0.1232814 -1.297341 0.1833878 0.4398615 -0.8791422 3881796 male
-2.739826 0.2336887 -1.281618 -0.03737882 -0.3604104 -0.9320448 7761002 male
-2.769738 -0.4369138 -1.454234 -0.9091358 -0.3875969 -0.1524496 2302499 male
