# .PCD v0.7 - Point Cloud Data file format
VERSION 0.7
FIELDS x y z normal_x normal_y normal_z rgb label
SIZE 4 4 4 4 4 4 4 4
TYPE F F F F F F U U
COUNT 1 1 1 1 1 1 1 1
WIDTH 246
HEIGHT 1
VIEWPOINT 0 0 0 1 0 0 0
POINTS 246
DATA ascii
1.483891 1.017086 -0.713984 0.07634047 -0.0874569 0.9932389 7630976 male
1.456398 0.6090847 -0.8098814 0.9170393 -0.3836321 -0.1089279 592137 male
1.561197 0.4769803 -0.9085317 -0.5087106 -0.3310252 0.7947551 526600 male
1.383204 0.7771683 -0.7323115 -0.8689927 -0.02306669 0.4942869 5198432 male
1.493173 1.005478 -0.7162946 0.1877986 -0.01570212 0.9820821 8881044 male
1.617453 0.5332415 -0.975246 0.5770468 0.1697005 -0.7988858 526600 male
1.525237 1.28604 -0.7122946 0.7083837 0.2507447 0.6597877 14078835 male
1.459271 1.335355 -0.6970352 0.3746717 0.4481366 0.8116617 15458547 male
1.597065 1.532357 -0.7987953 0.8750435 -0.09311864 -0.4750029 12100006 male
1.580757 0.7884157 -0.8022462 0.01740795 -0.2281393 0.9734728 5726058 male
1.33578 0.3470656 -0.8060483 -0.8861923 -0.04441491 0.4611836 526600 male
1.606706 1.577401 -0.7589707 0.9605011 0.2782705 0.001731336 15446707 male
1.567563 1.098104 -0.9037355 0.4577699 0.168547 -0.8729482 5328985 male
1.536899 1.123641 -0.7104251 0.4472738 -0.01551182 0.8942626 8289933 male
1.375787 0.9345477 -0.801047 -0.9921855 0.102141 0.07166016 4343122 male
1.402396 0.6915215 -0.8367513 -0.4138328 0.0001725054 -0.9103528 6515059 male
1.568378 0.7734025 -0.9401138 -0.08148485 -0.003059283 -0.9966698 9869997 male
1.397624 1.32504 -0.73494 0.8039277 -0.3877425 -0.4509501 526600 male
1.373975 0.2342867 -0.7606971 0.2029382 -0.9743285 -0.09746846 526600 male
1.485772 1.216131 -0.6930535 0.1008957 -0.0771914 0.9918979 8289421 male
1.52849 1.398332 -0.7545049 0.3597186 -0.4792841 0.8005557 16373714 male
1.482016 0.821746 -0.6987497 0.4975531 -0.08188256 0.8635601 9147812 male
1.71743 0.2596534 -0.8525149 0.2946991 -0.7350067 -0.6106698 526600 male
1.605773 1.085341 -0.9578415 -0.8448413 -0.5323552 0.05330062 3617074 male
1.614926 0.3565599 -0.9310198 7.95722E-06 0.1961825 0.9805675 526600 male
1.44781 1.250364 -0.8955517 -0.7746277 -0.04248405 -0.6309888 11710403 male
1.452183 1.373201 -0.856122 -0.5046558 0.468402 -0.7252048 15658231 male
1.48086 0.8856841 -0.930932 -0.5854563 -0.4048482 -0.7023808 9212841 male
1.538952 0.646863 -0.8635535 -0.7652748 -0.2157777 0.6064606 3092015 male
1.326238 1.288104 -0.7138619 -0.93492 0.1267855 0.3314365 15648195 male
1.409894 0.9544619 -0.8834946 -0.611688 0.1558503 -0.7755957 7239045 male
1.6007 1.336219 -0.8196627 0.7164263 0.4352349 0.5452559 16117240 male
1.344963 0.4236242 -0.7800546 -0.5823377 -0.1195828 0.8041037 526600 male
1.336126 1.317343 -0.7047518 -0.6865132 0.1001459 0.7201877 11904683 male
1.539287 1.443714 -0.7067886 -0.2263499 -0.3870744 0.8938339 11835795 male
1.617779 1.340897 -0.958072 0.5888189 0.1201269 -0.7992884 6840945 male
1.376945 0.8230271 -0.748345 -0.9464335 0.01087885 0.3227153 3355964 male
1.345233 0.5671918 -0.8249913 -0.8645253 0.4289345 -0.2619376 526600 male
1.627362 0.6176557 -0.8555312 0.6034184 -0.3464471 0.7182344 6120044 male
1.454334 1.280611 -0.9016796 -0.7737461 0.07909741 -0.6285385 12169411 male
1.46088 1.098222 -0.8709644 -0.7159941 -0.1060907 -0.6899979 9867169 male
1.680594 1.07576 -0.9558538 0.9309415 0.3524705 -0.09545976 14527148 male
1.598773 1.581318 -0.7986202 0.9063123 0.2562631 -0.3360466 6184030 male
1.608939 1.095466 -0.8552686 0.9707816 0.05362099 -0.233897 7892856 male
1.486817 1.574171 -0.7206609 -0.6517903 0.1787598 0.7370309 11314087 male
1.588144 0.5817907 -0.8733312 -0.07044294 -0.4778227 0.8756272 789260 male
1.639312 1.265228 -0.9269505 0.9547317 0.265386 0.1343785 15379880 male
1.648116 0.7865768 -0.893069 0.9176975 0.03666916 -0.3955839 6711414 male
1.533004 0.9237605 -0.9504163 0.05574915 0.1049221 -0.9929166 2172969 male
1.607109 1.21895 -0.8703633 0.9634703 -0.06124481 -0.2607179 3750721 male
1.399708 0.9887921 -0.8629126 -0.6645518 0.3400522 -0.6653837 11646657 male
1.556061 0.5145901 -0.9023917 -0.5510175 -0.1223987 0.8254686 526600 male
1.392356 0.9128482 -0.7338237 -0.8478056 0.1381579 0.5119941 3817026 male
1.61344 0.9838308 -0.9014149 0.7535242 0.2189847 -0.6198765 8552842 male
1.33492 1.14678 -0.7076895 0.8797357 0.2839302 0.3813777 13541029 male
1.478323 1.614344 -0.7560535 -0.6672314 0.6215041 0.4105301 526600 male
1.43283 0.6378992 -0.8380821 0.1547934 -0.08982563 -0.9838548 1052689 male
1.443062 1.420853 -0.8115358 -0.4778056 0.7482303 -0.4602751 15254461 male
1.519221 1.374349 -0.9160075 -0.2296523 0.5831462 -0.7792306 11381180 male
1.515227 0.8703098 -0.9417593 -0.3090547 -0.4050691 -0.8604674 6843516 male
1.387579 0.9002202 -0.7398616 -0.8851352 0.1308799 0.446549 3092536 male
1.603946 0.2910214 -0.9425101 -0.8330226 -0.09477995 0.5450598 526600 male
1.60188 0.5204101 -0.9849657 0.2861436 0.1042583 -0.9524977 526600 male
1.510546 1.286048 -0.6989392 0.6040311 0.2560358 0.7547134 12169910 male
1.46999 0.7307727 -0.8356956 0.5457425 -0.2431595 -0.8018969 3026230 male
1.681116 0.276111 -0.9724294 0.5616221 0.1482094 -0.8140113 526600 male
1.636719 1.364712 -0.9114485 0.7498866 0.6605772 0.03616488 9735837 male
1.340475 0.235478 -0.7218933 -0.1019595 -0.9862266 0.1302362 526600 male
1.59281 0.4197907 -0.9215009 -0.08051518 -0.2901401 0.953591 526600 male
1.581961 0.3213539 -1.003016 0.3842464 0.3743792 -0.8439164 526600 male
1.339706 1.107489 -0.7383792 0.8193027 -0.2915154 -0.4937225 11640739 male
1.288553 1.100867 -0.7325033 -0.8140189 -0.3895515 -0.4308397 16635609 male
1.441501 1.254182 -0.6926473 -0.4850462 -0.2863236 0.8262862 7828604 male
1.584239 1.61155 -0.742394 0.6445178 0.7165255 0.2668107 526600 male
1.610722 1.235773 -0.7948279 0.8993614 -0.2130018 0.3818105 12499143 male
1.524676 1.255023 -0.7043094 0.6961972 0.01431652 0.7177079 13156825 male
1.553366 0.5296342 -0.9715564 -0.7247235 0.09043562 -0.6830791 526600 male
1.385962 1.022382 -0.7673066 -0.8668927 0.4002963 0.2970854 6117989 male
1.337875 1.291345 -0.698276 -0.5822676 0.2056615 0.7865544 14986154 male
1.471913 1.443863 -0.8287208 -0.650907 0.3036735 -0.6957747 15643044 male
1.39103 0.392274 -0.8205988 0.9535105 -0.3010815 0.01294881 526600 male
1.378903 0.9975133 -0.8249958 -0.919346 0.2616146 -0.2938718 9671584 male
1.341804 1.102785 -0.729056 0.921337 -0.2049262 -0.3303685 10785689 male
1.399871 1.339118 -0.7050406 0.7741438 -0.3021338 0.5562524 12038337 male
1.394996 0.4180829 -0.8052124 0.8850515 -0.2663517 0.3817599 526600 male
1.572804 0.7910013 -0.8013765 -0.05224243 -0.2398367 0.9694066 6975618 male
1.328457 0.5125476 -0.8055152 -0.9575043 0.1400466 0.2521357 526600 male
1.448564 0.6561959 -0.7362922 0.3872364 -0.2858199 0.8765585 7042436 male
1.609002 1.567901 -0.7574842 0.982684 0.1850541 0.009345204 15845835 male
1.391906 0.984628 -0.7405047 -0.8555187 0.1387498 0.4988349 4078663 male
1.495491 1.411686 -0.8626074 -0.463549 0.741576 -0.4849612 8814478 male
1.346887 1.336372 -0.7659112 -0.7062704 -0.2456752 -0.6639472 7499131 male
1.588529 0.7587264 -0.8093106 0.02331164 -0.2439738 0.9695015 5593964 male
1.729815 0.8926508 -0.9698434 -0.3448292 0.05708454 0.936928 1380627 male
1.599079 1.072885 -0.770503 0.9323726 0.003323452 0.3614835 12630990 male
1.55104 0.5152691 -0.9071174 -0.6792771 -0.1084718 0.7258213 526600 male
1.394516 0.4760602 -0.7805804 0.7373483 -0.1622571 0.6557364 526600 male
1.560167 0.5440158 -0.9746397 -0.5934628 0.2140211 -0.7758845 526600 male
1.554846 1.551763 -0.6901366 0.05645651 0.1653489 0.9846179 14727601 male
1.333434 0.5164191 -0.7934412 -0.8818901 0.1474686 0.4477978 526600 male
1.533726 0.6581979 -0.8978013 -0.9383075 -0.1024086 -0.3302897 3355960 male
1.431917 1.291285 -0.6877364 -0.3307181 -0.5714325 0.7510595 8026243 male
1.541816 0.5258636 -0.9540043 -0.9204044 0.02852191 -0.3899259 526600 male
1.624902 0.3173823 -0.9905632 0.5775899 0.09209245 -0.8111158 526600 male
1.393541 1.351572 -0.6790885 0.4105834 -0.1592798 0.8978035 8749458 male
1.38654 0.5827 -0.7562681 -0.545371 -0.03201425 0.8375832 526600 male
1.634821 1.077096 -0.9325976 -0.2444798 -0.1248758 0.9615797 12955829 male
1.550186 1.25953 -0.7453363 0.6948481 0.004491925 0.7191426 15185895 male
1.589308 0.7169536 -0.8190294 -0.0374563 -0.2421812 0.9695077 5527390 male
1.470584 1.024734 -0.9002145 -0.5376625 0.450995 -0.7124063 12499919 male
1.540169 1.587814 -0.8554395 0.2511846 0.2660259 -0.9306645 5591125 male
1.40158 1.320196 -0.7249498 0.9331615 -0.3434484 -0.1060792 592651 male
1.564686 1.603844 -0.834416 0.5672845 0.5037023 -0.6515155 4276805 male
1.608022 1.525253 -0.7653525 0.9519868 -0.2905781 -0.09636131 12492693 male
1.431682 0.6877303 -0.8416694 0.06873593 -0.07937893 -0.9944719 4475989 male
1.326403 0.4876133 -0.806199 -0.9671861 0.03635138 0.2514551 526600 male
1.46008 1.043689 -0.7094942 -0.1865051 -0.1751792 0.96671 4868170 male
1.408689 1.272946 -0.862253 -0.5451961 0.01927626 -0.8380869 16118269 male
1.373111 0.5869046 -0.7671202 -0.6959578 0.1366847 0.7049538 526600 male
1.513358 0.8466367 -0.9284548 -0.5145867 -0.3583231 -0.778977 6250863 male
1.46727 1.610653 -0.8042939 -0.778006 0.5914672 -0.2118329 526344 male
1.584021 1.457856 -0.7875893 0.7259337 -0.5041428 -0.4678251 14465971 male
1.650226 0.8387775 -0.8425402 0.9707239 0.09077798 0.222383 1579032 male
-2.488961 0.3623729 -1.368791 0.4683083 -0.07999783 -0.8799363 6511190 male
-2.503208 -0.0487966 -1.387197 -0.8274136 -0.2783831 -0.4877396 1908771 male
-2.659328 0.02931342 -1.351922 0.3958611 -0.2086182 -0.8943002 3684417 male
-2.416166 0.05261349 -1.318047 0.9570932 -0.06373705 0.2826844 2631464 male
-2.474196 0.3986959 -1.369089 0.4156137 -0.2026744 -0.8866727 6116946 male
-2.723531 -0.09502842 -1.26136 0.1442274 0.6045715 0.7833849 2828843 male
-2.44959 0.6201472 -1.34718 0.1328777 0.4831495 -0.8653961 8618358 male
-2.472637 0.5003558 -1.382015 0.05246246 -0.090923 -0.9944752 7366760 male
-2.442284 0.8441952 -1.350045 -0.206362 0.230534 -0.9509307 9933974 male
-2.690584 0.09379255 -1.358327 -0.282 -0.01003476 -0.9593621 4278095 male
-2.385039 -0.3460891 -1.353802 0.9244539 0.0507188 -0.3779058 1842978 male
-2.472181 0.8546899 -1.292897 -0.9063801 0.3760897 -0.1924369 5394762 male
-2.653126 0.4461662 -1.245217 -0.9258897 -0.07427353 0.3704214 4144959 male
-2.5562 0.3235694 -1.381321 -0.1094184 -0.2136091 -0.9707724 8353140 male
-2.455348 0.2971555 -1.219867 0.639043 0.2802839 0.7162858 7958890 male
-2.476104 -0.07538846 -1.348308 -0.5396264 -0.2179569 0.8132026 2697772 male
-2.710142 0.03199892 -1.242436 -0.6685464 -0.05896253 0.7413294 1907745 male
-2.355787 0.5567279 -1.318202 -0.7733699 -0.5447537 -0.3242569 2170650 male
-2.373794 -0.4703564 -1.411512 0.204318 -0.9779418 0.04340458 526344 male
-2.356178 0.515496 -1.268045 0.4066127 -0.9041884 0.1308032 2828843 male
-2.466563 0.6914321 -1.342749 -0.2314229 -0.1858576 -0.9549349 16773865 male
-2.544508 0.1263209 -1.36562 -0.6098191 -0.1301291 -0.7817848 2434347 male
-2.789084 -0.420999 -1.263921 -0.3002707 0.755085 -0.5828245 2105378 male
-2.815336 0.6311607 -1.386793 0.8172048 -0.5762874 0.008331239 16375770 male
-2.758613 -0.2844916 -1.260805 0.168759 -0.419151 -0.8920947 2500142 male
-2.49716 0.6311033 -1.191357 0.3916526 0.156261 0.9067475 16507850 male
-2.47576 0.5901262 -1.192865 0.07265654 0.1552077 0.9852065 7039331 male
-2.427748 0.4618941 -1.353316 0.6953388 -0.1667695 -0.6990652 4669245 male
-2.642911 -0.02685842 -1.323398 0.8098073 -0.2957731 -0.5066859 2303014 male
-2.267878 0.5265114 -1.405744 0.7377046 0.6737869 -0.04246509 16242633 male
-2.474854 0.1565831 -1.206894 0.5310829 -0.3247705 0.782608 1908771 male
-2.463456 0.6699485 -1.337303 -0.08304161 -0.1116476 -0.9902723 6906719 male
-2.408391 -0.1832571 -1.323937 0.3670627 0.182487 0.9121205 2565671 male
-2.310972 0.5905826 -1.346642 0.2582574 0.6138066 -0.7460195 8419440 male
-2.409441 0.7403188 -1.36415 0.5086087 -0.6803672 -0.5276531 13350826 male
-2.639031 0.6481085 -1.209713 -0.3577796 -0.6612291 0.659371 4999748 male
-2.4273 0.1657883 -1.298365 0.9878702 0.1159121 0.1033306 2697257 male
-2.358853 0.524475 -1.286176 0.1582467 -0.8025931 -0.5751544 657418 male
-2.756238 -0.08764388 -1.327503 -0.9756861 0.1159197 -0.1860096 2631721 male
-2.522822 0.618012 -1.178521 0.2818591 0.1639037 0.9453525 8221804 male
-2.654753 0.430246 -1.308869 -0.9171405 0.08619951 -0.3891315 4406587 male
-2.864612 0.6584445 -1.364007 -0.5035524 0.8531345 0.1363693 16771810 male
-2.435888 0.9057789 -1.286215 -0.4922201 0.8608117 -0.1293166 3222825 male
-2.595023 0.1809269 -1.173302 0.1527018 -0.3348982 0.9297987 2765106 male
-2.334256 0.8249595 -1.283572 0.9669794 -0.2199101 -0.1288048 5919050 male
-2.683999 -0.08004823 -1.347864 0.5985342 -0.5060566 -0.6210182 2697257 male
-2.698988 0.6734027 -1.320128 0.3210607 0.4772893 -0.8179946 12498605 male
-2.578407 0.150267 -1.318475 -0.7714213 -0.5550747 0.3111293 1051920 male
-2.565315 0.2095877 -1.174578 0.2256557 -0.2133368 0.9505616 12168873 male
-2.621871 0.6303293 -1.316192 -0.7583098 0.03001726 -0.6512032 5920082 male
-2.49382 0.2055575 -1.18499 0.3018022 -0.1292151 0.9445735 10920094 male
-2.700536 -0.2064458 -1.27884 0.7946892 -0.4412586 -0.4168455 1841692 male
-2.432872 0.2056213 -1.294805 0.9833127 0.1615679 0.08361962 2501420 male
-2.586611 0.3400005 -1.379169 -0.2566651 -0.1219399 -0.9587774 7893357 male
-2.279232 0.3834099 -1.486515 -0.9966909 -0.04111454 0.07012284 15716814 male
-2.335476 0.8532983 -1.237419 0.9466429 0.136928 0.2917502 4340793 male
-2.480524 -0.06421484 -1.337042 -0.4897357 -0.2733237 0.8279212 2369066 male
-2.394089 0.6594525 -1.273161 0.6598796 0.6479699 -0.3803868 4800569 male
-2.515911 0.6803033 -1.309497 -0.3045777 0.6903338 -0.656256 6576725 male
-2.651772 0.1372187 -1.19848 -0.2440697 -0.3270336 0.9129509 3486524 male
-2.432349 0.2122227 -1.303008 0.9865025 0.1637362 -0.00184232 3420206 male
-2.779819 -0.381218 -1.205823 0.9999947 -0.003236143 -0.000677526 1711650 male
-2.77223 -0.146592 -1.247053 -0.7436173 0.3341978 0.5790901 2697257 male
-2.423808 0.6244925 -1.338772 0.3019633 0.6183097 -0.7256111 7892328 male
-2.529933 0.1555653 -1.194648 -0.206822 -0.6732319 0.709918 5986654 male
-2.837627 -0.4154945 -1.201783 -0.06889736 -0.8897252 0.4512674 658442 male
-2.642515 0.7048602 -1.28765 -0.05169535 0.4629113 -0.8848961 7300455 male
-2.392189 -0.439598 -1.347741 -0.2460232 -0.9649785 -0.09104504 2697769 male
-2.791402 -0.3179488 -1.233438 -0.9410378 -0.07245988 -0.3304506 1644569 male
-2.824673 -0.3690809 -1.146713 -0.7901405 0.4276972 0.4390371 2764082 male
-2.303405 0.4545656 -1.443418 -0.9661943 -0.1238929 -0.2260959 16046033 male
-2.24459 0.5197759 -1.518836 0.8894771 0.2297086 0.3950503 15980745 male
-2.382609 0.549614 -1.352911 0.4834454 -0.5172598 -0.7062032 4866370 male
-2.390695 0.9146633 -1.277631 0.1241239 0.9920319 -0.02158738 4932930 male
-2.584034 0.5634248 -1.363867 -0.302025 0.0995527 -0.9480878 7499108 male
-2.423259 0.611311 -1.34892 0.1843229 0.5818915 -0.7921033 6510933 male
-2.767245 -0.195659 -1.223022 -0.5646742 0.2181754 0.795954 2499881 male
-2.428065 0.2929057 -1.27432 0.9740283 0.2062248 0.09349087 4603453 male
-2.288564 0.5422575 -1.408243 0.2772583 0.8917897 -0.3575461 15980489 male
-2.447848 0.7079667 -1.243388 0.1300588 -0.1090534 0.9854909 16240071 male
-2.403469 -0.2178348 -1.405229 0.1867284 -0.3141087 -0.9308429 2302506 male
-2.492088 0.3179913 -1.211257 0.2596299 0.4534724 0.8526169 9537152 male
-2.22348 0.4339304 -1.533024 0.7536111 0.03265744 -0.6565089 15387337 male
-2.311172 0.614456 -1.312801 0.6130951 0.7870663 -0.06812468 7300703 male
-2.387172 -0.2826208 -1.368359 0.8363439 -0.2105102 -0.5061765 2696233 male
-2.666077 0.09279048 -1.359165 0.0635637 -0.07354225 -0.9952645 4013896 male
-2.436348 -0.1191316 -1.342952 -0.1057218 0.5022024 0.8582634 2828851 male
-2.417264 0.01102069 -1.374937 0.9082453 -0.05786256 -0.4144183 3027254 male
-2.403858 0.9055506 -1.320696 -0.09466192 0.8923106 -0.4413853 12168099 male
-2.436593 0.2767426 -1.241106 0.8903132 0.03636111 0.4538949 4340793 male
-2.520122 0.7119889 -1.237753 -0.1440507 0.9754514 0.1665653 6643549 male
-2.289923 0.5666946 -1.300539 0.9405784 0.06474127 0.3333482 10657689 male
-2.62597 0.0007929886 -1.302127 0.9059571 -0.3059952 -0.2925899 1974049 male
-2.759042 0.7324956 -1.464021 -0.1606044 0.7666417 0.6216645 16112331 male
-2.554966 0.4503374 -1.382731 -0.1317906 0.1254321 -0.9833099 7366758 male
-2.704946 -0.2216204 -1.268043 0.8372495 -0.4539025 -0.3049361 1644825 male
-2.401959 -0.08921409 -1.397361 0.9770252 0.1750352 -0.1215928 2763053 male
-2.782436 -0.22549 -1.280497 -0.8553956 -0.2762158 -0.4381821 2039327 male
-2.359807 0.8428211 -1.346336 0.7743122 0.1005769 -0.62476 12889765 male
-2.396054 -0.1054335 -1.388375 0.955818 0.2882028 0.05789202 3157816 male
-2.650361 0.01425117 -1.235073 0.4117866 -0.2761491 0.8684318 3749945 male
-2.332473 0.6212387 -1.293289 0.5814319 0.7782771 0.2371116 3617327 male
-2.686478 -0.1289477 -1.285681 0.9938858 0.05232501 0.09722999 1711135 male
-2.818369 -0.3523786 -1.186846 -0.9289523 0.1315272 0.3460469 2302757 male
-2.308798 0.6073533 -1.294685 0.695633 0.6535655 0.2982397 7697004 male
-2.454592 -0.2283642 -1.386506 -0.6265166 -0.3861921 -0.6770029 1710362 male
-2.827409 0.657831 -1.360168 0.4137084 0.5744835 0.7062677 16175552 male
-2.537294 0.5441445 -1.364069 0.1660137 0.02998863 -0.9856675 16243637 male
-2.711874 -0.2273402 -1.272554 0.7303718 -0.4925446 -0.4732412 2434343 male
-2.548115 0.3583601 -1.209535 0.1979443 0.02208315 0.9799646 10590866 male
-2.446805 0.8260344 -1.194394 -0.5269367 -0.03707297 0.8490957 4932154 male
-2.369298 0.5552735 -1.325831 0.07453412 -0.7134256 -0.6967559 2433568 male
-2.454382 0.8728597 -1.21739 -0.7121783 0.453763 0.5356318 6511192 male
-2.429969 0.8262364 -1.363975 -0.5618005 0.7217141 -0.4043626 15847624 male
-2.490017 -0.04475483 -1.319654 -0.5116023 -0.3241273 0.7957417 3224633 male
-2.395825 -0.1643522 -1.336794 0.6809993 0.2609432 0.684214 2631208 male
-2.457858 0.3632851 -1.349947 0.6630332 -0.1285059 -0.7374778 5393738 male
-2.528948 0.4035904 -1.210761 0.09981704 -0.1501219 0.9836159 7893358 male
-2.412553 0.01254234 -1.356544 0.9955945 -0.06009344 -0.07197678 2237738 male
-2.675412 0.1613461 -1.20386 -0.5577246 -0.1312786 0.8195789 3421242 male
-2.362121 0.843868 -1.19672 0.5901681 0.04891981 0.805797 4406587 male
-2.48302 0.7975053 -1.336386 -0.9068802 0.1950494 -0.3735296 15389897 male
-2.605801 0.1579959 -1.351611 0.3427957 -0.2417873 -0.9077612 3092788 male
