# .PCD v0.7 - Point Cloud Data file format
VERSION 0.7
FIELDS x y z normal_x normal_y normal_z rgb label
SIZE 4 4 4 4 4 4 4 4
TYPE F F F F F F U U
COUNT 1 1 1 1 1 1 1 1
WIDTH 248
HEIGHT 1
VIEWPOINT 0 0 0 1 0 0 0
POINTS 248
DATA ascii
1.491115 1.09119 -0.7418817 0.04382202 -0.1009637 0.9939245 6512748 male
1.46129 0.6625785 -0.8507788 0.8665927 -0.2294515 -0.4431354 789516 male
1.518976 0.5021902 -0.9532178 -0.7470296 -0.2723455 0.6064444 526600 male
1.389768 0.7721791 -0.7587532 -0.8046165 -0.1066335 0.5841417 4673111 male
1.49664 1.044892 -0.7511885 0.1201178 -0.1764255 0.9769574 8091012 male
1.523171 0.6082699 -0.9819019 -0.8525597 0.3477233 -0.3901672 526600 male
1.605742 1.189428 -0.7897956 0.7900217 0.04490187 0.6114324 11397782 male
1.480308 1.38474 -0.7375814 0.4123935 0.6579846 0.6300699 13880540 male
1.638004 1.556258 -0.7938238 0.9649218 -0.04761962 -0.2581825 16175821 male
1.584323 0.8179521 -0.8442052 0.1706298 -0.1974688 0.9653453 5923697 male
1.331194 0.4075182 -0.8298488 -0.9793127 -0.1099131 0.1698995 526600 male
1.638077 1.603538 -0.7782534 0.9609071 0.2762284 -0.01884958 16040647 male
1.602867 1.12801 -0.9189014 0.769886 -0.002058016 -0.6381782 9407123 male
1.551291 1.12113 -0.7478734 0.4673798 -0.08777092 0.8796889 10592178 male
1.372211 0.9314039 -0.834792 -0.9942365 0.1072014 -0.00131312 4408139 male
1.381256 0.7453356 -0.8443668 -0.9000387 0.005570608 -0.4357745 5068381 male
1.550927 0.8051407 -0.9801363 -0.1697815 -0.007881735 -0.9854501 12437462 male
1.41958 1.331647 -0.7513368 0.7900097 -0.442301 -0.4245639 526344 male
1.391091 0.2698314 -0.7874873 0.5358948 -0.7983156 -0.274789 526600 male
1.508967 1.247897 -0.7172726 0.1134622 -0.2961703 0.948372 9209492 male
1.559049 1.433922 -0.7613868 0.032069 -0.3970879 0.9172202 15780039 male
1.515633 0.8674699 -0.761085 0.788372 -0.1597958 0.5940833 3619400 male
1.68734 0.2771305 -0.8833235 0.1274743 -0.9817778 -0.1409345 526600 male
1.692235 1.058492 -0.9711621 -0.4770106 -0.1325538 0.8688442 2827303 male
1.575144 0.3991274 -0.9650813 0.0549778 0.03458538 0.9978883 526600 male
1.483761 1.317166 -0.930176 -0.7563976 0.1620668 -0.6337169 12301765 male
1.456629 1.373676 -0.8798093 -0.3883636 0.3760435 -0.8412877 15196402 male
1.528751 1.192698 -0.730072 0.3506008 -0.02634251 0.9361544 9538713 male
1.529616 0.6868415 -0.8898349 -0.5567366 -0.1760342 0.8118228 4144710 male
1.350185 1.290064 -0.7116036 -0.6314275 0.3330676 0.7002608 14853530 male
1.378209 0.9253274 -0.8760056 -0.9154081 -0.07248255 -0.3959472 4409684 male
1.632499 1.340251 -0.8369814 0.7619251 0.2971092 0.5754964 15721463 male
1.364349 0.4447155 -0.7940485 -0.04527989 -0.1470966 0.9880851 526600 male
1.353979 1.359728 -0.7388607 -0.9371464 0.2429449 0.250468 6447211 male
1.565968 1.474219 -0.717701 -0.3822173 -0.4364792 0.8144912 11900812 male
1.627682 1.360793 -0.9867702 0.07880947 0.1935743 -0.9779152 9935015 male
1.389789 0.8993585 -0.764283 -0.8257323 0.09299251 0.5563439 3553606 male
1.366249 0.621882 -0.8026814 -0.7426698 0.1700347 0.6477111 526600 male
1.604337 0.6461665 -0.8941836 0.5652959 -0.3389311 0.7520415 8619667 male
1.480444 1.33239 -0.9207146 -0.7782606 0.2535008 -0.5744978 16183038 male
1.552782 1.088748 -0.9500233 0.1329817 0.01821686 -0.9909511 6578028 male
1.720165 1.070749 -0.9998131 0.8815287 0.2689136 -0.3880628 14397359 male
1.566738 1.546841 -0.871701 0.256181 -0.2659252 -0.9293305 14339028 male
1.619077 1.12477 -0.8633514 0.9923495 -0.1078138 0.06015468 9472408 male
1.515398 1.601106 -0.7415839 -0.6887479 0.2025686 0.6961267 11314087 male
1.576789 0.5846769 -0.922558 0.1676946 -0.3823641 0.9086672 526600 male
1.664331 1.317454 -0.9581465 0.9736649 0.2116294 -0.08479112 15649220 male
1.631674 0.8014475 -0.9483495 0.821708 -0.02306098 -0.5694419 7303552 male
1.524836 0.9675567 -0.9881724 0.05263671 0.09335152 -0.9942408 7631748 male
1.619326 1.223931 -0.9139192 0.9159988 -0.1472185 -0.3731929 198147 male
1.377549 0.9604591 -0.8786761 -0.9364819 0.0535146 -0.3466091 8358043 male
1.557499 0.7024454 -0.8730373 -0.2794591 -0.234256 0.9311427 5067869 male
1.420105 0.959352 -0.7409986 -0.4749882 0.1305811 0.8702499 2632240 male
1.610829 1.006788 -0.9459832 0.7233419 0.1850187 -0.6652403 8552842 male
1.327794 1.189373 -0.7102907 0.5734003 0.2970086 0.7635431 16437454 male
1.516935 1.631144 -0.7585075 -0.6013229 0.5791165 0.550486 723723 male
1.441354 0.6461363 -0.8627529 0.4159236 -0.2112385 -0.8845258 526602 male
1.470879 1.437632 -0.834471 -0.4007546 0.7433797 -0.5355207 9932183 male
1.562656 1.409608 -0.933059 -0.04906082 0.6820062 -0.7296989 11249847 male
1.504146 0.8976419 -0.9799496 -0.3876672 -0.3937056 -0.8334926 6843516 male
1.432487 0.949184 -0.7358414 -0.2369437 0.1518036 0.9595901 3882051 male
1.558323 0.3084848 -0.9854916 -0.7839102 -0.02867602 0.6202117 526600 male
1.598128 0.4830567 -0.999441 0.8484776 -0.1270541 -0.5137538 526600 male
1.59518 1.198047 -0.7798692 0.6956206 0.09487232 0.7121174 11592612 male
1.446526 0.8197091 -0.8863979 -0.0623315 -0.1465125 -0.9872429 5989227 male
1.62064 0.2952159 -1.02134 0.3450596 0.08791842 -0.9344539 526600 male
1.671648 1.366951 -0.9157888 0.8491831 -0.1896294 0.492878 13223124 male
1.367516 0.2613319 -0.7283052 -0.04740622 -0.9897572 0.1346602 526600 male
1.59289 0.3719376 -0.9778171 0.9055582 0.2019767 0.3730547 526600 male
1.55257 0.3073598 -1.048081 0.1224373 0.3014123 -0.9456002 526600 male
1.322155 1.210977 -0.7120789 0.2645718 0.4030461 0.8761024 16042949 male
1.301403 1.140375 -0.7631357 -0.4260898 -0.4529988 -0.7830962 12357524 male
1.437848 1.288349 -0.7344379 -0.4417983 -0.2715538 0.855028 526600 male
1.611969 1.641497 -0.7624788 0.597243 0.7672902 0.233595 526600 male
1.620107 1.280139 -0.7982355 0.6888114 0.03557831 0.7240671 14269368 male
1.531854 1.305138 -0.7204741 0.5971944 0.1786953 0.7819378 12235198 male
1.524387 0.6243852 -0.9472356 -0.9982472 0.05916297 -0.001480758 526600 male
1.466393 1.018315 -0.7428434 0.1328559 0.1452149 0.9804398 6315624 male
1.380094 1.285186 -0.702824 0.2208059 0.1687651 0.9606056 16765127 male
1.504192 1.481243 -0.8340535 -0.8003347 0.1635546 -0.5768139 16767173 male
1.381408 0.3922713 -0.8103121 0.9019102 -0.02756316 0.4310431 526600 male
1.381308 1.019369 -0.8637088 -0.9178796 0.270372 -0.2905098 9608106 male
1.341913 1.123949 -0.7159522 0.9968674 -0.03285538 0.07194462 15911118 male
1.428487 1.344524 -0.735414 0.8959406 -0.383021 0.224912 7630966 male
1.383873 0.3935648 -0.8227164 0.9915073 -0.08767939 0.09604937 526600 male
1.533457 0.8206182 -0.8478392 -0.3733364 -0.2495581 0.8934991 3881535 male
1.352369 0.539385 -0.7916185 -0.5260016 0.089607 0.8457499 526600 male
1.432669 0.7199254 -0.7487617 -0.02059779 -0.358848 0.9331686 7304067 male
1.638537 1.60152 -0.7712995 0.9625589 0.2655096 0.05463657 15713222 male
1.382043 1.039923 -0.8230943 -0.9548455 0.2891638 0.06822312 7696502 male
1.522879 1.43416 -0.8738896 -0.46496 0.7299335 -0.5010082 12302787 male
1.37412 1.395018 -0.7551225 -0.8251919 0.552341 -0.1182272 9407895 male
1.544309 0.7602998 -0.8644691 -0.363838 -0.2856749 0.886573 4145735 male
1.768215 0.9232656 -1.024519 0.5245356 -0.09152231 -0.8464549 10586505 male
1.604172 1.100259 -0.8012102 0.8973207 -0.05172004 0.4383382 11907785 male
1.525982 0.5487565 -0.9380077 -0.547363 -0.02839279 0.8364135 526600 male
1.401625 0.5503461 -0.7945222 0.7040947 -0.1853201 0.6854976 526600 male
1.569401 0.5233955 -1.022495 0.2534122 0.0007244315 -0.9673582 526600 male
1.556016 1.620606 -0.7247006 -0.3090227 0.4972141 0.8107299 9275016 male
1.350253 0.5588909 -0.7969396 -0.6201261 0.1712428 0.7655845 526600 male
1.512376 0.6757641 -0.9194425 -0.9921864 -0.08253316 0.09356457 526600 male
1.478243 1.291361 -0.704184 -0.234551 -0.3344736 0.9127504 8355975 male
1.507831 0.5438998 -0.9704809 -0.9989477 0.01291159 0.04400933 526600 male
1.575759 0.3463331 -1.025711 0.3790597 0.04254322 -0.9243938 526600 male
1.438159 1.35929 -0.7240545 0.5438971 -0.7203234 0.4304766 724498 male
1.427729 0.6065688 -0.780302 0.5505807 -0.5163082 0.6559623 526344 male
1.615258 1.147016 -0.9960046 -0.870939 -0.4674047 0.151651 1051664 male
1.583732 1.262561 -0.7786548 0.4229217 -0.052525 0.9046427 16247540 male
1.56918 0.7239113 -0.8652173 -0.09918636 -0.2174833 0.9710113 4145482 male
1.462758 1.070829 -0.9180284 -0.5648004 0.4730153 -0.6762079 14143713 male
1.57366 1.606872 -0.874823 0.2777378 0.2051806 -0.9384896 5591125 male
1.409856 1.29098 -0.7229211 0.9127175 -0.2340194 0.3349355 13414837 male
1.596521 1.625664 -0.8542301 0.5703849 0.4770136 -0.6686696 4276805 male
1.623661 1.547355 -0.7462376 0.625172 0.3448537 0.7001684 10058102 male
1.418343 0.7426444 -0.8731011 -0.2404289 -0.108336 -0.9646021 5002597 male
1.323661 0.5167207 -0.8372824 -0.9997164 0.01955201 0.01358983 526600 male
1.458122 1.084065 -0.7453713 -0.3045419 -0.104834 0.9467123 11247275 male
1.458071 1.307911 -0.9019032 -0.6402766 0.1682596 -0.7494896 12434635 male
1.375761 0.5939956 -0.7864807 -0.4292005 0.0881891 0.8988935 526600 male
1.550718 0.9200776 -0.989098 0.1233321 0.01206762 -0.992292 6514547 male
1.497653 1.629955 -0.8285082 -0.7950977 0.53391 -0.2876799 526344 male
1.635287 1.51073 -0.7681987 0.9734329 -0.2151674 0.07830334 16236730 male
1.616561 0.8839707 -0.8487936 0.626537 0.05894776 0.7771592 6712703 male
-2.513002 0.3058796 -1.273829 0.9321086 -0.2365518 -0.2742571 4011828 male
-2.466732 0.02928 -1.273876 0.978958 -0.09080141 -0.1827472 2631472 male
-2.701179 -0.3555068 -1.39973 0.6729978 0.1889547 0.7151017 2038559 male
-2.518839 0.03505731 -1.172362 0.3234009 -0.3597437 0.8752124 3223606 male
-2.515308 0.3111065 -1.298756 0.9002867 -0.369416 -0.2302523 4472636 male
-2.691165 -0.1214198 -1.433166 -0.5957765 0.1684152 -0.7852942 3553598 male
-2.733634 0.3114177 -1.204386 -0.7415236 0.6183717 0.2603061 6643549 male
-2.603533 0.3371571 -1.441085 -0.3022963 -0.8156907 -0.4932197 16439214 male
-2.733935 0.4589103 -1.633891 -0.9567655 -0.03309517 0.2889721 13153455 male
-2.611695 -0.03988025 -1.318137 0.980916 -0.02785439 0.1924276 1711391 male
-2.535847 -0.2878419 -1.321594 -0.9080781 -0.1101927 -0.4040444 1841948 male
-2.738376 0.4686741 -1.668669 -0.994267 -0.1060902 0.01335257 12364445 male
-2.740397 0.3535513 -1.271722 -0.9478658 0.03186662 0.3170728 4999236 male
-2.584094 0.2752733 -1.359077 0.3022125 -0.7397467 -0.601201 7433577 male
-2.575202 0.2857568 -1.129332 0.04987186 0.510401 0.8584892 9142397 male
-2.535654 -0.1586113 -1.287881 -0.8690944 0.2125895 0.4466329 2302500 male
-2.725434 0.03192987 -1.332407 -0.7844329 -0.01299517 -0.6200777 2763309 male
-2.475419 0.4778949 -1.544946 0.7157487 0.698288 -0.009891778 9538441 male
-2.555288 -0.4414706 -1.314619 -0.8336164 -0.2810853 -0.4754735 657930 male
-2.517625 0.3847069 -1.480707 0.7882879 -0.5784872 -0.2096549 4472636 male
-2.71649 0.4625609 -1.541123 -0.8344699 -0.5461151 -0.07361099 15454153 male
-2.472044 0.08405496 -1.279536 0.8641621 0.1655273 -0.4752102 2895412 male
-2.602554 -0.4659282 -1.450498 -0.07549099 -0.9701587 -0.2304199 592137 male
-3.006053 0.4303729 -1.729053 -0.01058854 0.9406773 0.3391375 14599607 male
-2.666142 -0.2259791 -1.439814 0.2998202 -0.194147 -0.9340315 1908255 male
-2.685997 0.5343967 -1.420846 0.129447 0.9786546 0.1596206 4341562 male
-2.56722 0.5348514 -1.412433 0.08947648 0.9472131 0.307866 9077890 male
-2.491965 0.4002154 -1.39796 0.9250314 -0.2834323 -0.2529494 3222569 male
-2.612182 -0.05188447 -1.378631 0.9743653 -0.1252579 -0.1868768 2499881 male
-2.504102 0.3345661 -1.938396 -0.9696745 -0.2406242 -0.04279768 10651777 male
-2.598397 0.273867 -1.125226 -0.1061384 0.4772252 0.872348 9735563 male
-2.604011 0.5335807 -1.524387 0.2121367 0.7882069 -0.5776919 10723226 male
-2.459336 -0.1808884 -1.28066 0.826706 0.001878999 0.5626314 2367780 male
-2.48838 0.4196832 -1.661043 -0.181075 0.8295916 -0.5281948 6776415 male
-2.663235 0.3925414 -1.682602 0.08765624 -0.5287314 -0.8442509 16373452 male
-2.846362 0.4707135 -1.548606 -0.4270257 0.8713788 -0.2415535 7498337 male
-2.514326 0.1671849 -1.273549 0.3101931 0.4709676 -0.8258148 4276289 male
-2.464154 0.368276 -1.608808 0.433729 -0.7822657 0.4471461 2764330 male
-2.699908 -0.06674154 -1.351969 -0.9619499 -0.06858679 0.264478 2434859 male
-2.704232 0.5316776 -1.39807 -0.007943086 0.9739635 0.2265658 10788248 male
-2.633274 0.490813 -1.32613 0.146774 0.7568455 0.6369005 7235170 male
-3.034633 0.3950478 -1.646925 -0.7145149 0.6532857 0.2503723 16771292 male
-2.710742 0.4853503 -1.566155 -0.9151998 0.3022704 0.2665378 12167329 male
-2.702803 0.1991569 -1.118533 -0.4270338 0.04577396 0.9030765 11116701 male
-2.603632 0.5026076 -1.699367 0.8931507 -0.06979181 -0.4443099 3947060 male
-2.664404 -0.05741176 -1.418893 -0.4932534 0.1200844 -0.8615574 3289140 male
-2.890961 0.4089802 -1.634228 0.5242164 0.1803884 -0.8322604 16379361 male
-2.849633 0.3920224 -1.523494 0.03817865 -0.9493935 0.3117604 3222577 male
-2.676512 0.2239594 -1.116263 -0.1528222 0.2214381 0.9631255 10129547 male
-2.752779 0.3832108 -1.407387 -0.8818632 -0.433854 0.1846298 5063744 male
-2.624646 0.3318145 -1.167226 -0.1177855 0.7084457 0.6958674 9800324 male
-2.678007 -0.3188462 -1.388296 0.9036205 -0.1136054 0.4129942 2499878 male
-2.475109 0.1567718 -1.178083 0.944497 0.03651518 0.3264847 2697257 male
-2.691024 0.2520561 -1.29394 -0.4209247 -0.2179968 -0.8805113 6970971 male
-2.442852 0.34556 -1.71726 -0.8209003 0.5645771 -0.0858812 15914697 male
-2.604418 0.522839 -1.602422 0.8266925 0.2328948 0.5121913 8090222 male
-2.5206 -0.09540503 -1.272594 -0.4540083 -0.05955677 0.8890049 2303018 male
-2.507492 -0.4439904 -1.42707 -0.135962 0.990573 -0.01671234 2893868 male
-2.727999 0.4815572 -1.504557 -0.340809 -0.1170301 -0.9328201 3749937 male
-2.761512 0.1225237 -1.187256 -0.9677296 -0.1726179 0.1835836 2960433 male
-2.472525 0.164302 -1.186607 0.9684951 0.06684699 0.2398936 3420468 male
-2.697464 -0.4193965 -1.443264 0.8261962 -0.3062453 0.4728784 526600 male
-2.70285 -0.1119228 -1.36837 -0.804557 0.2820102 0.5226457 2697265 male
-2.605659 0.4503633 -1.524806 -0.00332129 -0.2100188 -0.9776919 4867137 male
-2.547549 0.1370378 -1.111316 0.2823501 -0.4359642 0.8545256 2631464 male
-2.722832 -0.444262 -1.485179 -0.2924413 -0.9557872 -0.03080602 2237223 male
-2.831323 0.4711114 -1.459097 -0.6964124 0.3661888 0.6171837 10263188 male
-2.547395 -0.4101649 -1.313018 -0.9743995 0.1706625 -0.1463566 1973793 male
-2.694073 -0.3048906 -1.431737 -0.4263944 -0.1512622 -0.8918004 1842206 male
-2.727582 -0.3603065 -1.376857 0.3048902 0.05045075 0.9510505 2763825 male
-2.452465 0.364748 -1.715873 -0.5446554 0.7759164 -0.3182836 15520195 male
-2.460462 0.2980215 -1.862188 -0.7219245 -0.6843715 0.1022784 14601158 male
-2.541464 0.3759154 -1.492537 0.2267318 -0.6760969 -0.7010605 7433064 male
-2.693352 0.5850657 -1.669919 -0.4053307 0.8996812 -0.162114 4275000 male
-2.727922 0.3940172 -1.480185 -0.1819355 -0.5719385 -0.7998662 4669758 male
-2.73296 0.2970916 -1.274168 -0.9140939 -0.3106381 -0.2606464 2894635 male
-2.652476 -0.1856401 -1.439196 0.6170042 -0.1147827 -0.7785442 3420980 male
-2.487236 0.258099 -1.236477 0.8610664 0.283387 -0.4222046 4604478 male
-2.456064 0.3888932 -1.601132 0.89237 -0.2416876 0.381134 7762798 male
-2.616304 0.5185167 -1.534396 0.5842646 0.4671266 -0.6636473 6643290 male
-2.459927 -0.2381187 -1.326997 0.9458424 -0.2172302 -0.2412329 2434085 male
-2.533866 0.4243691 -1.28622 0.5864103 0.471619 0.658558 5460555 male
-2.378536 0.2990221 -1.734354 0.9867736 0.1007406 -0.1270019 16638939 male
-2.485903 0.4600036 -1.603094 0.497376 0.7573328 -0.4231598 10130825 male
-2.469977 -0.1945637 -1.355227 0.5217466 -0.05676411 -0.85121 3026998 male
-2.692369 0.07366191 -1.340544 -0.1436704 0.3660394 -0.9194424 3422013 male
-2.498878 -0.06582829 -1.251564 0.5463005 -0.2405928 0.8022913 2894897 male
-2.493528 -0.07751376 -1.356971 0.4787374 0.05671392 -0.8761246 3816515 male
-2.682796 0.4603966 -1.741842 -0.168255 -0.3388976 -0.9256559 8483177 male
-2.544289 0.321803 -1.160446 0.364274 0.6894377 0.6260833 6510423 male
-2.72455 0.5108029 -1.52333 -0.7374774 -0.002894642 -0.6753659 4340793 male
-2.526654 0.4055927 -1.631719 -0.8954191 0.06393059 -0.4406106 7564648 male
-2.651695 0.05781858 -1.339797 0.4785517 0.3753408 -0.7937933 3949644 male
-3.021416 0.4894559 -1.831544 -0.4437605 0.8955163 -0.03357314 14599354 male
-2.75122 0.2903996 -1.216216 -0.8690194 0.489765 0.07025397 4604477 male
-2.621694 -0.02168923 -1.37263 0.8021542 0.2194621 -0.5553247 3092791 male
-2.477638 0.08353946 -1.18602 0.8480033 -0.2214377 0.4815144 2631982 male
-2.673234 -0.1728071 -1.447008 -0.04963937 -0.02691104 -0.9984047 2303014 male
-2.62187 0.4362761 -1.69499 0.7266505 -0.3192661 -0.6083161 14796987 male
-2.484052 -0.05836395 -1.259993 0.8087152 -0.1537526 0.5677501 1973793 male
-2.666076 0.06264085 -1.155698 0.3107878 -0.6263455 0.7149143 3026225 male
-2.482037 0.4895886 -1.537479 0.6030443 0.782422 -0.1554136 6381145 male
-2.720375 -0.1773694 -1.396479 -0.9964844 -0.01479077 -0.0824644 2105634 male
-2.770539 -0.4095165 -1.42294 -0.979495 0.1156232 -0.1649881 2631464 male
-2.486859 0.4556877 -1.610381 0.4358088 0.7768437 -0.4545159 9866365 male
-2.514103 -0.1954582 -1.346293 -0.5094649 0.01512337 -0.8603588 2565934 male
-3.050532 0.3668409 -1.674961 -0.9467453 -0.1828993 -0.2649934 16111052 male
-2.651946 0.3604084 -1.455799 0.133275 -0.762888 -0.6326451 10520951 male
-2.668831 -0.3066968 -1.416296 0.9877785 0.07489443 -0.1366913 2434088 male
-2.642463 0.3712016 -1.202009 -0.00416708 0.5666788 0.8239284 10459023 male
-2.723996 0.5535694 -1.63733 -0.8235474 0.4905381 0.2848548 5130566 male
-2.467668 0.4577655 -1.535176 0.8953028 0.2674969 0.3562002 4933187 male
-2.722055 0.5394518 -1.707085 -0.7368146 0.4728154 -0.4832702 3617328 male
-2.734581 0.4425561 -1.645136 -0.9765046 -0.1729007 0.1286247 16704213 male
-2.525802 -0.05604501 -1.232007 -0.04877213 -0.3840454 0.9220253 2960173 male
-2.482704 -0.133247 -1.27192 0.3515148 0.2741387 0.8951456 2697005 male
-2.505115 0.4328142 -1.332555 0.8085292 0.3532211 0.4706544 5657934 male
-2.602041 0.4958012 -1.337334 -0.05660436 0.7722411 0.6328031 8090221 male
-2.473219 0.03590247 -1.22164 0.8899105 -0.2607853 0.3742333 2301990 male
-2.760299 0.158274 -1.180505 -0.9751588 -0.008347991 0.2213504 2499884 male
-2.621378 0.5494339 -1.600152 0.5188086 0.5632628 0.6430963 9340029 male
-2.703667 0.4013312 -1.688942 -0.9809762 0.1306749 -0.1435621 14068389 male
-2.66645 0.1259242 -1.300863 0.4043319 0.5038219 -0.7633344 4212046 male
-2.636214 0.1915402 -1.292553 -0.3455988 -0.05656098 -0.9366763 8879997 male
-2.785009 -0.4328946 -1.415997 -0.7277507 -0.6858305 -0.003945231 8815750 male
