# .PCD v0.7 - Point Cloud Data file format
VERSION 0.7
FIELDS x y z normal_x normal_y normal_z rgb label
SIZE 4 4 4 4 4 4 4 4
TYPE F F F F F F U U
COUNT 1 1 1 1 1 1 1 1
WIDTH 255
HEIGHT 1
VIEWPOINT 0 0 0 1 0 0 0
POINTS 255
DATA ascii
1.340721 0.2051291 -1.308736 0.1980912 0.9557419 0.2175249 11381436 male
1.360861 0.3154978 -1.092719 -0.4559821 0.8791606 -0.1384086 7042435 male
1.751753 0.3445576 -1.216324 0.9354445 0.3004292 0.1862413 526600 male
1.404451 0.2097665 -1.061533 0.4847782 -0.6717099 0.5601751 7764103 male
1.34611 0.2065545 -1.32406 0.4257641 0.8975359 0.1146923 13288666 male
1.65743 0.3150617 -1.293041 0.5643059 -0.005323416 -0.8255486 526600 male
1.265464 0.06913351 -1.370765 -0.5780937 -0.6964952 -0.4250908 13354716 male
1.331435 0.01413061 -1.298013 -0.3667104 -0.9289412 0.05090897 5855073 male
1.303267 0.5642852 -1.526868 0.538782 -0.3495566 -0.7665012 15779265 male
1.518977 0.2417228 -1.253129 -0.5985734 0.7850988 0.1591532 5724513 male
1.471595 0.3927283 -0.9591535 0.7743539 0.6288654 0.07003164 526600 male
1.27096 0.6993236 -1.489797 -0.01294222 0.9981176 -0.05994721 526600 male
1.332874 0.3431945 -1.380881 0.8699227 0.1781374 0.4598928 15245272 male
1.40916 0.1210778 -1.345949 0.2116114 0.7891915 -0.5765391 12633553 male
1.294184 0.07180126 -1.166042 -0.5544524 -0.5247399 0.6459339 12436176 male
1.387293 0.4034249 -1.034398 -0.02279714 -0.377849 -0.9255865 526600 male
1.529977 0.1022904 -1.321536 0.5654256 -0.3155594 -0.7620474 4145479 male
1.17171 0.4251179 -1.273847 -0.2534966 0.7732862 0.581178 14071477 male
1.672052 0.2356382 -0.8399315 -0.6463661 0.6843861 -0.337382 526600 male
1.304284 0.3784812 -1.351553 0.6924424 0.4531767 0.561386 13616525 male
1.351948 0.4947108 -1.452591 0.9906214 -0.03968635 0.130744 16768477 male
1.409379 0.2353429 -1.162514 0.6541049 0.4991986 -0.5682849 3026230 male
1.826982 0.1975644 -0.9726071 0.4190165 0.5459569 -0.7255042 526600 male
1.585662 0.2532146 -1.403146 0.9524908 -0.2112471 -0.2193986 14525339 male
1.751247 0.2331199 -1.120961 -0.8513308 0.3038601 0.4276737 526600 male
1.304699 0.2431008 -1.554738 -0.169596 -0.4903907 -0.8548416 8552078 male
1.171849 0.4169424 -1.478181 -0.7809556 0.3043805 -0.5453998 13552092 male
1.132896 0.399631 -1.369235 -0.9642087 -0.2632506 -0.03163311 6512745 male
1.73637 0.2851169 -1.132654 -0.2736585 0.6700845 0.6899984 526600 male
1.317505 0.4956331 -1.160837 0.5078067 -0.8614287 0.008543596 6709342 male
1.259731 0.05256556 -1.318275 -0.536864 -0.791441 -0.2922295 10854322 male
1.641931 0.2628289 -0.7495421 0.6755785 -0.7009525 -0.2286029 526600 male
1.354894 0.4034968 -0.9745147 -0.8467044 -0.2771683 0.454169 526600 male
1.150532 0.3831249 -1.344634 -0.5025 -0.7761052 -0.3809914 9144467 male
1.394136 0.5952522 -1.422779 0.862645 0.1106007 0.4935698 12560033 male
1.537937 0.3362423 -1.453658 0.6270194 0.5923336 -0.5059521 13144709 male
1.39042 0.1774282 -1.234254 0.5915992 0.513325 -0.6216975 7106683 male
1.175878 0.2833838 -1.170744 -0.1148451 -0.975523 -0.1875245 15706013 male
1.633201 0.3283007 -1.239407 -0.53012 -0.3983376 0.7485319 526600 male
1.287912 0.2326916 -1.54641 -0.3303615 -0.4913227 -0.8058928 10196388 male
1.238035 0.2328845 -1.509916 -0.7734077 -0.3997143 -0.492005 12434125 male
1.576834 0.2710888 -1.420817 -0.2916903 0.1785509 -0.9397001 16240072 male
1.298991 0.5164791 -1.505542 -0.1509055 -0.4225504 -0.8936883 16771297 male
1.227856 0.2407117 -1.498251 -0.8250946 -0.3805922 -0.4175745 10789043 male
1.220165 0.6401378 -1.425858 -0.434205 0.3239931 0.8405322 9933206 male
1.637307 0.2895318 -1.252617 -0.179634 -0.8504033 0.4945157 526600 male
1.473542 0.4601878 -1.393974 0.05541308 0.9475514 0.314763 13085617 male
1.496935 0.3121218 -1.4663 0.09922707 -0.9139348 -0.3935443 16440788 male
1.227289 0.3328531 -1.533054 -0.8416681 -0.04236684 -0.5383307 13946334 male
1.398155 0.323415 -1.490136 0.8913027 -0.3463916 -0.2925617 7564411 male
1.221235 0.2091032 -1.459204 -0.5939352 -0.4882304 -0.6394309 9735845 male
1.719702 0.368971 -1.213479 0.3594048 0.7317909 0.5790597 526600 male
1.261842 0.1618578 -1.186081 -0.9058377 0.3152534 0.2829727 3552566 male
1.416094 0.005135864 -1.244222 0.1432825 -0.8427591 0.5188712 8883624 male
1.194818 0.3506499 -1.190941 0.5000865 0.8231547 0.2689418 14527405 male
1.192444 0.6516982 -1.45506 -0.7266004 0.4965291 0.4748797 526600 male
1.47182 0.3548739 -0.9863119 0.5871855 -0.2265012 -0.7771167 526600 male
1.574623 0.3076174 -0.8250132 0.345206 0.2856445 -0.8940023 526600 male
1.331925 0.4379684 -1.570921 0.2329344 0.6219146 -0.7476388 6513003 male
1.512765 0.07164598 -1.321007 0.6526756 -0.3939157 -0.6471823 3752266 male
1.272506 0.1645623 -1.156723 -0.9050581 0.180591 0.385041 4802899 male
1.833319 0.2020641 -0.9657339 -0.4750022 -0.05040248 0.87854 526600 male
1.657412 0.3471572 -1.286011 0.472248 0.5199944 -0.7117497 6777717 male
1.363268 0.0330388 -1.390482 0.02205373 -0.8255886 -0.5638414 7237501 male
1.33925 0.06937139 -1.148107 -0.01009274 -0.5874025 0.809232 9410213 male
1.885775 0.1457457 -1.082981 0.09022044 -0.9614639 0.2597066 526600 male
1.51696 0.3315051 -1.428194 0.02193426 0.8946097 0.4463098 16434885 male
1.64604 0.28232 -0.7844049 -0.3465917 0.8683561 0.3547277 526600 male
1.76597 0.2356304 -1.113562 -0.7693536 0.459828 0.4434558 526600 male
1.77711 0.220894 -1.10952 -0.7861921 0.4570489 0.4159425 526600 male
1.223104 0.3584913 -1.244558 0.940464 -0.2303698 -0.2499143 2566446 male
1.216904 0.3149455 -1.14974 -0.2977085 -0.07602977 -0.9516245 15185589 male
1.39085 0.2198547 -1.394988 0.9714484 0.06674214 0.2276699 12104130 male
1.242109 0.6719288 -1.537075 -0.2080526 0.6387459 -0.7407548 526600 male
1.690073 0.2706367 -0.8122436 0.3885743 0.5489693 -0.7400289 526600 male
1.324778 0.04068162 -1.38813 -0.4097676 -0.7734779 -0.4835519 10460328 male
1.688185 0.3944018 -1.274386 0.5278071 0.7584681 0.3822902 526600 male
1.243058 0.1936455 -1.285357 -0.3966893 0.8630702 0.3126459 9142668 male
1.307257 0.4826829 -1.18627 0.4745084 -0.8784087 -0.05692132 10659504 male
1.247411 0.4808127 -1.466028 -0.9362931 0.2423727 -0.2541862 15644328 male
1.377936 0.364755 -0.9790266 -0.7026753 -0.7039142 0.1036924 526600 male
1.224542 0.07851113 -1.316552 -0.6966473 -0.6600102 -0.2811925 10526128 male
1.162962 0.3345506 -1.163684 -0.6098751 0.7106608 0.3507329 14855581 male
1.20655 0.3937685 -1.231431 0.4076397 0.834811 0.3700277 16770786 male
1.418807 0.4073334 -0.9298808 -0.1564445 0.3025678 0.940201 526600 male
1.689815 0.3202617 -1.166785 -0.5719569 0.3868487 0.7233349 526600 male
1.160431 0.376927 -1.338917 -0.2053689 -0.8553787 -0.4755533 5789794 male
1.371409 0.4371794 -0.9943836 -0.5986512 0.3580132 0.7165495 789516 male
1.32342 0.6758954 -1.498556 0.6352119 0.6727291 -0.3793962 15319481 male
1.215112 0.1157244 -1.248383 -0.8267 -0.1664668 0.5374531 8354695 male
1.263003 0.4660471 -1.504511 -0.8473734 0.2021023 -0.4910324 11314606 male
1.155691 0.388281 -1.25382 -0.8808081 0.2674676 0.3906892 14395556 male
1.740593 0.2622734 -1.121964 -0.5702292 0.5401106 0.6189662 526600 male
1.546669 0.5207361 -1.37392 -0.8012795 -0.5660839 -0.1936498 855052 male
1.148347 0.3288139 -1.373711 -0.8389764 -0.3308793 0.4320156 9472664 male
1.733632 0.3626732 -1.212687 0.4996263 0.6842543 0.5311963 526600 male
1.379837 0.1266049 -1.102735 0.2036295 -0.6825538 0.701894 7633549 male
1.610178 0.3313788 -1.262781 -0.2999702 0.9532824 -0.0356463 7172218 male
1.289691 0.6475786 -1.412326 -0.1595575 0.5183851 0.8401299 13412256 male
1.186245 0.3490592 -1.287232 0.3196594 -0.8698174 -0.3758133 7234401 male
1.551354 0.1216287 -1.200673 0.3977835 -0.5630096 0.7244228 2171945 male
1.223386 0.4705825 -1.423615 0.0278454 0.8749029 0.4834971 7368056 male
1.692625 0.3962839 -1.237973 0.09673774 0.7457252 0.6591933 526600 male
1.86968 0.1510502 -1.098927 0.4260994 -0.5968829 -0.6798309 526600 male
1.198235 0.4052334 -1.243814 0.2076032 0.893148 0.3989831 14592677 male
1.342659 0.2655535 -1.053901 -0.7410579 0.006261672 0.6714119 4277321 male
1.528854 0.321291 -1.463006 0.7615335 -0.06730117 -0.6446217 16502726 male
1.317776 0.4735202 -1.424805 0.4107155 0.1091615 0.9052051 16770023 male
1.772665 0.2505423 -1.139292 0.8336887 -0.4266495 -0.3506187 526600 male
1.284799 0.3008315 -1.57623 -0.4025586 -0.4001909 -0.8232824 10921143 male
1.203959 0.6035885 -1.547824 -0.517399 -0.131588 -0.8455665 6578276 male
1.199617 0.4256628 -1.278669 0.3561474 0.807224 0.4706892 14927307 male
1.253545 0.5766516 -1.548897 0.03467065 -0.5044096 -0.8627682 7103849 male
1.285767 0.5582606 -1.543059 0.9271153 -0.04585424 0.3719605 16167083 male
1.37814 0.3888573 -1.030023 -0.02788395 -0.8449706 -0.5340852 526600 male
1.404418 0.09259875 -1.212859 0.9885213 0.06373078 -0.1369815 526344 male
1.286304 0.2547902 -1.302847 0.2200261 0.2818675 0.933884 8552586 male
1.177959 0.3075108 -1.479742 -0.6690269 -0.3064617 -0.6771147 13289945 male
1.370386 0.1421225 -1.088593 0.02913007 -0.6752778 0.736988 11713489 male
1.429117 0.1161643 -1.324169 -0.3492316 0.4543228 -0.8195292 12764117 male
1.191677 0.5593393 -1.474638 -0.7868702 -0.6128062 0.07282731 9735828 male
1.390022 0.6046636 -1.441913 0.8722485 0.2719913 -0.406452 13478313 male
1.580119 0.2955291 -1.22123 -0.5306362 0.6057544 0.5928632 3948098 male
1.375434 0.2034103 -1.370089 0.9225012 0.2725848 0.273293 12433102 male
1.784019 0.1760535 -0.9142551 0.3600685 -0.7177002 0.5960343 526600 male
1.459725 0.327754 -1.445214 -0.6829969 -0.4676016 0.5611274 1382170 male
1.402234 0.1081907 -1.134962 0.6419552 -0.5976755 0.480289 2828851 male
1.443358 0.408396 -0.9320918 0.368192 0.6034588 0.7072992 526600 male
1.320008 0.199019 -1.530743 0.0545502 -0.6068206 -0.7929647 7038572 male
-2.570918 0.340302 -1.451547 0.2902648 -0.4039058 -0.8675292 5919308 male
-2.569393 0.04289415 -1.386996 -0.7832005 -0.1119967 -0.6115997 2697257 male
-2.678071 0.0278816 -1.384679 0.01640549 -0.1153885 -0.9931851 4869458 male
-2.482922 0.1244391 -1.285089 0.6410508 -0.1909651 0.7433617 2302507 male
-2.579915 0.3819938 -1.481104 0.1335807 -0.5400562 -0.8309608 6576470 male
-2.716447 -0.1361624 -1.277956 -0.7715229 0.1799951 0.6102086 1908001 male
-2.666631 0.2553929 -1.214933 -0.3601156 0.1366413 0.9228467 7104613 male
-2.574054 0.56587 -1.562498 -0.2501231 0.02566804 -0.9678739 9932935 male
-2.636737 0.7756603 -1.650884 -0.7986568 0.4115405 -0.4390694 15848904 male
-2.62592 0.1013556 -1.356464 0.7362231 -0.1002749 -0.6692688 3091247 male
-2.506558 -0.3232673 -1.362576 0.3931735 0.01239685 -0.9193809 2435116 male
-2.6019 0.8384244 -1.666071 -0.6063001 0.6076445 -0.5129996 6181198 male
-2.692666 0.5198626 -1.332294 -0.5530675 0.1653061 0.8165725 4800576 male
-2.616709 0.2613573 -1.424347 -0.2123004 -0.1992889 -0.9566674 9011323 male
-2.497796 0.3553577 -1.300331 0.5795243 0.6101153 0.540288 7629416 male
-2.546728 -0.08297317 -1.301196 -0.576302 -0.0286715 0.8167338 2302507 male
-2.713909 0.06810518 -1.263209 -0.6098138 -0.2224271 0.760693 2696233 male
-2.493108 0.5684029 -1.57707 -0.7872272 -0.5885887 -0.1839479 4867394 male
-2.495504 -0.4533914 -1.381842 -0.1892859 -0.9772055 -0.0961265 526344 male
-2.450777 0.5898094 -1.592787 0.728671 0.5398803 -0.421388 8748404 male
-2.635217 0.6582131 -1.573075 -0.854004 -0.1694649 -0.4918934 16771039 male
-2.480743 0.1195192 -1.408814 0.6625168 -0.01757352 -0.7488412 4079174 male
-2.683573 -0.4397793 -1.490409 -0.1787648 -0.9822769 -0.05634902 526344 male
-2.684024 0.4876503 -1.629558 0.1158485 -0.7955417 0.5947207 5525068 male
-2.71787 -0.3384981 -1.323102 -0.9987148 -0.02187105 -0.04572451 1579032 male
-2.691314 0.6717731 -1.414853 -0.2729309 0.798623 0.5363864 9669771 male
-2.529779 0.6500129 -1.449744 0.2701617 0.7649434 0.5847003 9735812 male
-2.443679 0.5165013 -1.479795 0.7404802 -0.6590414 0.131733 3618358 male
-2.625253 0.03347753 -1.342336 0.8924638 -0.04823871 -0.4485327 2565928 male
-2.434078 0.544493 -1.570994 0.6568487 -0.665817 0.3538894 7761769 male
-2.517977 0.2847652 -1.245149 0.4090863 0.2711256 0.8712862 9011581 male
-2.528757 0.6723683 -1.513408 0.4629815 0.8520287 0.2443262 8880763 male
-2.47465 -0.2136726 -1.339407 0.9651997 -0.0918274 -0.2448621 2631465 male
-2.564837 0.5283052 -1.616994 -0.6362439 0.7172417 -0.28418 16773353 male
-2.564336 0.7150137 -1.689369 0.3990778 -0.3454251 -0.8493637 15455690 male
-2.753157 0.6515928 -1.475001 -0.7171975 -0.4346403 0.5447161 8485496 male
-2.520398 0.202054 -1.415261 0.1142384 0.2167578 -0.9695184 3027253 male
-2.444563 0.5349972 -1.518354 0.0005113019 -0.9999734 0.007286307 591369 male
-2.715175 -0.06167546 -1.34643 -0.9757893 -0.01543762 -0.2181678 2828843 male
-2.683089 0.6729565 -1.413308 -0.2093673 0.815524 0.5395239 10721939 male
-2.607205 0.6569955 -1.406976 0.414767 0.6816099 0.602807 3683888 male
-2.72864 0.4748624 -1.712407 -0.9867028 0.1290876 -0.09876338 16774123 male
-2.61398 0.7718389 -1.550366 -0.7355579 0.005030396 0.6774434 6050893 male
-2.594941 0.3382609 -1.248522 0.2263143 0.5384731 0.8116828 9866378 male
-2.489727 0.7577418 -1.597248 0.9270215 -0.3712498 -0.0529623 3814449 male
-2.702292 -0.0970043 -1.366742 -0.5080143 -0.3962135 -0.7648115 2960429 male
-2.67785 0.6291087 -1.578429 0.7188894 0.5144379 -0.4674954 8025197 male
-2.749588 0.1438392 -1.282474 -0.9349649 -0.08420309 0.3446022 1972767 male
-2.58467 0.3633888 -1.26793 0.2196309 0.5831651 0.7821003 12826546 male
-2.716945 0.5307302 -1.36527 -0.9019833 0.02344093 0.4311346 3223601 male
-2.569656 0.4039104 -1.296504 0.216936 0.3876393 0.8959212 10064009 male
-2.650423 -0.2603086 -1.312765 0.9594086 -0.1906465 -0.2078201 2039071 male
-2.485799 0.2515565 -1.399977 0.4640888 0.1391788 -0.8747863 3750969 male
-2.66977 0.3496095 -1.428248 -0.7184445 -0.3044133 -0.6254361 6116172 male
-2.61716 0.4246106 -1.586795 -0.7019508 0.5495571 0.4530476 16772582 male
-2.498458 0.7542966 -1.560099 0.8295922 -0.3878542 0.4016791 5524040 male
-2.527952 -0.02294697 -1.287263 -0.006384879 -0.1216973 0.9925469 3092015 male
-2.501063 -0.4413409 -1.496331 0.414518 0.8993935 0.1388031 2828843 male
-2.644317 0.6586804 -1.524592 -0.7702292 0.3186551 -0.5524548 4604734 male
-2.723071 0.2181504 -1.242955 -0.7687443 0.05899448 0.6368299 2631469 male
-2.457583 0.1964553 -1.326192 0.9888757 0.02959369 0.145771 2631465 male
-2.70136 -0.4181604 -1.369935 0.9380291 -0.3449987 -0.03282607 526600 male
-2.698407 -0.1432315 -1.261726 -0.3782049 0.1698895 0.9099994 2696233 male
-2.662339 0.227472 -1.209527 -0.2168942 -0.004522618 0.9761848 4211016 male
-2.561061 0.1452598 -1.263204 -0.3269916 -0.2793176 0.9028059 2105893 male
-2.769745 -0.4368392 -1.393727 -0.469643 -0.8478032 0.2463032 2237223 male
-2.723506 0.7023373 -1.546109 0.05381511 0.8104979 -0.5832642 6446421 male
-2.513883 -0.4513954 -1.354708 -0.1746942 -0.9698794 -0.1697526 657930 male
-2.664011 -0.2137206 -1.341776 0.4577827 -0.118059 -0.8811909 2500142 male
-2.719033 -0.3943474 -1.278196 0.1018831 0.2653119 0.9587647 2697262 male
-2.605322 0.4406619 -1.579025 -0.7077096 0.4690369 0.5283481 16243672 male
-2.706367 0.3737222 -1.68416 -0.02464378 0.8188466 -0.5734832 14467507 male
-2.518745 0.6038431 -1.586028 -0.4938664 0.8025638 -0.3346453 11314588 male
-2.588223 0.8629143 -1.634223 -0.4293243 0.884648 -0.1818755 4867394 male
-2.563925 0.6145453 -1.560189 0.06684351 0.1241323 -0.9900118 4537654 male
-2.706108 0.4053153 -1.409537 -0.8730304 -0.3132129 -0.3737859 6248534 male
-2.686964 -0.1501563 -1.256528 -0.1200851 0.1327343 0.9838504 3093047 male
-2.466429 0.3259785 -1.349312 0.9607152 0.2725835 -0.05220032 4603453 male
-2.478475 0.5148997 -1.609392 0.6166554 -0.6491153 -0.4454049 9211010 male
-2.547151 0.7010216 -1.544333 0.7626579 -0.04814268 0.6450081 6904914 male
-2.493394 -0.247917 -1.36288 0.5342952 -0.1417665 -0.8333255 2302505 male
-2.502796 0.3288155 -1.275285 0.5347977 0.4517975 0.7140524 7563619 male
-2.613934 0.365842 -1.64183 0.59007 -0.6907777 -0.417904 15322308 male
-2.436559 0.5682974 -1.615094 0.7244197 -0.1805816 -0.665287 10263188 male
-2.484115 -0.2695555 -1.344708 0.9237006 -0.169584 -0.3435388 2499884 male
-2.610374 0.1040179 -1.332285 0.9181793 -0.1513579 -0.3661117 15065577 male
-2.480135 -0.1144228 -1.317069 0.9646167 0.1737289 0.198326 2500654 male
-2.486032 -0.0101439 -1.376256 0.81654 -0.3486358 -0.4601259 3289915 male
-2.54496 0.8441773 -1.676599 0.3108737 0.6384398 -0.7040969 6971226 male
-2.482376 0.3365554 -1.302139 0.7795987 0.3948275 0.4861454 7301220 male
-2.634525 0.6999146 -1.497197 -0.4030552 0.8539454 -0.3291259 3881784 male
-2.504218 0.5710461 -1.623824 -0.5615088 0.4012503 -0.7236756 5790295 male
-2.622399 -0.0117015 -1.33359 0.9435979 -0.04274825 -0.3283226 1777186 male
-2.704658 0.3956477 -1.826395 -0.7980968 0.5189151 -0.306217 15587276 male
-2.695572 0.3693407 -1.39873 -0.8541183 -0.2049286 -0.4780025 5854289 male
-2.653851 -0.2786877 -1.307411 0.9760945 -0.168863 -0.1368392 1841948 male
-2.4796 -0.006706535 -1.346449 0.9744381 -0.2227673 0.02907395 2368807 male
-2.72937 -0.2022586 -1.3221 -0.9737785 -0.09433037 -0.2070209 1973793 male
-2.529449 0.7857825 -1.682911 0.6447003 -0.09716044 -0.7582359 7563103 male
-2.502777 -0.1248429 -1.284185 0.3714163 0.3002233 0.8785876 2697005 male
-2.621192 0.03817522 -1.2869 0.8823341 -0.1997113 0.4261481 2302499 male
-2.513463 0.6110345 -1.572322 -0.4360029 0.8197305 -0.3714074 7039331 male
-2.646826 -0.1123283 -1.281176 0.7571483 0.2318619 0.61071 2435117 male
-2.75546 -0.4180103 -1.321341 -0.9422436 0.1233304 0.311395 2171171 male
-2.427847 0.5529658 -1.59228 0.8811522 -0.4625347 -0.09814572 9933199 male
-2.548427 -0.3012335 -1.334582 -0.9326981 -0.1389075 -0.332835 2039071 male
-2.683148 0.48027 -1.737677 0.6262544 0.5333642 -0.5686195 16702669 male
-2.605292 0.5787033 -1.552936 -0.3864845 0.008532673 -0.9222566 10853008 male
-2.658014 -0.009983784 -1.378811 0.426569 -0.07323672 -0.9014852 2895668 male
-2.563035 0.6207716 -1.403746 0.5006588 0.5650378 0.6557997 10459286 male
-2.594164 0.7891276 -1.533758 -0.5964919 0.05991793 0.8003795 3288362 male
-2.474751 0.5963711 -1.632695 -0.001175672 0.5737898 -0.819002 6381143 male
-2.595479 0.7989973 -1.5364 -0.6211693 0.1348426 0.7719887 4143671 male
-2.617997 0.7620806 -1.680177 -0.7712119 0.4925712 -0.4032443 16242638 male
-2.542012 -0.0194442 -1.289734 -0.2848198 -0.1397143 0.9483448 3093047 male
-2.476377 -0.1351096 -1.318956 0.9789291 0.1675171 0.1167735 2434085 male
-2.517368 0.3751285 -1.447508 0.5892374 -0.4748491 -0.6536956 4735294 male
-2.545619 0.6297016 -1.421889 0.2979926 0.6501612 0.6989213 5921106 male
-2.457202 0.08936299 -1.358804 0.9907529 -0.1148171 -0.07229209 2170145 male
-2.682582 0.1550876 -1.227178 -0.2099361 -0.3312561 0.9198894 2959664 male
-2.522894 0.7995417 -1.526406 0.3789436 0.1040229 0.9195551 10195339 male
-2.645409 0.70885 -1.632825 -0.9369852 -0.3186696 0.1432087 13417644 male
-2.626168 0.1759556 -1.365075 0.6368096 -0.1352951 -0.759058 3157808 male
-2.69814 0.2767046 -1.367116 -0.5447096 -0.0120881 -0.8385378 5788240 male
-2.742755 -0.4335761 -1.298038 -0.2042447 -0.9416404 0.267577 1052688 male
-2.733327 0.5601696 -1.600595 -0.9563596 -0.2696908 0.112444 16637139 male
