# .PCD v0.7 - Point Cloud Data file format
VERSION 0.7
FIELDS x y z normal_x normal_y normal_z rgb label
SIZE 4 4 4 4 4 4 4 4
TYPE F F F F F F U U
COUNT 1 1 1 1 1 1 1 1
WIDTH 251
HEIGHT 1
VIEWPOINT 0 0 0 1 0 0 0
POINTS 251
DATA ascii
1.221712 0.2601294 -1.307884 -0.3223636 0.2440254 0.9146219 6250343 male
1.349422 0.3131914 -1.092691 -0.268418 0.9021056 -0.3378719 6778240 male
1.770035 0.2630174 -1.047182 0.9746851 0.2230902 0.01482362 526600 male
1.348946 0.1995942 -1.043363 -0.2608661 -0.5453284 0.7965963 5528418 male
1.211763 0.2669941 -1.31284 -0.424152 0.2255444 0.8770546 5328721 male
1.683668 0.3731221 -1.236493 0.8145319 0.5577587 -0.1595084 3817286 male
1.380449 -0.001047558 -1.298054 0.0638914 -0.9851599 -0.1593043 6777975 male
1.416411 0.02494889 -1.331442 0.4437937 -0.7531049 -0.4856749 10791348 male
1.320501 0.5852451 -1.533008 0.4654687 -0.1168319 -0.8773193 14134950 male
1.503923 0.231584 -1.248003 -0.455415 0.8606433 -0.2277947 6580088 male
1.519893 0.3168299 -0.8565617 0.5084317 0.2408389 -0.8267367 526600 male
1.326204 0.6342141 -1.527931 0.6637284 0.1031875 -0.7408217 10060932 male
1.373263 0.2124866 -1.50883 0.7452154 -0.4109344 -0.5251542 4802377 male
1.342017 0.1917699 -1.261218 -0.243959 0.968425 0.0513535 6383472 male
1.17362 0.2004819 -1.392679 -0.9068512 -0.4213644 0.008541316 9012625 male
1.364398 0.350311 -1.019977 0.01057554 -0.995675 0.09230103 526600 male
1.565917 0.1245607 -1.25176 0.791471 -0.5116142 -0.3344018 4804180 male
1.185953 0.4627761 -1.335018 0.313177 0.8325388 0.4569458 10525096 male
1.505946 0.2925775 -0.8475564 0.1101712 -0.1321348 -0.9850901 526600 male
1.179983 0.4628754 -1.411472 -0.2428332 0.9695884 0.03050178 7104623 male
1.327976 0.4754917 -1.442034 0.8454007 -0.2074279 0.4922106 16574948 male
1.334248 0.2488145 -1.171741 0.08422852 0.7796521 -0.6205226 6448758 male
1.552593 0.5381126 -1.373996 0.4465225 0.003208952 -0.8947667 13676976 male
1.526079 0.2855456 -1.361645 -0.7586947 -0.02942679 0.6507814 985359 male
1.712025 0.2386961 -1.086288 -0.3461146 -0.8286952 -0.439851 526600 male
1.342765 0.3537446 -1.587074 0.05228782 -0.2498927 -0.9668607 11248563 male
1.192413 0.3269422 -1.505309 -0.4572155 -0.2123766 -0.8636261 14474218 male
1.125334 0.3871598 -1.393517 -0.9636569 -0.2343859 -0.1281739 8946832 male
1.525808 0.2458864 -1.247457 -0.3118862 0.8747299 -0.3709105 8292245 male
1.127298 0.3850911 -1.328325 -0.9558325 -0.2929401 0.02388316 9012113 male
1.298348 0.02249197 -1.270769 -0.2814556 -0.9593806 -0.01927905 7238015 male
1.170509 0.4446009 -1.462681 -0.810213 0.487192 -0.3258815 10392742 male
1.357498 0.4345536 -0.9425435 -0.5468318 0.2288683 0.8053535 526600 male
1.198173 0.3968585 -1.267101 0.6517933 0.7026861 0.2853032 14527410 male
1.343915 0.5656109 -1.420903 0.6435058 0.1201985 0.7559448 14594215 male
1.431846 0.3689629 -1.569818 0.5804869 -0.3802949 -0.7200074 9602443 male
1.267392 0.214851 -1.152878 -0.8714718 0.4904454 0.0004232824 1117449 male
1.164706 0.3242047 -1.263949 -0.0539894 -0.9538127 -0.2955104 14461605 male
1.639194 0.246287 -1.226237 0.526087 -0.8160129 -0.2394897 986895 male
1.322983 0.3012047 -1.582088 -0.08844605 -0.4268192 -0.9000014 9275285 male
1.269114 0.418023 -1.559848 -0.5212252 0.3205341 -0.7909375 12432840 male
1.565016 0.3181773 -1.401605 0.6871702 0.3149605 -0.6546732 15975619 male
1.301989 0.6565729 -1.540617 0.4974533 0.3479628 -0.7946459 6184030 male
1.361747 0.04007464 -1.389684 0.07810505 -0.7854345 -0.613997 7828094 male
1.240683 0.6431711 -1.418481 -0.3111215 0.154492 0.9377289 14207184 male
1.6476 0.2506436 -1.24173 0.6145352 -0.5793529 -0.5354406 5460563 male
1.458815 0.3918634 -1.490332 0.46997 0.8752199 0.1145358 15189440 male
1.400323 0.3534661 -1.51572 -0.7621014 -0.4071905 0.5033859 921102 male
1.332666 0.04845726 -1.395005 -0.2683161 -0.7323077 -0.625885 7630972 male
1.388991 0.2553788 -1.507824 0.9320413 -0.2321905 -0.2781843 2106144 male
1.272566 0.02913496 -1.259411 -0.3677663 -0.9295524 -0.02608037 7633549 male
1.786776 0.2678242 -1.020768 0.6111274 0.7693909 0.1859053 526600 male
1.270042 0.1858329 -1.208562 -0.5234511 0.7338176 -0.4330251 4869467 male
1.358973 0.2165499 -1.348126 0.736778 0.4205283 0.529447 12038343 male
1.187348 0.3412552 -1.275082 0.6497611 -0.6517053 -0.3912681 526344 male
1.210733 0.5649367 -1.45813 -0.6695794 -0.5234555 0.5269325 11971502 male
1.361233 0.3079654 -1.019593 -0.2202153 -0.8115197 0.5412403 789004 male
1.676675 0.290256 -0.7856184 0.486591 -0.6841368 0.5433102 526600 male
1.345466 0.3863581 -1.587618 0.001218706 0.1709696 -0.9852755 11710403 male
1.489225 0.05496772 -1.305054 0.6876719 -0.4676491 -0.5553482 3422013 male
1.247871 0.1764648 -1.179684 -0.8925915 0.443995 0.07841453 3750976 male
1.754418 0.2608728 -1.019365 -0.6072505 0.7165439 0.343237 526600 male
1.725756 0.3926615 -1.216836 0.8405972 0.4011701 0.3639488 526600 male
1.325715 0.01475178 -1.26578 -0.2505867 -0.9517871 0.17694 6712703 male
1.308301 0.05322859 -1.148429 -0.1810711 -0.6054599 0.7750041 9146780 male
1.803485 0.1797868 -1.002573 -0.2562382 -0.8201005 0.5116417 526600 male
1.420781 0.4373069 -1.557022 0.2303738 0.8854781 -0.4035548 8288642 male
1.565904 0.2801068 -0.7705796 0.6284525 -0.7042628 -0.3302442 526600 male
1.73259 0.2705884 -1.110707 0.8783739 -0.4611686 -0.1256302 526600 male
1.803162 0.2045612 -1.025483 0.5094461 -0.5763622 -0.6389611 526600 male
1.174468 0.2926157 -1.192848 0.9390305 0.08896098 -0.3321258 14596029 male
1.242877 0.316515 -1.143069 0.8998211 -0.4197408 0.1189104 2303525 male
1.236394 0.4368665 -1.377626 0.3809862 0.8695014 0.3143515 12302025 male
1.283309 0.7050131 -1.487203 0.1974684 0.9766061 -0.0851274 526600 male
1.318232 0.4559469 -1.438916 0.7699491 -0.08772745 0.6320461 13354455 male
1.369706 0.00121046 -1.259894 -0.1627887 -0.9580406 0.2359195 6317681 male
1.720523 0.3701341 -1.172461 0.4716252 0.68267 0.5581499 526600 male
1.21622 0.1551299 -1.229282 -0.8862652 0.2672747 0.3782835 5658206 male
1.138899 0.3931885 -1.275606 -0.8332839 0.3722505 0.4087387 15582402 male
1.284971 0.6989564 -1.453647 0.1293698 0.8994666 0.4174005 2960173 male
1.413467 0.3596276 -0.9058995 -0.5072972 -0.1022649 0.8556819 526600 male
1.173497 0.2068173 -1.40819 -0.8903829 -0.4427663 -0.1057172 7895171 male
1.130389 0.2597831 -1.111101 -0.5306027 0.4547041 0.7153356 16370885 male
1.118754 0.4166978 -1.355623 -0.9982367 -0.05934314 -0.001423091 7039347 male
1.4035 0.3465318 -0.9181579 -0.6655892 -0.4087338 0.624442 526600 male
1.496565 0.2268591 -1.222097 -0.6015679 0.7788867 0.1773457 6119276 male
1.330602 0.2897457 -1.028401 -0.8044274 -0.05544443 0.5914578 3882564 male
1.344104 0.3704812 -1.021384 -0.8491392 0.3965901 0.3488251 5066580 male
1.327533 0.6769774 -1.45534 0.6678798 0.687708 0.2845952 16041149 male
1.241666 0.05685496 -1.224221 -0.7418211 -0.5675172 0.3572475 6975099 male
1.290488 0.4676378 -1.541032 -0.1579774 0.6825999 -0.7135128 13745340 male
1.156529 0.4257561 -1.295664 -0.1902733 0.7545941 0.6279999 14466751 male
1.65187 0.3579358 -1.156377 -0.6777132 0.4433035 0.5866743 526600 male
1.503562 0.4833525 -1.369342 0.3750234 -0.2074849 -0.9034973 15504793 male
1.415949 0.005689673 -1.229488 0.214016 -0.8449248 0.4902033 8817569 male
1.791569 0.260224 -1.023805 0.881789 0.4716299 -0.003665507 526600 male
1.309204 0.1739827 -1.072013 -0.5586473 -0.3027781 0.7721648 5394778 male
1.71525 0.3958742 -1.203407 0.4370072 0.6283461 0.6435883 526600 male
1.291842 0.6473866 -1.414153 0.09576002 0.2733637 0.9571323 15193046 male
1.330012 0.2745335 -1.031161 -0.7590606 -0.1212508 0.6396289 4210497 male
1.456897 0.1276668 -1.163703 -0.3723684 0.1415882 0.917221 2894383 male
1.302852 0.3217481 -1.336426 0.647324 0.1699901 0.7430176 13551582 male
1.656985 0.3487523 -1.248594 -0.6892395 -0.502037 -0.5224056 526600 male
1.815995 0.2316217 -1.012857 0.802624 0.002078879 -0.5964816 526600 male
1.120516 0.4154357 -1.347284 -0.9981104 -0.0338924 0.05125326 7565435 male
1.342798 0.4414374 -0.972352 -0.7270172 0.1297731 0.6742439 526600 male
1.524005 0.3042104 -1.397796 -0.8647275 -0.08670411 -0.4947006 14661566 male
1.359255 0.3881346 -1.425765 0.5583946 0.5664714 0.6060575 13289181 male
1.722598 0.3070074 -1.097263 0.413386 0.7029461 0.5787735 526600 male
1.250862 0.3422485 -1.55701 -0.738497 -0.06294917 -0.6713119 12499919 male
1.22518 0.6387994 -1.5575 -0.3263761 0.0857426 -0.9413431 5591125 male
1.132289 0.4488136 -1.353874 -0.8245016 0.5596738 0.08344001 7104883 male
1.250891 0.6636726 -1.554545 0.003775835 0.4457312 -0.8951589 4276805 male
1.336392 0.5842461 -1.522197 0.6334696 -0.08758891 -0.7687942 15777717 male
1.36488 0.2732665 -1.024341 -0.09515515 -0.7516511 0.6526607 4802897 male
1.333138 0.4069516 -0.9869258 -0.9172117 -0.3808498 0.1169453 526600 male
1.169699 0.2574195 -1.353833 -0.8601911 -0.07930383 0.503768 5263704 male
1.225719 0.1386706 -1.420693 -0.4006401 -0.6779113 -0.6163796 9671070 male
1.33147 0.103414 -1.104537 -0.03588331 -0.5637101 0.8251929 3026230 male
1.474592 0.0495495 -1.315058 0.6399987 -0.4778559 -0.6017104 3355713 male
1.184931 0.6587741 -1.477733 -0.9185921 0.3435196 0.195404 526344 male
1.380334 0.5881677 -1.446294 0.9997789 -0.001082558 0.02100167 15515320 male
1.472595 0.1878513 -1.188219 -0.5352841 0.6353028 0.5566518 2763053 male
1.403384 0.1299768 -1.334276 0.3677754 0.8080662 -0.460185 5789280 male
1.803866 0.2039908 -0.9731659 -0.424335 -0.3734604 0.8249043 526600 male
1.529938 0.2685252 -1.435002 0.7287905 -0.5143898 -0.4519596 16370885 male
-2.530224 0.3473456 -1.430325 0.8140186 -0.5652156 -0.1338109 5065029 male
-2.595481 0.05091725 -1.379245 -0.06319115 -0.0436487 -0.9970466 3223601 male
-2.721481 -0.3060746 -1.316981 0.9874091 -0.07132155 0.1411979 2171945 male
-2.601183 0.1146044 -1.224016 0.2006502 -0.3000796 0.9325728 1908003 male
-2.554384 0.3233994 -1.431379 0.6706921 -0.674906 -0.3076918 5788495 male
-2.762564 -0.1025529 -1.288874 -0.1788756 0.2014419 0.9630291 2434859 male
-2.771605 0.3587534 -1.336391 -0.6487479 0.7502641 0.1273971 6643549 male
-2.538049 0.4145842 -1.557312 0.2392264 -0.5692712 -0.7865757 8551020 male
-2.577498 0.6293129 -1.75836 -0.7404045 -0.3262392 -0.5876813 14864065 male
-2.693929 0.05130368 -1.323022 0.9928545 -0.11298 -0.03841591 1842205 male
-2.537581 -0.3363453 -1.35655 0.802706 0.04226737 -0.5948756 2368811 male
-2.577148 0.6654105 -1.772862 -0.7390406 -0.06210735 -0.6707921 14929606 male
-2.762825 0.3772564 -1.426109 -0.9653252 0.03330716 -0.2589175 3617327 male
-2.625422 0.2877099 -1.444834 0.08933087 -0.6335328 -0.7685417 7169381 male
-2.62777 0.3317516 -1.252069 0.02047898 0.6761764 0.7364553 8090477 male
-2.622444 -0.1225529 -1.303026 -0.8947657 -0.08267462 0.4388163 2302243 male
-2.789676 0.004791384 -1.290607 -0.7714726 -0.2614734 0.5800536 2235940 male
-2.44522 0.4846044 -1.582189 -0.7123523 -0.5144235 -0.4774128 8025202 male
-2.505988 -0.4667333 -1.413312 -0.02558752 -0.9962277 -0.08291842 592137 male
-2.466728 0.4758877 -1.537403 0.6532843 -0.7505308 -0.0996154 4670782 male
-2.527749 0.5451891 -1.67885 0.6330462 -0.7671094 -0.1039036 13416877 male
-2.585392 0.1253311 -1.37702 0.1579102 0.1043968 -0.9819196 3421756 male
-2.645396 -0.4582621 -1.474191 0.9479878 -0.318078 -0.01207364 2631976 male
-2.508024 0.3423384 -1.814415 0.3278733 0.6790442 0.6568091 16773608 male
-2.724356 -0.2032474 -1.355365 0.7089517 0.003312689 -0.7052495 2237482 male
-2.666314 0.5918065 -1.52087 -0.1510447 0.9108367 0.3841381 6840412 male
-2.615704 0.5766994 -1.478066 -0.3082361 0.831571 0.4620392 8288882 male
-2.489437 0.4371154 -1.442412 0.9467624 -0.2978351 0.1222112 3222569 male
-2.706766 0.05127995 -1.370308 0.8527204 -0.02236881 -0.5218887 3091249 male
-2.376216 0.4910462 -1.551758 0.8632048 0.197957 0.4644251 9670535 male
-2.67713 0.2722385 -1.220555 -0.2036137 0.2971394 0.9328718 9209213 male
-2.609732 0.5254518 -1.619944 0.131499 -0.1536336 -0.9793391 6774107 male
-2.53952 -0.2123149 -1.283545 0.7917931 -0.05257284 0.6085228 2368292 male
-2.432865 0.4898883 -1.596875 -0.4833488 -0.04758638 -0.8741336 8221806 male
-2.519211 0.540036 -1.704229 0.2042723 -0.9328393 0.2967889 11839899 male
-2.750082 0.4983567 -1.608549 -0.8716004 -0.4578779 0.1751025 6776159 male
-2.62919 0.185628 -1.3726 0.08242109 -0.09575672 -0.9919868 2895152 male
-2.462472 0.4965436 -1.488883 0.3684807 -0.9296204 0.005268216 526600 male
-2.767057 -0.06780379 -1.389979 -0.620359 -0.07604447 -0.7806231 3289397 male
-2.683048 0.5848315 -1.512291 -0.2342036 0.8968621 0.3752159 9078402 male
-2.636431 0.5604102 -1.457588 -0.1098526 0.7803229 0.6156532 9011835 male
-2.566365 0.3366506 -1.803369 -0.3123097 0.9189944 -0.2406493 16701382 male
-2.592644 0.6916229 -1.750118 -0.8592856 0.1308516 -0.494476 8090995 male
-2.739426 0.2636535 -1.224192 -0.1812059 0.2540101 0.9500755 11445665 male
-2.464917 0.7057123 -1.695212 0.946608 0.277207 0.1645903 3881270 male
-2.73654 -0.06629396 -1.396812 0.2460491 -0.1523742 -0.9572054 4278352 male
-2.641884 0.4866155 -1.678524 0.8486055 0.5002427 -0.1721231 6578779 male
-2.830485 0.09650711 -1.323013 -0.9852294 -0.1704388 0.0165484 1908257 male
-2.690249 0.3009098 -1.236785 -0.1224949 0.4942905 0.8606231 9010808 male
-2.739961 0.4281412 -1.514974 -0.8315856 -0.2713696 -0.4845867 3946035 male
-2.635623 0.2770175 -1.216135 0.05424374 0.3595601 0.9315441 9339773 male
-2.727638 0.03580455 -1.392672 0.4777287 -0.06516895 -0.8760871 3883594 male
-2.54007 0.2364608 -1.291765 0.9757923 0.0957009 0.1966494 5590860 male
-2.723389 0.2847535 -1.423653 -0.4250095 -0.4006817 -0.8116781 7104100 male
-2.320338 0.3254363 -1.608648 -0.9120964 0.4082608 -0.03746617 16772071 male
-2.47409 0.7272005 -1.712867 0.8118864 0.5755373 -0.09796679 3354670 male
-2.623476 -0.1428814 -1.311062 -0.9912517 -0.05063976 0.1218849 1973534 male
-2.565909 0.610484 -1.55982 -0.08108862 0.9933145 0.08216372 11052191 male
-2.693092 0.5954152 -1.595216 -0.4454325 0.8189422 -0.3618337 4933187 male
-2.805408 0.1289679 -1.258309 -0.647637 -0.2841068 0.7070007 3355963 male
-2.5553 0.2345511 -1.337755 0.6859713 0.1563263 -0.7106377 7959409 male
-2.753482 -0.3975468 -1.343376 0.9527082 0.1625924 0.2567316 1777186 male
-2.802975 -0.1914286 -1.326898 -0.9961725 -0.08611986 -0.01496273 1973534 male
-2.538037 0.5235794 -1.596309 0.506796 -0.0178741 -0.8618809 6972763 male
-2.655535 -0.01235285 -1.310433 -0.988802 -0.1488117 0.01122892 2170657 male
-2.795846 -0.4582567 -1.323735 0.04667874 -0.9887565 0.1420621 1052688 male
-2.673963 0.5170897 -1.70131 0.495546 0.2585362 -0.8292127 6971481 male
-2.553385 -0.4387437 -1.379068 -0.9026229 -0.09669656 -0.4194303 2040101 male
-2.7778 -0.3800224 -1.317313 -0.6222418 -0.2641941 0.7368968 2829358 male
-2.807563 -0.4394387 -1.354403 -0.9748045 0.05965475 0.2149367 2171169 male
-2.35477 0.3512491 -1.599114 -0.9093927 -0.4114452 -0.06097671 16572379 male
-2.287317 0.3524754 -1.754106 0.6709529 0.7281138 0.1402596 15717317 male
-2.464277 0.4848274 -1.552923 0.4502029 -0.7624949 -0.4646708 4802112 male
-2.535508 0.7380476 -1.76338 -0.06830136 0.7820441 -0.6194692 10786699 male
-2.649539 0.4095595 -1.580082 0.05374211 -0.6884539 -0.7232863 10720901 male
-2.76661 0.350235 -1.415332 -0.9223436 -0.1039559 -0.3721235 3025448 male
-2.795367 -0.2323638 -1.342434 -0.9384826 -0.2127071 -0.272041 1908256 male
-2.557001 0.2395356 -1.338928 0.6810135 0.119629 -0.7224332 8814718 male
-2.350566 0.445091 -1.62049 0.4311148 0.7190976 -0.5450126 16111048 male
-2.558722 0.6124719 -1.599988 0.02029243 0.7078751 0.7060462 16772834 male
-2.5396 -0.2634976 -1.351488 0.6872467 -0.05858786 -0.7240578 2303017 male
-2.633715 0.389956 -1.305515 -0.05213523 0.5013443 0.8636759 9668995 male
-2.260796 0.3092842 -1.666221 0.9284216 -0.339929 -0.1499399 15387337 male
-2.398293 0.5364342 -1.585532 0.7059095 0.4985398 -0.5031401 7500136 male
-2.539265 -0.2446136 -1.352549 0.6813977 -0.04198647 -0.7307084 2566703 male
-2.690877 0.07080168 -1.323421 0.9888715 -0.1361155 -0.06005013 2171429 male
-2.546814 -0.1327028 -1.294197 0.8512945 0.2847873 0.4406745 2565929 male
-2.569224 -0.04205756 -1.367606 0.6979846 0.0504345 -0.7143348 3356991 male
-2.509459 0.6907144 -1.792475 0.2589771 0.2517251 -0.9325051 9932935 male
-2.598922 0.2436817 -1.217246 0.5257199 0.1745262 0.832562 8748921 male
-2.715643 -0.4628046 -1.444122 -0.9467809 -0.320607 0.0285874 264458 male
-2.382573 0.5166138 -1.568057 0.8108673 0.5757134 -0.1051121 10326409 male
-2.698987 -0.0651489 -1.331682 0.9836686 -0.1124969 -0.1405021 1972766 male
-2.435408 0.3553692 -1.890987 -0.7597464 0.1010083 -0.6423262 14795704 male
-2.767068 0.3304055 -1.401233 -0.8333594 0.02997242 -0.5519184 2828843 male
-2.716036 0.0001632851 -1.383218 0.6321191 -0.01267756 -0.7747678 3619391 male
-2.549298 -0.0001036191 -1.305515 0.9274585 -0.2027244 0.3142036 2171174 male
-2.766437 -0.1462696 -1.28111 -0.2380922 0.193046 0.9518642 2763824 male
-2.463267 0.6886051 -1.740499 0.94447 0.1669418 -0.2830319 5392707 male
-2.547826 -0.1215017 -1.300756 0.8979144 0.2715307 0.3464406 2566447 male
-2.712254 0.02523857 -1.280236 0.6846163 -0.1847978 0.705089 2302499 male
-2.473473 0.5634731 -1.573967 -0.06460811 0.6894709 -0.7214263 4276281 male
-2.766863 -0.1789741 -1.276469 -0.2237696 0.001451888 0.9746411 3157808 male
-2.781322 -0.3931448 -1.377437 -0.7875688 0.3403169 -0.5137315 2500646 male
-2.395902 0.5404493 -1.560572 0.8277241 0.558001 -0.05922699 10063753 male
-2.603274 -0.1249655 -1.356331 -0.4590919 -0.3174503 -0.8297349 2171170 male
-2.597621 0.3000837 -1.710545 0.6151326 -0.02371555 0.7880672 14599101 male
-2.586384 0.4227006 -1.560759 0.06798965 -0.6740642 -0.7355373 16704948 male
-2.734107 -0.341056 -1.325598 0.9977605 0.01129362 0.06592947 2565671 male
-2.715983 0.3958505 -1.325925 -0.3065283 0.4301736 0.8491121 10524822 male
-2.598797 0.7161636 -1.672812 -0.8841212 0.3347895 0.325954 4471612 male
-2.437398 0.5352495 -1.598616 0.05787709 0.2126171 -0.9754202 7037274 male
-2.598776 0.7241669 -1.707499 -0.8851576 0.449549 -0.1200082 4998462 male
-2.582269 0.6393204 -1.756523 -0.8458233 -0.2079095 -0.4912808 12825255 male
-2.564416 0.003200604 -1.276592 0.754199 -0.1930165 0.6276376 2959661 male
-2.538429 -0.1529757 -1.30006 0.9260589 0.2398419 0.2913606 1711394 male
-2.515337 0.3778086 -1.409962 0.9109755 -0.3028431 0.280018 3355441 male
-2.64543 0.4402397 -1.347773 -0.3519896 0.5709118 0.7417299 8551031 male
-2.531968 0.09256932 -1.300321 0.9827348 -0.05550529 0.1764986 2302501 male
-2.802154 0.1440596 -1.251716 -0.6396217 -0.2969847 0.7090024 2697265 male
-2.540158 0.7094539 -1.62468 -0.097905 0.3916365 0.9148966 6313295 male
-2.562322 0.5820336 -1.750533 -0.6510872 -0.4831317 -0.5853797 16771294 male
-2.723151 0.1604048 -1.381009 0.5411574 0.06679432 -0.8382646 3027253 male
-2.71872 0.2310508 -1.392166 -0.1879053 -0.1752708 -0.9664223 6773335 male
-2.763618 -0.456793 -1.39145 0.4418378 -0.8969001 -0.01869479 592137 male
