# .PCD v0.7 - Point Cloud Data file format
VERSION 0.7
FIELDS x y z normal_x normal_y normal_z rgb label
SIZE 4 4 4 4 4 4 4 4
TYPE F F F F F F U U
COUNT 1 1 1 1 1 1 1 1
WIDTH 247
HEIGHT 1
VIEWPOINT 0 0 0 1 0 0 0
POINTS 247
DATA ascii
1.418716 0.302629 -1.186169 0.4246174 -0.1996687 0.8830812 7499130 male
1.569236 0.240166 -1.079089 -0.1726218 0.9799154 -0.09983782 6777463 male
1.919172 0.2344037 -1.386534 0.6776139 0.6125295 -0.4069976 526600 male
1.577963 0.09860175 -1.16336 0.7622571 -0.5893571 -0.2676235 9409952 male
1.417238 0.2782481 -1.191848 0.4929645 -0.1945295 0.8480237 7367800 male
1.721299 0.3171712 -1.439979 0.2269526 0.9736612 0.02182173 9936295 male
1.411409 0.100791 -1.394741 -0.1939237 -0.4470454 -0.8732377 11250614 male
1.500305 0.4658657 -1.233306 0.8768526 0.1357879 0.4611846 15985918 male
1.613928 0.5884815 -1.297089 0.4581643 -0.01383306 -0.8887599 13741226 male
1.58769 0.2210224 -1.36337 -0.3164267 0.9435809 0.09761805 8686492 male
1.808178 0.2179843 -1.027408 0.7245873 0.1956076 0.6608411 526600 male
1.66963 0.60804 -1.224374 0.9839468 -0.1773966 -0.01947132 2169880 male
1.380691 0.298654 -1.429669 -0.1682629 -0.2579329 -0.9513981 4342603 male
1.484011 0.186119 -1.233396 0.1244107 0.8086094 0.5750417 7172742 male
1.307241 0.1479776 -1.251751 -0.9425166 -0.3114033 -0.1212043 14407141 male
1.639154 0.2971132 -0.9598325 -0.06689587 0.1566836 -0.9853806 526344 male
1.622478 0.1231934 -1.417324 0.2261816 -0.4543773 -0.8616166 6975098 male
1.396347 0.5411592 -1.134621 -0.3476255 0.893822 0.2832646 7103085 male
1.852493 0.2049995 -1.041898 0.5517141 0.4853674 0.6782552 526600 male
1.446889 0.5143315 -1.163508 0.7704495 0.5071066 0.3863294 9669524 male
1.519058 0.5347189 -1.331351 0.5770687 -0.09192324 -0.8115058 16175311 male
1.558366 0.1714062 -1.193545 0.4353701 0.6176593 -0.6549426 4737362 male
2.043764 0.2110998 -1.3083 -0.03248751 0.8985705 0.437625 526600 male
1.235121 0.5191013 -1.545241 -0.9714491 -0.2372264 0.003182769 14137274 male
1.854822 0.2243718 -1.415125 0.2796671 -0.7240059 -0.6305566 526600 male
1.379774 0.4857004 -1.408688 -0.6042072 0.5508326 -0.5757752 11379638 male
1.313957 0.4364732 -1.284105 -0.9126828 0.2917391 -0.2861788 14605038 male
1.461771 0.3722722 -1.179189 0.5936933 -0.4724445 0.6514019 9407645 male
1.641416 0.2463546 -1.370371 -0.2165102 0.9428937 0.2531299 986895 male
1.18302 0.1651258 -1.186928 -0.3096369 -0.8601649 -0.4052671 15448761 male
1.353264 0.07991166 -1.266399 -0.7206938 -0.6728874 -0.1668024 5067098 male
1.446898 0.5442482 -1.206427 0.3766425 0.7135264 0.5907795 6512744 male
1.639677 0.2568921 -0.9629377 -0.6874552 -0.6989706 -0.1970927 526600 male
1.327455 0.4554876 -1.127625 -0.07651123 0.1562231 0.9847539 16103857 male
1.597194 0.5308905 -1.191465 0.3469017 -0.5805788 0.7366054 15382192 male
1.463708 0.5582042 -1.446948 -0.002669543 0.8033673 -0.5954778 8813443 male
1.470617 0.1500945 -1.087127 -0.6263779 0.07962142 0.7754424 4538951 male
1.373842 0.4710719 -1.19582 0.2028001 -0.3819321 -0.9016651 4603457 male
1.714967 0.2669226 -1.442246 -0.319181 -0.8339213 0.4502208 526600 male
1.362173 0.4677798 -1.401802 -0.8417889 0.3667539 -0.3960845 10723250 male
1.380693 0.5112046 -1.344588 -0.7171169 0.6943747 0.05989283 15789307 male
1.302412 0.4804119 -1.582486 0.7877606 0.1833717 -0.5880546 14002858 male
1.537052 0.6090719 -1.306039 -0.313988 0.2650784 -0.9116716 15583174 male
1.34816 0.1129947 -1.346149 -0.8411806 -0.4580881 -0.2873507 10918830 male
1.569661 0.6316892 -1.161471 -0.2892502 -0.04661094 0.9561181 14207184 male
1.683254 0.227032 -1.450883 -0.01166171 -0.008578072 -0.9998952 657930 male
1.436033 0.5055329 -1.49168 0.708878 0.04430202 -0.7039384 15379880 male
1.442315 0.5080311 -1.40293 -0.3016275 -0.7016285 0.6455527 526088 male
1.339123 0.1310014 -1.348214 -0.8783451 -0.3783847 -0.2921211 11183283 male
1.460418 0.3769731 -1.42102 0.6282752 -0.2124499 -0.7484219 592137 male
1.3303 0.1085856 -1.26611 -0.8411227 -0.5120697 -0.1740606 6578030 male
1.878152 0.2617618 -1.389439 0.6293271 0.770457 0.1017023 526600 male
1.430265 0.1532007 -1.158358 -0.5659373 0.7646696 0.3082134 4869467 male
1.472825 0.2732026 -1.274704 0.9607418 -0.1495605 0.2336815 16251903 male
1.277432 0.4284153 -1.201608 0.668833 -0.6039003 -0.4335515 9929606 male
1.502887 0.6151396 -1.218186 -0.9060087 -0.1155642 0.4071769 11971502 male
1.649702 0.3336807 -0.945134 -0.01379517 0.7619131 -0.6475323 526600 male
1.884874 0.1950549 -1.117372 -0.4038796 0.3462067 0.8467716 526600 male
1.523414 0.4724722 -1.365984 0.9748658 0.2149744 0.05850387 15129325 male
1.465127 0.0880971 -1.395649 -0.06010181 -0.3032735 -0.9510063 4869715 male
1.425172 0.1293644 -1.129027 -0.6167023 0.192366 0.7633306 3750976 male
2.000988 0.2005901 -1.359933 -0.04195069 0.9790204 0.1993973 526600 male
1.786358 0.3459503 -1.449601 0.5925915 0.7565321 0.2765764 526600 male
1.419162 0.05554903 -1.363933 -0.358896 -0.7033884 -0.6135458 5396843 male
1.462282 0.031131 -1.21639 0.2153716 -0.9559501 0.1994353 6119272 male
2.016655 0.1186177 -1.392977 -0.2964068 -0.8050423 -0.513858 526600 male
1.511847 0.5472912 -1.435115 0.6129422 0.7873273 -0.06646493 8288642 male
1.789074 0.1997813 -1.078807 0.3143692 0.8444067 -0.4337618 526600 male
1.856795 0.2016203 -1.381487 -0.3116249 -0.9348472 -0.1701488 526600 male
1.975847 0.1188008 -1.381749 -0.2736706 -0.6805114 -0.6797122 526600 male
1.267971 0.4357096 -1.182246 0.7853384 -0.5543447 0.2755823 14005692 male
1.166405 0.2859694 -1.184128 -0.6742078 -0.3719667 -0.6380317 14070453 male
1.407602 0.540023 -1.183165 -0.009518549 0.9467645 0.3217864 10260897 male
1.654199 0.6716723 -1.237762 0.834631 0.525125 -0.1662371 855053 male
1.527169 0.4273507 -1.366462 0.9957829 -0.09016687 0.01692334 15788027 male
1.420838 0.09532177 -1.393698 -0.1637721 -0.4483517 -0.878726 6843767 male
1.723404 0.2871518 -1.477824 -0.6757533 -0.6864872 -0.268501 526600 male
1.439553 0.169773 -1.199958 -0.2762346 0.9363543 0.2166448 8290702 male
1.211948 0.1590509 -1.178409 -0.07872307 0.3086349 0.9479172 16174793 male
1.645023 0.6514677 -1.177371 0.6141011 0.3444488 0.7100949 2960173 male
1.718441 0.28429 -0.9365515 0.8796037 0.2057651 0.4289032 526600 male
1.285156 0.2589272 -1.24599 -0.9214073 -0.06640393 0.3828827 8947603 male
1.171438 0.419205 -1.19071 -0.9509505 0.2263868 0.210813 15842491 male
1.395992 0.5006147 -1.112059 -0.3413238 -0.06776397 0.9374999 8816532 male
1.74433 0.234946 -0.9893525 0.6146663 -0.5138617 0.5984409 526600 male
1.605561 0.2124517 -1.335224 -0.1189259 0.7738577 0.6220939 6119276 male
1.614023 0.2488584 -0.9386646 -0.4893881 -0.8329658 0.2582002 526600 male
1.635618 0.2901799 -0.9417163 0.0001501441 0.5090322 0.8607474 592137 male
1.662049 0.5983902 -1.246409 0.9158676 -0.1977661 -0.3493926 14927566 male
1.40022 0.06572483 -1.182222 -0.4865373 -0.6068766 0.6284761 3882307 male
1.44619 0.5571599 -1.33908 -0.3713107 0.9232164 -0.09899415 11446716 male
1.367537 0.4305619 -1.144145 0.5226577 -0.7855838 0.3311902 13016741 male
1.790868 0.3158459 -1.388808 -0.009175837 0.5660427 0.8243248 526600 male
1.279443 0.3195012 -1.626567 0.842914 0.5302088 -0.09151301 13605280 male
1.486579 0.02202404 -1.321782 0.1443732 -0.9874034 -0.06473685 8817569 male
1.93274 0.2292066 -1.381235 0.5087168 0.8246534 -0.2472933 526600 male
1.563847 0.1587643 -1.036786 -0.2142261 -0.4734331 0.8543817 4211528 male
1.794804 0.3384988 -1.434992 0.5358373 0.8199066 0.2015725 526600 male
1.62058 0.5757098 -1.171134 0.1990367 -0.3500217 0.9153519 14594477 male
1.613538 0.2411382 -0.9510587 -0.4298285 -0.8692708 0.2441631 526600 male
1.61086 0.1076708 -1.290364 0.4780386 -0.1925985 0.8569626 4079172 male
1.470875 0.4413505 -1.175854 0.8178752 0.02297173 0.5749368 14406627 male
1.743749 0.2717366 -1.473542 -0.4805812 -0.7631515 -0.4320201 526600 male
1.968622 0.1624557 -1.389102 -0.02152821 -0.574714 -0.8180711 526600 male
1.378989 0.5074372 -1.123001 -0.4481284 0.3055882 0.8401171 8420229 male
1.710427 0.3011401 -0.9361185 0.8360766 0.4667785 0.2882597 526600 male
1.302751 0.4265965 -1.593494 0.6855786 0.2424516 -0.6864395 12030870 male
1.509809 0.4268131 -1.268673 0.968073 -0.1587516 0.1939914 16248715 male
1.92322 0.1919332 -1.384114 0.2428764 -0.5850915 -0.7737435 526600 male
1.316508 0.3861319 -1.330598 -0.9707768 0.137739 -0.1965213 11248307 male
1.5487 0.6678311 -1.295395 -0.2980702 0.441433 -0.8463398 5262928 male
1.377232 0.5220726 -1.177154 -0.7725508 0.4729721 -0.4236304 7301752 male
1.632319 0.6770575 -1.270822 0.6557728 0.5229341 -0.5445199 2828843 male
1.619483 0.5685945 -1.291517 0.5426216 -0.1932303 -0.8174495 15777717 male
1.633331 0.2325296 -1.011588 0.5221312 -0.4952544 -0.6943356 6448492 male
1.640592 0.2832926 -0.8887147 -0.1984303 -0.6950721 0.6910139 526600 male
1.375603 0.3129644 -1.174322 -0.09076121 -0.1081966 0.9899777 657930 male
1.331364 0.4506446 -1.308128 -0.7984096 0.4543613 -0.3950922 11380410 male
1.53822 0.1029646 -1.082043 -0.01852307 -0.7002357 0.7136714 3817802 male
1.457439 0.113713 -1.399735 0.04689339 -0.04735945 -0.9977765 5329243 male
1.556317 0.6977056 -1.191112 -0.4000796 0.7025759 0.5884925 526344 male
1.631871 0.5305181 -1.241487 0.6776042 0.0781979 -0.7312576 12421764 male
1.581883 0.1819281 -1.307231 -0.06191459 0.7195688 0.6916555 3816771 male
1.458592 0.1680947 -1.348838 0.338154 0.8752316 -0.3458633 5789280 male
-2.500338 0.2340155 -1.350824 0.9565779 -0.2914759 0.0008693337 4011316 male
-2.565645 -0.02561772 -1.394226 -0.6705424 0.1885489 -0.7175113 2565671 male
-2.712138 -0.2730217 -1.4873 0.7309099 -0.3012476 -0.6123894 2171688 male
-2.548144 0.005909451 -1.221691 0.1941068 -0.5832819 0.7887363 3948356 male
-2.49294 0.2344428 -1.379118 0.9215537 -0.353096 0.1614376 4473148 male
-2.766429 -0.175689 -1.545868 -0.3522845 -0.2767256 -0.8940463 4014149 male
-2.753774 0.1926728 -1.257672 -0.9195243 0.2320487 0.3172206 5920594 male
-2.58753 0.1754566 -1.476268 0.3409835 -0.8645132 -0.3692524 16243637 male
-2.568763 0.2026258 -1.813576 -0.5904431 -0.7920246 0.1551582 13089717 male
-2.666889 0.006826559 -1.376734 0.8630049 0.1316879 -0.4877307 2434604 male
-2.51017 -0.3263792 -1.434741 -0.8057281 -0.06615866 -0.5885793 2105120 male
-2.565157 0.2230762 -1.865248 -0.6206586 -0.5403057 -0.5682014 5326917 male
-2.70671 0.3026713 -1.36935 -0.8635083 0.4559951 0.2154579 6576467 male
-2.56082 0.1739508 -1.398815 0.4319144 -0.8641419 -0.2582803 7367269 male
-2.601222 0.2654419 -1.244673 -0.1191299 0.8182997 0.5623111 8089963 male
-2.531519 -0.1639108 -1.419162 -0.9201713 0.1784523 0.3484823 2171429 male
-2.768194 -0.04813536 -1.337076 -0.8988197 -0.3363664 0.2810358 1907745 male
-2.420295 0.3787061 -1.6248 0.4399028 0.7010242 -0.5612938 12498093 male
-2.53927 -0.4652357 -1.517333 0.6939061 -0.7184476 0.04824573 3157808 male
-2.444213 0.287707 -1.591528 0.4701417 -0.8531216 -0.2261644 9012094 male
-2.525013 0.2322755 -1.696936 0.6420152 -0.3734296 0.6696021 12035479 male
-2.52158 0.06695013 -1.360022 0.3007541 0.4826304 -0.8225662 3815747 male
-2.745713 -0.4118956 -1.506261 -0.4317826 0.8309738 -0.3507799 2105378 male
-2.681333 -0.06881212 -1.623613 -0.1336921 -0.1805891 0.9744302 6378835 male
-2.745788 -0.2125279 -1.534373 0.2151373 -0.3399556 -0.9155033 2895156 male
-2.618729 0.3496251 -1.630095 -0.3128832 0.8510239 -0.4217376 9207928 male
-2.5929 0.3895926 -1.566851 -0.5576894 0.8141497 -0.1616876 9340029 male
-2.468215 0.2860399 -1.484131 0.9828966 -0.02595193 0.1823218 3290418 male
-2.727818 0.01632296 -1.412345 -0.1355864 0.4055993 -0.903939 3949129 male
-2.444745 0.156051 -1.379072 0.08073499 -0.9374607 0.338599 14926008 male
-2.637953 0.2322943 -1.217762 -0.1574351 0.65658 0.7376428 10130321 male
-2.553013 0.2413549 -1.640398 0.3124943 -0.9465615 0.07980404 7103841 male
-2.464005 -0.1731759 -1.396265 0.5459202 0.1702554 0.8203564 3025198 male
-2.36715 0.3093005 -1.529132 0.377013 -0.6622528 -0.6475202 14663859 male
-2.521033 0.2099809 -1.70259 0.3811063 -0.1243497 0.9161308 11444885 male
-2.732706 0.188348 -1.649724 -0.9801536 0.06284869 -0.1880144 8157811 male
-2.493124 0.09295262 -1.315404 0.8266621 0.3685347 -0.4252205 3487806 male
-2.420954 0.3899144 -1.534997 -0.1574644 0.7796595 0.6060826 3749686 male
-2.733823 -0.01764023 -1.428651 -0.2592996 0.31255 -0.9138252 4343114 male
-2.656006 0.3446619 -1.619237 -0.2809848 0.9030553 -0.3248673 13813438 male
-2.63719 0.3651309 -1.54484 -0.3164816 0.9469956 -0.05512532 9011835 male
-2.703924 -0.1306552 -1.671588 -0.9598684 -0.2430425 -0.1399407 16770786 male
-2.575509 0.2561027 -1.877279 -0.6980133 -0.2242543 -0.6800643 3551278 male
-2.690543 0.1886179 -1.198195 -0.1987132 0.4112316 0.8896077 8880253 male
-2.456021 0.2917566 -1.827484 0.9932275 0.114361 0.02051556 3881270 male
-2.760418 -0.08806594 -1.512527 -0.7885527 0.1248635 -0.6021579 3289140 male
-2.680557 0.1045609 -1.684463 -0.009234995 -0.03867589 -0.9992093 5197383 male
-2.782187 0.03753959 -1.275853 -0.9682605 -0.1607427 0.1913993 2170657 male
-2.653051 0.2288484 -1.218039 -0.155144 0.6390191 0.7533824 9734531 male
-2.71463 0.218585 -1.500878 -0.7467086 -0.6594211 -0.08712164 2500646 male
-2.564038 0.1946996 -1.189336 0.354215 0.3686285 0.8594446 8747892 male
-2.704066 -0.2480407 -1.488165 0.8892035 -0.2592364 -0.3769797 2038559 male
-2.491052 0.1337276 -1.239794 0.9691786 0.1389779 0.2034166 2303014 male
-2.763416 0.1820176 -1.302703 -0.9780601 0.1644628 -0.1278697 3552819 male
-2.351253 0.327465 -1.45345 -0.6807231 -0.7152232 -0.1583414 16773095 male
-2.499563 0.3269169 -1.755287 0.5826585 0.5055162 0.6363668 5261639 male
-2.512053 -0.09215668 -1.351789 0.3255143 -0.3902041 0.8612673 2500651 male
-2.515752 0.3428675 -1.659209 0.5664517 0.09371256 -0.8187494 4472636 male
-2.647792 0.2672445 -1.684302 0.06562416 -0.4428111 -0.8942103 4669500 male
-2.68397 0.03085099 -1.199358 0.3270457 -0.7392286 0.5887124 4933966 male
-2.495034 0.1041685 -1.224579 0.9324464 0.05853653 0.3565352 2631465 male
-2.720881 -0.3801589 -1.415914 0.9988368 0.02172771 -0.04304999 2039329 male
-2.791409 -0.1817279 -1.512817 -0.964937 -0.1138805 -0.2364915 1974047 male
-2.752523 0.2174728 -1.277867 -0.899169 0.3390318 0.2766817 6511962 male
-2.596296 0.0347211 -1.194067 -0.3777143 -0.7073237 0.5975159 5724511 male
-2.771996 -0.4131716 -1.373832 -0.7083175 -0.5377406 0.457298 3026222 male
-2.681528 0.1834007 -1.695705 0.09096169 0.1814123 -0.9791914 7433058 male
-2.482343 -0.4658349 -1.450441 0.154007 -0.9779058 -0.1413582 526344 male
-2.746114 -0.2787429 -1.501839 -0.08899912 -0.3799369 -0.9207211 2169889 male
-2.758365 -0.3826903 -1.381942 -0.7989091 0.2298184 0.5558129 3028022 male
-2.384737 0.308843 -1.48911 -0.6433327 -0.7653709 0.01817697 16772327 male
-2.321247 0.2738597 -1.348974 -0.2854075 -0.0772534 0.9552878 7957608 male
-2.443776 0.2966612 -1.624198 0.1785308 -0.7180234 -0.6727327 3749937 male
-2.531829 0.26206 -1.898886 -0.1039162 -0.1560278 -0.9822714 4932930 male
-2.614508 0.1724593 -1.507494 0.198651 -0.9734879 -0.1133975 16702639 male
-2.747813 0.2394255 -1.308469 -0.8320903 0.5544739 -0.01358485 4867394 male
-2.790541 -0.2036274 -1.483924 -0.9785154 -0.1298185 0.1601712 1907998 male
-2.490192 0.1833008 -1.270322 0.9776124 0.1962026 0.0760181 4078389 male
-2.39978 0.3935055 -1.565795 0.6156825 0.7751434 0.1417312 8880767 male
-2.498932 0.2332377 -1.88452 0.4344693 -0.399317 -0.8073305 9076602 male
-2.449393 -0.2447764 -1.420393 0.9674092 -0.1411578 0.2102243 1908001 male
-2.5977 0.2913871 -1.277137 -0.07786794 0.7824103 0.6178761 11839651 male
-2.284023 0.3565127 -1.389507 0.8077386 0.1809257 0.5610923 14994374 male
-2.389469 0.3766433 -1.596558 0.8975479 0.2503807 -0.3629293 10656407 male
-2.450443 -0.2476632 -1.44566 0.9480758 -0.19785 -0.2490137 2696233 male
-2.660944 -0.03610189 -1.344657 0.9626094 -0.2661036 -0.05071962 2632239 male
-2.49727 -0.08321194 -1.348767 0.7008971 -0.3008544 0.6467071 3224633 male
-2.513446 -0.1010638 -1.479882 -0.2831973 -0.1528501 -0.9468034 3750977 male
-2.567535 0.2180493 -1.85722 -0.6469352 -0.5840799 -0.4902303 5457733 male
-2.5716 0.276481 -1.257016 0.05013902 0.8568193 0.5131732 8682100 male
-2.597139 0.3246326 -1.681507 -0.2023908 0.8503873 -0.4856742 2894375 male
-2.394473 0.3339223 -1.584632 0.5808569 -0.6702917 -0.46186 7631980 male
-2.690439 -0.1036694 -1.493147 0.9098015 -0.222691 -0.350243 1644825 male
-2.66951 -0.2969673 -1.684933 -0.2028366 0.1865291 -0.9612828 16045517 male
-2.678085 0.1869035 -1.39954 -0.5325361 -0.7674128 -0.3570476 6380376 male
-2.70924 -0.2974042 -1.455358 0.9476923 -0.1820455 -0.2621813 1776669 male
-2.500071 0.03278269 -1.235188 0.8002039 -0.299311 0.519699 2105383 male
-2.784089 -0.145551 -1.475913 -0.8180208 0.2350345 0.5249773 1842465 male
-2.470467 0.2350867 -1.856462 0.8511614 -0.3401485 -0.3997795 5195328 male
-2.490384 -0.07832794 -1.351343 0.8272369 -0.2229789 0.5157129 2566445 male
-2.645667 0.005635527 -1.272042 0.9010693 -0.380123 0.2087597 2368292 male
-2.462647 0.3727068 -1.624704 0.3446214 0.6294975 -0.6963973 6972767 male
-2.751687 -0.1476525 -1.453599 -0.1244028 0.3579126 0.9254311 3158840 male
-2.73601 -0.3624789 -1.459836 0.2160522 0.4141932 -0.8841751 2499627 male
-2.392483 0.3539368 -1.610055 0.903136 -0.1854426 -0.3872425 12956839 male
-2.478896 -0.1466498 -1.488295 0.3414408 -0.2341051 -0.910282 1907747 male
-2.660081 -0.1440046 -1.696262 0.3236879 0.1599088 -0.9325532 15649469 male
-2.685059 0.1871397 -1.482538 -0.5729599 -0.7738825 -0.2698572 4670015 male
-2.711665 -0.2847415 -1.476214 0.8271253 -0.2519757 -0.5023667 2105120 male
-2.677382 0.2994863 -1.312503 -0.3654196 0.6011507 0.7106944 10524822 male
-2.581849 0.3437218 -1.80751 -0.7600316 0.6450897 0.07881176 4208440 male
-2.439115 0.3984718 -1.587933 0.2738024 0.9605588 0.04857026 6972770 male
-2.591316 0.3273183 -1.829274 -0.8893837 0.4474513 -0.09372526 4801601 male
-2.542857 0.1927079 -1.798437 -0.6443723 -0.5193932 -0.5612621 13282728 male
-2.503477 -0.0725051 -1.321592 0.6772051 -0.3923773 0.6224415 2499878 male
-2.452815 -0.1351087 -1.434232 0.9552618 0.2358421 0.1784762 2697257 male
-2.499371 0.3357215 -1.413382 0.6553866 0.5800073 0.4837977 5393738 male
-2.618146 0.3704911 -1.489765 -0.5022393 0.8449309 0.183977 8617083 male
-2.487594 -0.0578795 -1.335578 0.9299853 -0.2180884 0.2959138 1842468 male
-2.73233 0.04862496 -1.202579 -0.5045305 -0.5920859 0.6283976 4343114 male
-2.483315 0.3431761 -1.854683 0.6431837 0.6854417 -0.3412983 7037274 male
-2.590545 0.2172853 -1.758103 -0.9031541 -0.4194321 0.09159535 15389897 male
-2.741857 0.07412202 -1.363194 -0.464462 0.5366783 -0.7044513 2829875 male
