# .PCD v0.7 - Point Cloud Data file format
VERSION 0.7
FIELDS x y z normal_x normal_y normal_z rgb label
SIZE 4 4 4 4 4 4 4 4
TYPE F F F F F F U U
COUNT 1 1 1 1 1 1 1 1
WIDTH 248
HEIGHT 1
VIEWPOINT 0 0 0 1 0 0 0
POINTS 248
DATA ascii
1.482095 1.149653 -0.7399814 -0.002924144 -0.2495724 0.9683517 8748941 male
1.397532 0.7862095 -0.7526804 -0.4258523 -0.1074998 0.8983839 5395549 male
1.522411 0.5066082 -0.9535826 -0.4673652 -0.270231 0.8417511 526600 male
1.371604 0.74402 -0.7890446 -0.8576971 -0.1576719 0.4893824 4080199 male
1.491171 1.183629 -0.7308489 0.04293293 -0.2166467 0.9753055 8025987 male
1.527065 0.5930181 -1.020319 -0.5312054 0.3295296 -0.7805326 526600 male
1.605768 1.147959 -0.8166291 0.8959005 -0.2249719 0.3830795 12434126 male
1.491582 1.405175 -0.7511919 0.1816959 0.6119616 0.7697335 12169926 male
1.647005 1.530737 -0.7225303 0.9528011 0.1517667 -0.2629388 12949651 male
1.542658 0.8227324 -0.8630199 -0.03842309 -0.2100329 0.976939 6975617 male
1.323858 0.379471 -0.8315252 -0.9436966 -0.06238881 0.3248755 526600 male
1.645685 1.578794 -0.8111717 0.8359001 -0.05639468 -0.5459768 8352886 male
1.561775 1.141986 -0.9515848 0.386894 0.03209661 -0.9215655 6118500 male
1.529974 1.181068 -0.7403766 0.3829421 -0.108441 0.9173854 11775169 male
1.387833 1.079954 -0.8657923 -0.743066 0.5962623 -0.303849 9867422 male
1.421642 0.6742507 -0.8799405 0.2033047 -0.1261436 -0.9709557 657932 male
1.543087 0.8510152 -1.004977 0.01856461 -0.1051009 -0.9942882 9277341 male
1.425668 1.343446 -0.7509791 0.6631647 -0.5127458 -0.5452562 526344 male
1.388857 0.2662151 -0.7799535 0.2162342 -0.9640417 -0.1544872 526600 male
1.504511 1.253425 -0.7137941 0.05503109 -0.4391439 0.8967297 9735836 male
1.573588 1.449228 -0.7392464 -0.3006436 -0.6084875 0.7344088 13810874 male
1.512408 0.8739381 -0.8203125 0.9400497 -0.3173251 0.1249448 5197655 male
1.624668 0.280447 -0.9285624 -0.156382 -0.9633499 0.2179488 526600 male
1.700696 1.053988 -0.9728497 -0.6291635 -0.3268972 0.7051889 855564 male
1.55789 0.4411657 -0.9699497 0.04727793 -0.2047137 0.9776794 526600 male
1.485153 1.361804 -0.8952982 -0.7057816 0.4645764 -0.534828 14012125 male
1.441386 1.357474 -0.8716552 -0.4472691 0.3845764 -0.807497 12170695 male
1.478746 1.19176 -0.729351 -0.06594476 -0.1942669 0.9787296 6973554 male
1.509446 0.720973 -0.9052032 -0.6593238 -0.167082 0.7330592 4737098 male
1.362052 1.309029 -0.7049043 -0.6195214 0.3543688 0.7004399 15840689 male
1.402791 0.9979274 -0.9437106 -0.6203041 0.2222403 -0.752218 7567491 male
1.650432 1.306142 -0.8414581 0.8921015 0.0154764 0.4515697 14274529 male
1.378573 0.4904946 -0.7994871 0.6137965 -0.1665842 0.7716888 526600 male
1.383479 1.37485 -0.7049625 -0.7324769 0.2284521 0.6413167 7236726 male
1.575985 1.467285 -0.7121404 -0.4459399 -0.544448 0.7104322 11506569 male
1.6323 1.385052 -0.9669755 0.07806486 0.5701849 -0.8177989 6117989 male
1.464548 0.9240623 -0.7618355 0.4556637 0.2019265 0.8669466 6646395 male
1.327844 0.5838628 -0.8594157 -0.8679816 0.3538976 -0.3483742 526600 male
1.594271 0.6289268 -0.9200935 0.5358582 -0.5013459 0.6793439 526600 male
1.496751 1.320762 -0.9376172 -0.6908785 0.2213982 -0.6882367 15591669 male
1.482829 1.133179 -0.9466265 -0.5655685 -0.03636922 -0.8238989 9472408 male
1.61773 1.189865 -0.9812156 -0.8707409 -0.2825294 0.4024766 593937 male
1.648149 1.630529 -0.7665063 0.764782 0.6369023 -0.09728193 6644064 male
1.521762 0.978646 -1.004295 0.1615528 0.1294948 -0.9783311 10725299 male
1.54697 1.59134 -0.7082158 -0.591334 0.1151521 0.7981629 11314087 male
1.547845 0.5577636 -0.9416264 0.02736911 -0.1338384 0.9906251 526600 male
1.671124 1.314196 -0.9310615 0.9360548 0.1031706 0.3363884 16247783 male
1.622475 0.8105745 -0.9059682 0.9375384 -0.09233361 0.3354044 8620696 male
1.468799 0.9506831 -1.004423 -0.3812953 -0.01157216 -0.9243808 3421501 male
1.618288 1.226826 -0.9194638 0.9008781 -0.2065498 -0.3817797 4999500 male
1.417754 1.04338 -0.9337755 -0.5827785 0.4666759 -0.665269 9471896 male
1.523148 0.57458 -0.9463347 -0.4985409 -0.05166928 0.8653249 657930 male
1.371732 0.9508083 -0.7907127 -0.8391342 0.1569505 0.5207882 2894900 male
1.590939 1.010856 -0.9657012 0.7266886 0.1778593 -0.6635432 8552842 male
1.314038 1.174774 -0.692341 0.1878041 0.2515019 0.9494611 16374485 male
1.536988 1.634973 -0.7389009 -0.6177194 0.5941522 0.5151757 526600 male
1.433859 0.6736133 -0.8752189 0.4909017 -0.1446102 -0.8591294 526600 male
1.496058 1.445885 -0.8095936 -0.4151856 0.82331 -0.3870164 15254461 male
1.563518 1.406987 -0.9243651 -0.1329251 0.6958895 -0.7057398 11381180 male
1.456402 0.8830975 -0.9629812 -0.8577124 -0.4067383 -0.3144728 9343646 male
1.387311 0.9686197 -0.7732114 -0.7017699 0.141008 0.6983092 3750978 male
1.589795 0.3244652 -0.9708523 -0.4406981 0.446053 0.7789877 526600 male
1.523356 0.5634958 -1.02712 -0.5449996 0.1537752 -0.824214 526600 male
1.604165 1.158958 -0.8083144 0.8568498 -0.1765299 0.4844024 10393775 male
1.397746 0.9189805 -0.9344646 -0.2865683 -0.5510991 -0.7836889 3882819 male
1.632473 0.2953933 -1.035848 0.4096175 0.03867792 -0.911437 526600 male
1.646066 1.347837 -0.897664 0.2818054 -0.4948054 0.8220422 1907742 male
1.361209 0.2631123 -0.7486156 -0.07794799 -0.9814422 0.1752005 526600 male
1.57223 0.4190142 -0.976519 0.3428091 -0.05559537 0.9377586 526600 male
1.553428 0.332025 -1.051698 0.1097394 0.3121681 -0.9436674 526600 male
1.337432 1.157143 -0.7124313 0.9594719 0.06237015 0.2748154 15252675 male
1.297057 1.167527 -0.7638018 -0.468208 -0.3540611 -0.8095814 16630469 male
1.444754 1.294662 -0.7310282 -0.4764383 -0.4907677 0.7294887 526600 male
1.606844 1.65786 -0.7723033 0.3469315 0.9373434 -0.03202796 526600 male
1.617675 1.284192 -0.7950655 0.6315818 0.03666977 0.7744416 10459023 male
1.596275 1.182469 -0.7918689 0.7438056 -0.04233748 0.6670538 15727601 male
1.505635 0.5930126 -0.9767454 -0.9683131 0.2197447 0.1186678 526600 male
1.437473 1.020364 -0.7598273 0.05883622 0.165474 0.9844575 9077643 male
1.400386 1.296362 -0.6965724 0.3740333 0.08435348 0.923571 16242910 male
1.605749 1.634692 -0.7124845 0.08370754 0.7347725 0.6731289 2960173 male
1.37349 0.3797714 -0.8262625 0.9965412 0.08235845 -0.01107129 526600 male
1.373532 1.043092 -0.8879582 -0.8033755 0.4213573 -0.4207681 11644093 male
1.335403 1.126906 -0.7221927 0.9623626 -0.2172457 -0.1632862 10587792 male
1.442276 1.347667 -0.7310125 0.7992615 -0.5999599 -0.03506032 1052688 male
1.371217 0.3749799 -0.8396477 0.9296883 0.02528305 -0.3674785 526600 male
1.593113 0.8420678 -0.870978 0.5136526 -0.08871388 0.8533996 7436171 male
1.323569 0.5213695 -0.8141778 -0.8103492 0.0157043 0.5857367 526600 male
1.391285 0.7438425 -0.7654198 -0.5216753 -0.2337505 0.8204972 5593700 male
1.664791 1.594289 -0.7559658 0.9695919 0.2369535 -0.06119478 15447735 male
1.36172 1.030229 -0.850441 -0.9817463 0.1892517 0.01891816 5264992 male
1.536314 1.432907 -0.8659085 -0.4151264 0.8270563 -0.3790092 12632016 male
1.388333 1.394334 -0.7093089 -0.7112708 0.5218142 0.4709604 7038322 male
1.511077 0.7642916 -0.8909613 -0.5239038 -0.2715757 0.8073236 2632236 male
1.776835 0.9669234 -1.000793 0.7380828 -0.03342063 -0.6738819 11039087 male
1.576097 1.118462 -0.7895223 0.65521 -0.2025695 0.7277812 12433101 male
1.547641 0.6932682 -0.8918617 -0.2258095 -0.2624385 0.9381557 5066837 male
1.396536 0.5721939 -0.800424 0.6709379 -0.257151 0.6954967 526600 male
1.554951 0.5125586 -1.0352 0.1195405 -0.0576326 -0.9911551 526600 male
1.608469 1.609726 -0.693624 0.04243165 0.4589097 0.8874691 527368 male
1.350678 0.5658237 -0.7957069 -0.4269549 0.1406496 0.8932677 526600 male
1.505908 0.6476717 -0.9368619 -0.959537 -0.2270584 0.1665334 526600 male
1.492998 1.308022 -0.6999232 0.2133333 -0.04354625 0.9760086 11249845 male
1.511468 0.5271345 -1.016085 -0.8152735 -0.0830107 -0.5730953 526600 male
1.59106 0.3220751 -1.040471 0.505462 0.191323 -0.8413702 526600 male
1.448602 1.33974 -0.7190853 0.0097128 -0.8974073 0.4410962 592137 male
1.39622 0.5192572 -0.8749964 0.7730519 -0.1119651 -0.6243833 526600 male
1.62944 1.143905 -1.008914 -0.8533647 -0.4797514 -0.2039782 13808823 male
1.570456 1.297489 -0.7552727 0.8097849 -0.01401263 0.5865595 15657635 male
1.534027 0.5250876 -0.9459282 -0.1660479 -0.1490429 0.9747893 526600 male
1.523777 1.06044 -0.986082 0.03297636 0.5414698 -0.8400732 5789280 male
1.541709 1.596128 -0.8439654 -0.4594368 0.2313944 -0.8575397 16709374 male
1.413687 1.280598 -0.7175348 0.9259957 -0.3535812 0.1323337 9802392 male
1.578572 1.593093 -0.8514758 0.08669502 0.1304947 -0.9876512 4341570 male
1.648432 1.538314 -0.7104306 0.9984457 -0.04520197 0.03260148 14924981 male
1.43599 0.7406344 -0.8846583 0.3791064 -0.2051458 -0.9023267 3553598 male
1.340164 0.4855526 -0.7997237 -0.5143689 -0.08672976 0.8531721 526600 male
1.426814 1.100258 -0.7680125 -0.5563502 -0.06068138 0.8287293 4538437 male
1.455902 1.23749 -0.9034117 -0.6550543 0.0003835943 -0.7555816 12696269 male
1.365688 0.5876841 -0.7941628 -0.2599902 0.1032392 0.9600765 526600 male
1.487156 0.8913912 -0.9993272 -0.3938202 -0.3683097 -0.8421719 6579828 male
1.522541 1.636239 -0.7861938 -0.7743128 0.6253419 -0.09688783 526344 male
1.637706 1.50422 -0.8032854 0.7300941 -0.2486785 -0.6364917 14072244 male
1.575953 0.9037805 -0.8597117 0.54655 0.03685509 0.836615 5791343 male
-2.490308 0.3422283 -1.303344 0.9860218 -0.1128539 -0.1225784 3880242 male
-2.451135 0.02715488 -1.31016 0.8775496 -0.07775699 -0.4731394 3487293 male
-2.636129 -0.02038811 -1.394816 -0.01132897 0.3620436 -0.9320924 3750978 male
-2.512101 0.08154465 -1.162573 0.1433305 -0.4843015 0.8630808 2632496 male
-2.490146 0.3338302 -1.294722 0.9705738 -0.1103915 -0.2140101 4340793 male
-2.691969 -0.1074294 -1.402526 -0.9459321 0.2757601 -0.1707896 1907741 male
-2.621683 0.4335911 -1.516477 -0.1342111 -0.5245239 -0.8407511 8684151 male
-2.556261 0.3604175 -1.45481 0.3215824 -0.7950727 -0.5142415 6051667 male
-2.761763 0.5144567 -1.607915 -0.9188327 -0.2230909 0.3255415 5196360 male
-2.665636 0.07371352 -1.349862 -0.07578373 0.358318 -0.9305188 3816260 male
-2.524904 -0.2988393 -1.337708 -0.8090842 -0.06440663 -0.5841531 1579032 male
-2.759259 0.4684489 -1.684608 -0.7327281 -0.5661936 -0.3775375 14864073 male
-2.714748 0.3560349 -1.248552 -0.9260184 0.1881379 0.3272527 3816504 male
-2.546875 0.2362338 -1.305119 0.4302793 -0.1619099 -0.888057 7433065 male
-2.570929 0.3021545 -1.152042 -0.07979627 0.5735459 0.8152778 8814461 male
-2.522488 -0.1572892 -1.300815 -0.8522601 0.2511679 0.4588767 2302500 male
-2.717374 0.03345558 -1.316841 -0.9408695 -0.1240845 -0.3152272 1907997 male
-2.495585 0.5200828 -1.548246 0.625964 0.7740098 -0.09527904 5262152 male
-2.537493 -0.4149539 -1.369796 -0.6536373 0.5436081 -0.5265442 2106152 male
-2.48317 0.4864485 -1.504165 0.9627232 0.269521 0.02286482 2631464 male
-2.719654 0.4731944 -1.524403 -0.6679887 -0.7426863 0.0469918 16575972 male
-2.544748 0.1127485 -1.303435 -0.5127476 0.1665619 -0.8422275 3223601 male
-2.543014 -0.4616562 -1.481021 -0.491358 -0.5086667 -0.7069836 3421236 male
-3.050352 0.4447769 -1.675955 -0.3066 0.9001992 0.3092539 15980234 male
-2.650518 -0.2477404 -1.433055 0.5887575 -0.197109 -0.7839086 2169889 male
-2.686803 0.5340551 -1.352675 0.08868083 0.8540311 0.5126077 9735820 male
-2.571079 0.555628 -1.412654 0.07881521 0.9324722 0.3525389 9077890 male
-2.48142 0.4482646 -1.401272 0.9970059 -0.008417918 -0.07686776 3486773 male
-2.611213 -0.1289201 -1.377915 0.9460242 -0.09442133 0.3100372 1907741 male
-2.488097 0.474189 -1.533602 0.9486476 -0.1010981 0.2997452 4012597 male
-2.567782 0.2757503 -1.137527 -0.05792627 0.4491075 0.8915982 9735563 male
-2.606866 0.5493501 -1.527909 0.03937164 0.5099931 -0.859277 4341050 male
-2.437929 -0.1880926 -1.328269 0.9955635 -0.08634757 -0.03738576 2632488 male
-2.52789 0.433506 -1.702881 -0.6981504 0.601984 -0.3875583 15519680 male
-2.698207 0.4058293 -1.662068 0.2162087 -0.6095985 -0.7626557 12890795 male
-2.874725 0.4715589 -1.492277 -0.5718895 0.6729413 0.4691402 10458766 male
-2.489482 0.1697066 -1.295886 0.2753712 0.4487059 -0.8501964 4276289 male
-2.492311 0.4028997 -1.62977 0.2175243 -0.9098504 0.353349 1710617 male
-2.68008 -0.07549119 -1.364646 -0.9186928 0.08888459 0.384842 3157302 male
-2.677124 0.5167067 -1.329558 0.0331886 0.7666576 0.641198 8025714 male
-2.623634 0.4589632 -1.284206 0.2365461 0.6497223 0.7224314 7695469 male
-3.078591 0.3629144 -1.581088 -0.9946535 -0.1020922 -0.01554912 14925495 male
-2.73152 0.4931967 -1.559206 -0.9224018 -0.04307925 0.3838218 12362654 male
-2.645411 0.1772327 -1.120776 -0.05037546 -0.1432655 0.9884015 3683640 male
-2.639536 0.5425228 -1.687678 0.8783132 0.07702697 -0.4718399 3881270 male
-2.63327 -0.04299711 -1.416875 -0.02103323 0.2758775 -0.9609628 3553087 male
-2.903767 0.4379555 -1.581296 0.3137234 0.549767 -0.7741668 16507091 male
-2.833397 0.4289002 -1.447307 -0.309427 -0.6226027 0.7187636 4211520 male
-2.673751 0.2133592 -1.129165 -0.4062444 0.09837423 0.9084537 9668742 male
-2.742069 0.4271698 -1.30352 -0.8070357 0.02174611 0.5901024 7301222 male
-2.597612 0.334139 -1.175374 -0.08534974 0.6782176 0.729888 9800324 male
-2.643857 0.008839685 -1.375393 0.05287424 0.25967 -0.964249 3816514 male
-2.4771 0.2143356 -1.26771 0.4379404 0.3827431 -0.8134593 8618620 male
-2.628074 0.2415873 -1.31384 -0.2886397 -0.3149062 -0.904169 6709086 male
-2.525454 0.3917764 -1.681846 -0.5841764 -0.7835832 0.2115073 16704481 male
-2.657197 0.5566887 -1.705993 0.6117822 0.2742074 -0.7419792 3354670 male
-2.499979 -0.07817107 -1.272341 -0.1588293 -0.2162085 0.9633418 2566447 male
-2.530251 -0.4386347 -1.429222 0.4561798 0.7177913 0.5259997 3092271 male
-2.713962 0.4736782 -1.50645 -0.6449383 -0.7466673 -0.1629191 5787471 male
-2.730109 0.09954435 -1.197537 -0.8942334 -0.3273439 0.3052753 3419956 male
-2.443772 0.1681376 -1.210638 0.9813015 0.05644302 0.184016 3420468 male
-2.667181 -0.4257858 -1.446297 0.8588372 -0.2257985 0.4597977 3486005 male
-2.68627 -0.163084 -1.438806 -0.6349643 0.05808325 -0.770355 1974047 male
-2.621105 0.4279026 -1.513548 -0.1453187 -0.5350484 -0.8322295 8748149 male
-2.522029 0.1135024 -1.143831 0.1097338 -0.6019602 0.7909504 2763058 male
-2.733042 -0.4426735 -1.451083 0.1822668 -0.9783704 0.09782737 395270 male
-2.840575 0.4930865 -1.452817 -0.4891344 0.704795 0.5138208 8945279 male
-2.547357 -0.3931279 -1.321883 -0.9929513 0.1013592 -0.06143677 1775899 male
-2.662714 -0.2541716 -1.438199 0.1321913 -0.1791492 -0.9749007 1973542 male
-2.776488 -0.414453 -1.394951 -0.9766276 0.1934768 0.09362459 3290427 male
-2.498972 0.3960574 -1.731388 -0.9260445 0.2920357 -0.2390749 16243919 male
-2.478181 0.3238442 -1.855989 -0.1590383 -0.9534391 -0.256244 7957608 male
-2.516086 0.4256434 -1.485963 0.9176461 -0.39149 -0.06827474 4998464 male
-2.75078 0.5858257 -1.678703 -0.6849167 0.6361008 -0.3553379 3485741 male
-2.73233 0.3944762 -1.455716 -0.3530599 -0.5967071 -0.7206175 8024937 male
-2.689915 0.2927736 -1.317147 -0.6608914 -0.5990369 -0.4520814 6314583 male
-2.702164 -0.1902993 -1.421508 -0.8768573 -0.03986853 -0.479095 1907998 male
-2.455873 0.2531254 -1.247213 0.9177141 0.2377173 -0.3182633 5458757 male
-2.474665 0.4243804 -1.637048 0.9810297 -0.1128352 0.1576357 9538438 male
-2.638376 0.5475444 -1.52986 0.4293948 0.6731215 -0.6021028 9208446 male
-2.450713 -0.2401523 -1.339944 0.933191 -0.256054 -0.2521731 2434085 male
-2.580276 0.3369597 -1.176752 -0.04111554 0.6549399 0.7545618 11972262 male
-2.440062 0.3743984 -1.729858 0.9977127 0.03544644 0.05755973 16770010 male
-2.482914 0.4721407 -1.586984 0.954611 0.2663428 0.1333403 8484464 male
-2.44956 -0.2424371 -1.322954 0.9651821 -0.2575791 0.04557317 2105120 male
-2.594415 0.002937461 -1.307925 0.9995732 0.02204695 -0.01917374 2697257 male
-2.472735 -0.07065302 -1.276776 0.6200175 -0.1672093 0.7665635 1842979 male
-2.47979 -0.06804554 -1.366364 0.519847 0.09827701 -0.8485876 3750978 male
-2.727959 0.4770842 -1.722621 -0.3404531 -0.4443949 -0.8286164 8219751 male
-2.512362 0.3030171 -1.160471 0.458967 0.4590124 0.7606952 8681843 male
-2.732808 0.5479655 -1.5093 -0.7418883 0.4302879 -0.5142512 4473148 male
-2.544244 0.4598646 -1.647415 -0.7268728 0.394615 -0.5620811 8420984 male
-2.60495 0.03702175 -1.329587 0.8896021 0.1945471 -0.413231 2829361 male
-3.03617 0.4974657 -1.732801 0.2185954 0.9234878 0.3152559 15191230 male
-2.708616 0.2938704 -1.271554 -0.9169893 -0.03999833 -0.3969017 2828843 male
-2.634102 -0.2530611 -1.398036 0.962226 -0.2529385 -0.1007154 2697257 male
-2.450295 0.08630107 -1.208309 0.8672025 -0.2334813 0.4398257 2631982 male
-2.702056 -0.1359561 -1.396166 -0.976597 0.2150772 0.000733912 1842465 male
-2.660062 0.4539365 -1.685033 0.5856491 -0.3808647 -0.715512 15783111 male
-2.477311 -0.05625962 -1.263221 0.6296607 -0.278474 0.7252448 3224121 male
-2.612067 0.0709152 -1.182857 0.692995 -0.4317469 0.5773671 2961460 male
-2.547306 0.5215069 -1.581417 -0.2508501 0.8261566 -0.5045193 6183254 male
-2.698185 -0.1542624 -1.368807 -0.8247087 0.1244118 0.5517043 2303531 male
-2.758929 -0.4025415 -1.419075 -0.9893354 -0.001301027 -0.145651 2169889 male
-2.51167 0.497734 -1.616048 0.3929483 0.7974335 -0.4579208 9735811 male
-2.488832 -0.161515 -1.369213 -0.382027 -0.1206981 -0.9162356 2762794 male
-3.082299 0.3851162 -1.621054 -0.9893741 -0.01775116 -0.1443052 16768986 male
-2.634433 0.4062485 -1.493126 -0.2459211 -0.6663498 -0.7039182 13550003 male
-2.680106 -0.3496727 -1.417012 0.9266742 0.3079677 0.2154785 2171170 male
-2.67449 0.3237852 -1.188399 -0.3873734 0.5969862 0.7025307 6247766 male
-2.752602 0.5912012 -1.628492 -0.7362882 0.6151995 0.2817966 4933187 male
-2.501026 0.50343 -1.593951 0.5792151 0.765922 -0.2790581 10657433 male
-2.728383 0.5517117 -1.577085 -0.5211784 0.3123034 0.7942542 4077878 male
-2.764569 0.4859255 -1.619417 -0.940759 -0.06641133 0.332509 11443093 male
-2.504972 -0.0533953 -1.247096 -0.01844448 -0.3586734 0.9332811 2960173 male
-2.445525 -0.1239403 -1.315492 0.9597758 0.1136045 0.2567582 2500653 male
-2.489533 0.3862384 -1.318743 0.9772266 0.04429902 0.2075239 5525580 male
-2.594513 0.5103322 -1.33604 -0.01941177 0.7294018 0.6838101 8090221 male
-2.449409 0.03192002 -1.246292 0.9070103 -0.2795452 0.3149396 2631208 male
-2.725617 0.114423 -1.184899 -0.8917108 -0.2803979 0.3552875 3222578 male
-2.6513 0.5799185 -1.59664 0.5632339 0.6194129 0.5468962 9340029 male
-2.730759 0.4080895 -1.677298 -0.6970705 -0.7157543 -0.0422923 16774119 male
-2.601801 0.1062014 -1.282886 0.8373564 0.2465995 -0.4878762 2697259 male
-2.602055 0.1939283 -1.313998 -0.2844423 -0.01348668 -0.9585984 7103076 male
-2.75314 -0.4337431 -1.405734 0.2802219 -0.939028 0.1992541 723467 male
