# .PCD v0.7 - Point Cloud Data file format
VERSION 0.7
FIELDS x y z normal_x normal_y normal_z rgb label
SIZE 4 4 4 4 4 4 4 4
TYPE F F F F F F U U
COUNT 1 1 1 1 1 1 1 1
WIDTH 246
HEIGHT 1
VIEWPOINT 0 0 0 1 0 0 0
POINTS 246
DATA ascii
1.376786 0.9848249 -0.704571 -0.6785929 -0.1358682 0.721839 4406851 male
1.397944 0.7317683 -0.7101188 0.5975927 0.2155576 0.7722809 7172997 male
1.546128 0.7146542 -0.831971 0.4790571 0.3027802 0.8239105 9738662 male
1.278772 0.7393228 -0.7818928 -0.9215199 -0.309936 0.2339673 9739941 male
1.349458 0.971777 -0.7339353 -0.670593 -0.1748603 0.7209222 7959419 male
1.68034 0.533104 -0.8235471 0.8833073 -0.3586146 0.3019335 526600 male
1.613712 1.101794 -0.5647248 0.2879287 -0.1823987 0.9401212 11511479 male
1.516193 0.956575 -0.6477343 -0.003548697 -0.9554638 0.295087 13551838 male
1.792582 1.006976 -0.4995791 0.6845074 -0.5815036 -0.4396624 14462890 male
1.449883 0.7182792 -0.8478981 -0.3826219 -0.2198063 0.8973772 3749950 male
1.379774 0.3555101 -0.6921299 -0.08892 -0.09343696 0.9916464 526600 male
1.836577 1.06924 -0.5456221 0.676001 -0.3346305 -0.6565402 12299434 male
1.455281 1.030805 -0.9002314 -0.2281832 0.4854062 -0.8439866 6973037 male
1.430762 0.8995427 -0.764877 0.1784921 -0.689182 0.7022597 12169929 male
1.408457 1.077295 -0.7210917 -0.7730799 0.6342921 0.004578382 8946576 male
1.437121 0.5833754 -0.7059497 0.2165203 -0.06012923 -0.9744246 526600 male
1.492389 0.690482 -0.954138 0.1260652 -0.3775886 -0.9173518 4408661 male
1.534415 1.099261 -0.5679654 0.3279116 -0.6612794 -0.6746729 921361 male
1.431117 0.2644452 -0.7260635 0.7998174 0.09609628 -0.5925011 526600 male
1.521681 1.04363 -0.5625967 -0.50402 -0.6528318 0.5654861 4802385 male
1.671167 1.022767 -0.5681707 -0.5088691 -0.669531 0.5410919 14728378 male
1.405437 0.7948843 -0.7834975 0.9576955 0.2437901 0.1529239 2697265 male
1.67155 0.2837082 -0.840683 -0.2960413 0.8556571 -0.424512 526600 male
1.681408 0.6951318 -0.7984086 -0.7275185 -0.06317608 -0.6831732 13611958 male
1.631011 0.4099092 -0.8798417 0.9721019 -0.2193362 -0.0831233 526600 male
1.60581 1.117262 -0.7705049 -0.006034002 0.9176733 -0.39729 11380670 male
1.544579 1.131517 -0.7327572 0.06404431 0.8402295 -0.5384354 13023950 male
1.458236 1.100314 -0.6311875 -0.8503281 0.2620588 0.456363 7104628 male
1.526436 0.6672651 -0.8150073 -0.3605641 -0.1219461 0.9247284 4408907 male
1.456333 1.143197 -0.5680901 -0.5902547 0.8009408 0.1004649 16438999 male
1.314605 0.9336851 -0.9095591 -0.598891 0.4820377 -0.6395071 7567491 male
1.640664 0.9400157 -0.7175118 0.2998849 -0.9377137 0.1753911 9998752 male
1.357659 0.5153295 -0.6782511 -0.9871435 0.1441256 -0.06910574 526600 male
1.482618 1.0947 -0.5339189 -0.1156321 -0.5870273 0.8012666 13674928 male
1.718618 1.022526 -0.4786013 -0.5988414 -0.4148238 0.6850622 14462891 male
1.768075 0.9690725 -0.7431337 0.9802605 0.06205853 -0.1877182 6643565 male
1.364739 0.8532226 -0.7675285 0.4934146 0.504319 0.7086637 6580602 male
1.517509 1.157727 -0.5745836 -0.5417578 0.4530766 -0.707969 657930 male
1.622317 0.6587498 -0.8532758 0.9092096 0.2461999 -0.3357431 592137 male
1.641502 1.129498 -0.6820174 0.3232962 0.9291939 -0.1791036 15722487 male
1.5029 1.095316 -0.7911487 -0.3733818 0.8672683 -0.3292899 10591150 male
1.71077 0.6655918 -0.7522827 0.1565228 -0.06367897 0.9856194 15712193 male
1.86555 1.082016 -0.4847038 0.989961 -0.1008469 0.09903073 6644064 male
1.327994 0.8775618 -0.9510193 -0.8104634 0.05469634 -0.5832301 6844801 male
1.751528 1.114048 -0.4379345 -0.5755665 0.1700317 0.7998828 9735055 male
1.594516 0.6730559 -0.8222976 0.7186759 0.4063249 0.564274 7370889 male
1.744901 0.9319119 -0.7697848 0.7174045 -0.06421591 -0.6936909 13280164 male
1.524686 0.7620705 -0.9479405 0.7395794 0.1972346 -0.6435222 6185839 male
1.361379 0.9198036 -0.967141 -0.5245892 0.4175726 -0.7419159 12238026 male
1.620575 0.9604662 -0.7886157 0.5573322 -0.7141459 -0.4235286 7565947 male
1.304113 0.9421552 -0.8928988 -0.6124994 0.5452595 -0.5723081 6119272 male
1.520587 0.7006811 -0.8224943 -0.1124357 0.09335873 0.9892636 5132635 male
1.286041 0.9063365 -0.7699245 -0.7905651 0.1311993 0.5981584 4277321 male
1.469754 0.9004364 -0.7993003 0.5264866 -0.8119422 0.2521147 11183547 male
1.415788 1.09759 -0.6167459 0.2540554 0.05985939 -0.9653355 1051664 male
1.709839 1.130852 -0.5166583 -0.912631 0.3995569 0.08636487 11971502 male
1.337019 0.643246 -0.7595002 -0.8725301 -0.4108109 -0.2644347 5592924 male
1.641147 1.042279 -0.5736905 -0.5489303 -0.4131625 0.726617 16379373 male
1.737078 1.074829 -0.6952162 0.9567286 0.2874155 -0.04541731 8420488 male
1.34489 0.8038394 -0.9773762 -0.6135515 -0.6388845 -0.4640917 8094089 male
1.289088 0.8798072 -0.7613835 -0.6337813 0.1629034 0.7561638 3750978 male
1.584721 0.3720769 -0.8941695 -0.6616275 -0.02930997 0.7492595 526600 male
1.640562 0.5777003 -0.877463 0.1506348 0.3085765 -0.9391963 526600 male
1.47979 0.9794703 -0.9288588 0.5488323 0.5839309 -0.5981704 7434105 male
1.32937 0.7272838 -0.867872 -0.1403239 -0.5398524 -0.829981 5989227 male
1.570003 0.3423198 -0.9821858 -0.1014733 -0.09301379 -0.9904805 526600 male
1.696942 0.9205 -0.7104517 -0.6362004 -0.234273 0.7350953 461839 male
1.405673 0.2497444 -0.7185348 -0.1107653 -0.9866726 0.1191983 526600 male
1.636228 0.4891281 -0.820271 0.3111571 -0.4629795 0.8299587 526600 male
1.60664 0.3665877 -0.8848171 -0.2305114 0.04679824 0.9719436 526600 male
1.367621 1.095043 -0.6211195 0.6287935 -0.3273514 -0.7053083 10651278 male
1.306344 0.9468288 -0.679188 -0.8546626 -0.2674454 -0.4449997 15841978 male
1.527086 1.058254 -0.5554152 -0.4975075 -0.805832 0.3211247 13487830 male
1.853785 1.12579 -0.4634504 0.8635498 0.2886638 0.413467 526600 male
1.624241 0.9666411 -0.6617478 0.18678 -0.7504722 0.6339595 11512520 male
1.60443 1.015237 -0.5939233 0.2266841 -0.6689661 0.7078834 13682144 male
1.613047 0.589774 -0.8683141 -0.4574314 0.4571127 -0.762761 526600 male
1.290376 0.9526001 -0.7762126 -0.8309208 0.3036 0.4662592 6511979 male
1.438108 1.094993 -0.5447593 -0.3666015 -0.05651656 0.9286599 15577259 male
1.829709 1.065493 -0.4342657 0.4822263 -0.2089395 0.8507656 789516 male
1.429465 0.4774154 -0.6419275 0.7529637 -0.3835723 0.534713 526600 male
1.429458 1.096608 -0.7070558 -0.6780556 0.734268 -0.03303137 8880016 male
1.292831 1.065592 -0.5960033 -0.08633938 -0.3543775 0.931108 13478053 male
1.513811 1.11409 -0.5031494 -0.4082441 -0.1797673 0.8949974 6841710 male
1.392013 0.4132042 -0.6591226 0.0682413 -0.3844582 0.9206166 526600 male
1.455109 0.7464848 -0.8439676 -0.1949619 0.02398441 0.9805174 5789538 male
1.392747 0.5946624 -0.6847674 -0.7544344 0.4846922 -0.4426084 526600 male
1.422785 0.6419305 -0.6726018 0.2513409 0.2185279 0.9429067 8883350 male
1.855839 1.055425 -0.4818523 0.9276932 -0.3663996 0.07167029 15720414 male
1.299853 0.9764361 -0.8369398 -0.7154495 0.6618401 -0.22383 9144472 male
1.648593 0.2897198 -0.9041871 -0.05220582 -0.9222273 -0.3831075 526601 male
1.517376 1.095209 -0.5147756 -0.1934742 -0.8099256 0.5537041 11775682 male
1.50002 0.6552683 -0.8350733 -0.660055 -0.2741145 0.6994201 1841948 male
1.671373 0.5114883 -0.7654178 0.2053677 -0.2149197 0.9547951 15639980 male
1.499716 0.9519406 -0.9292011 0.780006 0.4062012 -0.476016 4605006 male
1.52117 0.6944861 -0.8210749 -0.1631206 0.0545213 0.9850985 4474704 male
1.333884 0.7104278 -0.7080584 -0.5721526 -0.07179946 0.8169983 3357252 male
1.679026 0.5221967 -0.8387396 0.9449841 -0.3265275 -0.01961732 526600 male
1.80057 1.062088 -0.4257678 0.04003918 -0.2106249 0.9767466 1051656 male
1.387995 0.5767521 -0.6400788 -0.760765 0.283539 0.5838169 526600 male
1.452854 0.6721236 -0.8744562 -0.7031778 -0.58744 0.4005688 657938 male
1.57952 1.096625 -0.538492 0.6798885 -0.03710594 0.7323762 9998234 male
1.593461 0.5955682 -0.8260378 -0.9300376 0.3674628 0.001083851 526600 male
1.627434 0.3579958 -0.9339001 0.6145595 0.4309181 -0.660777 526600 male
1.515981 1.145461 -0.511374 -0.3655352 0.576364 0.730882 7235442 male
1.451356 0.5477822 -0.6849928 0.8985541 -0.1638757 -0.4071182 855309 male
1.670085 0.7258723 -0.7766858 -0.996746 -0.03710931 -0.0715555 1051664 male
1.565004 0.9223102 -0.7647586 0.415454 -0.9080257 0.05373308 9342366 male
1.564204 0.6714029 -0.8078107 0.09553158 0.1021686 0.9901693 527368 male
1.437326 1.000667 -0.9225075 -0.01471855 0.8275697 -0.56117 8486286 male
1.78283 1.174277 -0.5387518 0.008170366 0.8918952 -0.4521683 16709374 male
1.537759 1.079656 -0.5212749 0.00759881 -0.9631456 0.2688733 8683922 male
1.808307 1.153512 -0.5561545 0.3691337 0.5692672 -0.7346259 4341570 male
1.790665 0.9996032 -0.4917296 0.7129388 -0.2687486 -0.6476824 14793653 male
1.343174 0.6434968 -0.7756749 -0.6536578 -0.4833528 -0.5823241 6909817 male
1.3622 0.5305464 -0.6577591 -0.9328381 0.1540325 0.3257099 526600 male
1.40144 1.060579 -0.6959917 -0.8470539 0.4475805 0.2866558 7105140 male
1.431022 1.059943 -0.8212144 -0.3319261 0.806757 -0.4888436 10328489 male
1.288927 0.7509246 -0.7526276 -0.8318219 -0.1477785 0.5350082 4342603 male
1.373682 0.805383 -0.9971666 -0.2500677 -0.4342613 -0.8653803 9409954 male
1.782261 1.168034 -0.4544178 -0.1595301 0.777698 0.6080592 526344 male
1.784259 1.042116 -0.5808955 0.5141065 -0.2604873 -0.8172153 14072244 male
-2.469472 0.3881783 -1.41232 0.8530226 -0.2588865 -0.4531342 4933187 male
-2.559468 -0.1210154 -1.350559 -0.971945 -0.181893 0.1491244 2039328 male
-2.66029 -0.04682438 -1.438429 0.8163904 -0.3320572 -0.4724882 2631979 male
-2.462208 0.09213984 -1.344046 0.8529644 -0.1509405 0.4996688 2368036 male
-2.460579 0.4063573 -1.409997 0.8699476 -0.2935202 -0.3962795 4867906 male
-2.725752 -0.140425 -1.33589 -0.1004207 0.2240803 0.9693834 3026739 male
-2.485844 0.5456005 -1.480094 0.2035813 -0.0546024 -0.9775344 9274227 male
-2.4336 0.6707293 -1.418036 0.07259694 0.5792703 -0.8118966 6841183 male
-2.530814 0.7721637 -1.561265 -0.2528974 -0.3525743 -0.9009631 16376280 male
-2.606807 0.1244444 -1.417269 0.9258584 -0.1675521 -0.338693 2170913 male
-2.493385 -0.229572 -1.294972 0.4445073 -0.1817694 0.8771394 2828844 male
-2.512005 0.8527513 -1.586592 -0.2893756 0.2587873 -0.9215699 6709083 male
-2.660839 0.4264469 -1.322125 -0.6168821 -0.01238713 0.7869582 6972506 male
-2.554597 0.2791874 -1.4618 0.4383818 -0.1176805 -0.8910517 8813943 male
-2.514218 0.385455 -1.303487 0.2999779 -0.0536689 0.9524354 8682875 male
-2.48707 0.004006618 -1.335852 0.7633668 -0.1611111 0.6255513 3025198 male
-2.692924 0.08391494 -1.328978 -0.2524103 -0.1092553 0.9614326 3093559 male
-2.367 0.5725034 -1.302229 -0.443509 -0.7681683 -0.4617547 16770788 male
-2.526882 -0.4727512 -1.464292 0.04316351 -0.9928669 -0.1111406 724235 male
-2.435925 0.6094549 -1.311412 0.402307 0.04748372 0.9142727 7433065 male
-2.497543 0.7061554 -1.485893 0.4350069 -0.847822 0.3032605 11904668 male
-2.586991 0.1308009 -1.424188 -0.7618581 -0.2027592 -0.6151921 2499878 male
-2.715515 -0.4338996 -1.520183 0.6907489 -0.7005449 -0.1791731 2236450 male
-2.773492 0.3454561 -1.363171 0.6789623 -0.4771218 0.5580012 10063504 male
-2.705796 -0.2948794 -1.389523 0.9186305 -0.2141526 -0.3320494 1776411 male
-2.578216 0.5307437 -1.303195 -0.1702202 -0.02842379 0.9849961 8484469 male
-2.547772 0.5714012 -1.295788 -0.295726 0.1334335 0.945908 7957353 male
-2.688102 0.1857466 -1.293466 -0.4134336 -0.3134893 0.854867 2631727 male
-2.625851 0.04402072 -1.391701 0.9619438 -0.2724914 -0.02031755 3422012 male
-2.348341 0.6426494 -1.314379 0.8700616 0.4872885 -0.07445139 10722963 male
-2.560074 0.197964 -1.267489 -0.08494774 -0.2318509 0.9690352 3419956 male
-2.595429 0.6228813 -1.489707 0.08528867 0.2056246 -0.9749076 8945270 male
-2.479943 -0.2436126 -1.372382 0.7442577 -0.1296514 -0.6551881 2368811 male
-2.368098 0.6778627 -1.343798 0.7923979 0.5862778 0.1684759 10326916 male
-2.4891 0.6950114 -1.515135 0.7032592 -0.706197 -0.08192945 12628650 male
-2.727517 0.6850603 -1.448966 -0.7063835 0.6509541 -0.2779952 7170405 male
-2.457468 0.1191525 -1.345052 0.8971384 -0.1089006 0.4281164 2170913 male
-2.478485 -0.1059528 -1.341884 0.9851203 0.05258904 0.1636238 2433573 male
-2.702023 -0.1000847 -1.444652 0.3279594 -0.5410402 -0.7744149 2895409 male
-2.589901 0.5259767 -1.302149 -0.02829519 -0.02607179 0.9992597 8024178 male
-2.640094 0.3717676 -1.314019 -0.2737818 0.05171153 0.9604008 10853525 male
-2.747013 0.40368 -1.366262 0.8535415 -0.2718876 -0.4444594 16773095 male
-2.550331 0.8599724 -1.560116 -0.694779 0.2419666 -0.6772995 8090995 male
-2.69838 0.3817632 -1.403447 -0.9749312 0.001443853 -0.2225022 3222569 male
-2.429715 0.8391901 -1.499814 0.9875964 -0.02860963 0.1543865 5919050 male
-2.716018 -0.1537158 -1.429325 0.339108 -0.1503842 -0.9286499 3224634 male
-2.730848 0.6266829 -1.432108 -0.7785268 -0.02574094 -0.6270835 5197383 male
-2.718576 0.08604325 -1.468861 -0.4811979 -0.04990044 -0.8751907 3026223 male
-2.718326 0.25705 -1.326837 -0.8623516 0.1256136 0.4904807 6709083 male
-2.669144 0.5984272 -1.475128 -0.5165485 -0.7079908 -0.4815878 5459531 male
-2.566861 0.2518308 -1.263203 -0.08842498 0.08841815 0.992151 9670027 male
-2.667491 -0.08756801 -1.418176 0.7886904 -0.3548641 -0.5020351 2631464 male
-2.450787 0.2053468 -1.388332 0.9872855 0.06508091 -0.1450244 2434597 male
-2.707237 0.2680291 -1.441044 -0.453751 0.2273107 -0.8616498 5854545 male
-2.316509 0.531723 -1.180129 -0.8521949 -0.1078196 -0.5119952 16575460 male
-2.443588 0.8904471 -1.488833 0.8430452 0.506708 0.180339 4340793 male
-2.528587 -0.004150584 -1.31387 0.002532542 -0.108003 0.9941475 3158064 male
-2.492469 0.6819703 -1.44415 0.9055558 -0.3279137 -0.26915 5063740 male
-2.651954 0.6948689 -1.383549 -0.4166093 0.7937639 0.4431429 7565161 male
-2.628803 0.1846123 -1.297814 0.5001389 -0.6769322 0.5400224 2894892 male
-2.459698 0.1822713 -1.339675 0.9154237 0.01464319 0.4022253 2631465 male
-2.736349 -0.3938606 -1.41712 0.9786707 0.205391 -0.004304826 2236708 male
-2.748541 -0.1910183 -1.339221 -0.5301464 -0.06663669 0.8452837 3026483 male
-2.473804 0.5395866 -1.475259 0.3533012 -0.1459863 -0.924049 7958893 male
-2.57737 0.1308601 -1.309796 -0.5484921 -0.2748702 0.7896854 2105893 male
-2.80332 -0.4282314 -1.404117 -0.9556099 -0.1142515 0.2715813 2237221 male
-2.671877 0.6187717 -1.436352 0.8494458 -0.4839472 -0.2103263 6841184 male
-2.496257 -0.4745693 -1.437751 0.04329064 -0.9871892 -0.153569 526600 male
-2.719281 -0.3243585 -1.396491 0.967334 -0.02858429 -0.2518892 2170917 male
-2.782548 -0.401112 -1.373325 -0.8983616 0.1405968 0.4161484 3028022 male
-2.319568 0.5173271 -1.154193 -0.866045 -0.4317833 0.2520508 14797256 male
-2.257958 0.4657022 -1.166253 0.8050063 -0.1893568 0.5622358 15453130 male
-2.447928 0.5133494 -1.438691 0.7671638 -0.4300468 -0.4759409 4997954 male
-2.478659 0.8659468 -1.583379 0.2420697 0.4429946 -0.8632255 10459279 male
-2.56796 0.5699839 -1.492499 0.3489854 0.01441914 -0.9370174 11315363 male
-2.489928 0.5021703 -1.469223 0.2884636 -0.2556626 -0.9227273 7565675 male
-2.685318 -0.1626547 -1.346984 0.7260091 0.0674611 0.6843684 2632238 male
-2.549001 0.2060685 -1.457556 0.3715687 -0.1006979 -0.9229286 2236713 male
-2.343755 0.5803237 -1.313689 0.3606472 -0.4476895 -0.8182346 16773353 male
-2.452872 0.8737333 -1.559905 0.6780149 0.5047839 -0.5343119 6708568 male
-2.515201 -0.3102062 -1.375183 -0.2294805 -0.01968877 -0.9731142 2893868 male
-2.5171 0.4148878 -1.301577 0.3413342 -0.1416267 0.9292111 10260875 male
-2.284564 0.4881124 -1.207247 -0.2519916 0.2075401 -0.945213 16374730 male
-2.39986 0.6160199 -1.410095 0.5428698 -0.6962205 -0.4696484 7169381 male
-2.508879 -0.315603 -1.375896 0.0249351 -0.0321107 -0.9991734 2434085 male
-2.698861 0.124834 -1.476688 -0.2099016 0.02113535 -0.9774942 4211529 male
-2.474014 -0.188158 -1.308255 0.8517145 0.0453197 0.522043 2565415 male
-2.557364 -0.07933686 -1.391228 -0.6950265 -0.2428621 -0.6767248 2301987 male
-2.507322 0.8337691 -1.59133 -0.230732 0.04525026 -0.9719647 6510163 male
-2.485392 0.2278919 -1.304304 0.7789997 0.06809093 0.6233164 9011578 male
-2.570915 0.7157063 -1.387986 -0.04995722 0.8423791 0.5365647 10920350 male
-2.366965 0.6822479 -1.372135 0.7906072 0.6026494 -0.1084164 7301734 male
-2.686636 0.09630913 -1.476637 0.03564322 -0.06986813 -0.9969195 4278352 male
-2.825237 0.2905321 -1.407219 -0.8848472 0.1749673 -0.4317778 14466739 male
-2.708798 0.3230999 -1.423169 -0.6683641 0.4369941 -0.601935 3222828 male
-2.657832 -0.0584963 -1.421022 0.8313966 -0.2982472 -0.4688588 2236713 male
-2.494936 -0.1974449 -1.383218 0.2039342 0.01744084 -0.9788294 2500910 male
-2.68802 -0.1180507 -1.354159 0.7200907 0.2004574 0.6642939 2303273 male
-2.43477 0.8696184 -1.521752 0.9220111 0.3460894 -0.1735452 3749169 male
-2.473763 -0.1359837 -1.354354 0.9813257 0.1075914 -0.1594504 2170146 male
-2.680271 -0.08230344 -1.364171 0.5366253 -0.04908968 0.8423917 2697261 male
-2.422451 0.5999267 -1.346707 0.4934708 -0.8528464 0.1707032 526856 male
-2.702699 -0.2172669 -1.342782 0.4346253 -0.2287378 0.8710799 2895404 male
-2.776748 -0.3746314 -1.409153 -0.9505529 0.1523883 -0.2706054 856084 male
-2.401658 0.6238751 -1.398373 0.3318429 -0.8719553 -0.3599644 4406586 male
-2.555015 -0.2569543 -1.347465 -0.9461034 -0.1395151 -0.2922742 1775899 male
-2.739501 0.4107453 -1.344111 0.8589221 -0.4630812 0.2186521 13744053 male
-2.615135 0.4782228 -1.480768 -0.2821735 -0.06063934 -0.9574452 7631211 male
-2.673731 -0.1795939 -1.376843 0.9972379 -0.03616416 -0.06487787 2170657 male
-2.695696 0.2979359 -1.302739 -0.6382594 0.2417954 0.7308627 8485497 male
-2.558279 0.9024131 -1.508442 -0.7418261 0.6535746 -0.1501148 5327945 male
-2.418507 0.627101 -1.35812 -0.628924 -0.7773892 0.01098859 8354423 male
-2.546963 0.8953794 -1.539222 -0.5936962 0.6149301 -0.519024 5196100 male
-2.532173 0.7825931 -1.565264 -0.4600817 -0.2054664 -0.8637758 12956584 male
-2.56824 -0.02706988 -1.336376 -0.752589 -0.08860439 0.6525024 2828845 male
-2.468216 -0.2157938 -1.326679 0.9763536 -0.09419597 0.1945793 2040353 male
-2.458046 0.4107164 -1.359921 0.9044371 -0.3027092 0.3006012 2697257 male
-2.582318 0.439574 -1.307533 -0.2041581 -0.03512627 0.9783077 8551544 male
-2.48329 -0.06242988 -1.376652 0.9785836 -0.1029205 -0.1782742 3289909 male
-2.649725 0.1741637 -1.294626 0.1880624 -0.6233172 0.7590181 3618360 male
-2.477597 0.9065499 -1.45666 0.3913692 0.7254819 0.5661327 4406587 male
-2.546411 0.7323911 -1.535524 -0.6824052 -0.4460555 -0.5791009 15718606 male
-2.735799 0.1747425 -1.444242 -0.8216081 0.1539774 -0.5488638 2303275 male
-2.57913 0.1881325 -1.459457 0.145113 -0.6705993 -0.7274881 4013117 male
