# .PCD v0.7 - Point Cloud Data file format
VERSION 0.7
FIELDS x y z normal_x normal_y normal_z rgb label
SIZE 4 4 4 4 4 4 4 4
TYPE F F F F F F U U
COUNT 1 1 1 1 1 1 1 1
WIDTH 252
HEIGHT 1
VIEWPOINT 0 0 0 1 0 0 0
POINTS 252
DATA ascii
1.286339 0.5751045 -0.9366863 0.05072984 -0.555761 0.8297928 7499130 male
1.360677 0.5079756 -0.8265312 0.1567404 0.9776455 0.1401491 6580344 male
1.707546 0.3587904 -0.9708263 0.870504 -0.07909311 -0.4857645 526600 male
1.278703 0.3644084 -0.8945865 -0.2335447 -0.878879 0.4159671 11778766 male
1.27021 0.5582458 -0.9513102 0.07655826 -0.5723468 0.8164301 7367800 male
1.599325 0.5519922 -0.9697948 0.2638838 0.9213866 0.285328 7699339 male
1.276202 0.3614324 -1.131769 -0.2575768 -0.6032866 -0.7547843 5923183 male
1.440016 0.6440921 -0.9438875 0.7032188 -0.6380223 0.3137051 14995577 male
1.643911 0.7264204 -0.98253 0.5973106 0.1466789 -0.7884828 14987434 male
1.456955 0.4986395 -1.045248 0.0577198 0.9834217 -0.1719016 6118761 male
1.421145 0.4005927 -0.6730192 -0.6641263 -0.3004463 0.6845934 526600 male
1.691996 0.7629766 -0.8963425 0.9783998 0.1224402 0.1665597 15711933 male
1.263956 0.6234913 -1.165652 -0.3296088 0.1226759 -0.9361137 7434623 male
1.296452 0.5296332 -1.049594 0.7051879 -0.5755472 0.4140717 11446974 male
1.145234 0.4698099 -1.045807 -0.9275523 -0.2069995 -0.3111235 7565691 male
1.445366 0.501556 -0.7307064 0.003822267 -0.7696131 -0.638499 591625 male
1.494852 0.4018261 -1.068447 0.5742556 -0.423127 -0.7008524 6054769 male
1.387372 0.7620522 -0.836722 -0.04742679 0.845826 0.5313464 8618379 male
1.4168 0.318952 -0.764334 0.4940109 0.3021809 -0.8152545 526600 male
1.429716 0.7330133 -0.8395253 0.7199711 0.4400345 0.5366668 7236210 male
1.526524 0.6749832 -0.9778839 -0.02304081 -0.9997292 -0.003282785 16570323 male
1.354701 0.4582631 -0.9365607 0.773241 0.4518571 -0.4448859 4343375 male
1.651397 0.2209255 -0.8277913 0.01162095 0.9885044 -0.1507449 526600 male
1.352333 0.6130999 -1.276379 -0.09183735 -0.1792899 0.9795003 13544117 male
1.67161 0.4057317 -0.9868243 0.3311784 -0.3541967 -0.874566 526600 male
1.447359 0.7988243 -1.027611 0.08313137 0.9883627 0.1273909 13947621 male
1.342622 0.792098 -0.9603837 -0.2726638 0.9616294 -0.030388 14011359 male
1.304761 0.7127498 -0.8829638 -0.7806154 -0.0480866 0.623159 4999765 male
1.496971 0.5079274 -0.9943458 -0.1000634 0.9471586 0.3047588 5856354 male
1.201329 0.4305159 -0.7428588 0.7603108 -0.2169401 -0.6122618 12360855 male
1.166394 0.4048118 -1.008914 -0.8423486 -0.5383134 0.02583396 9739691 male
1.463805 0.7621032 -0.9213216 0.5502859 0.3119609 0.77451 14529197 male
1.438475 0.4684567 -0.6347482 -0.3842871 -0.3028648 0.8721217 526600 male
1.31512 0.6676867 -0.7777016 0.4624774 -0.01480935 0.8865073 16630713 male
1.635175 0.6388716 -0.9287024 0.5400044 -0.7860587 0.3008438 12952987 male
1.498736 0.695705 -1.164328 0.7599037 -0.3765207 -0.5298854 11834772 male
1.286801 0.5050589 -0.9431179 0.02899744 0.982088 -0.1861781 9212833 male
1.337595 0.7354997 -0.871939 -0.9380689 0.2791887 0.205135 855309 male
1.598765 0.5090752 -0.9990631 -0.1762079 -0.7497803 -0.6377933 526599 male
1.451364 0.8008181 -1.052116 0.1132178 0.9826334 -0.1470153 11380405 male
1.379742 0.7836217 -1.021515 -0.2705731 0.9586539 0.08816463 15130862 male
1.366438 0.6601428 -1.325346 0.6441722 0.2233886 -0.7315324 10848131 male
1.540023 0.7572313 -0.9740725 -0.3547368 0.6416855 -0.680001 13941433 male
1.189094 0.4636429 -1.119797 -0.8329921 -0.1773815 -0.52408 7039864 male
1.591781 0.7534856 -0.8367075 -0.1534812 -0.2513381 0.955653 12431281 male
1.566899 0.4943664 -1.03599 0.5293945 0.2615627 -0.807048 723722 male
1.46205 0.7004015 -1.211734 0.715318 0.2613172 -0.6481 14591647 male
1.418968 0.3752436 -1.115769 0.4957019 -0.3741405 -0.783772 5067353 male
1.223151 0.427426 -1.149017 -0.6050005 -0.347771 -0.7162609 11450055 male
1.393708 0.6350677 -1.139671 0.5327566 -0.3884383 -0.7518551 3750721 male
1.169184 0.5666312 -1.096804 -0.7920848 0.118002 -0.5988968 11972798 male
1.708102 0.3642689 -0.9485744 0.6726043 0.3567259 0.648344 526600 male
1.222932 0.4973992 -0.9291942 -0.3849857 0.7934718 0.4713688 5526364 male
1.325335 0.5276383 -1.141022 0.7362362 0.5710706 -0.3630903 10063513 male
1.230495 0.6634852 -0.7903343 0.7718995 -0.4776065 -0.4195987 11966365 male
1.606019 0.7935485 -0.8330436 0.02362257 0.2132393 0.9767143 526600 male
1.41792 0.4663176 -0.7555521 0.05922107 -0.9598072 -0.2743413 7699597 male
1.459671 0.2665595 -0.7669343 0.1017889 0.9922275 0.07157974 526600 male
1.512367 0.7528461 -1.044438 0.9898048 -0.1097547 -0.09077653 7762042 male
1.363007 0.3857936 -1.140859 0.3943771 -0.1686893 -0.903333 3422013 male
1.236704 0.4956402 -0.953413 -0.08271298 0.9808722 0.1762057 7172995 male
1.717213 0.2897128 -0.9269054 -0.3375559 0.5702569 0.7489079 526600 male
1.635724 0.571048 -0.9343285 0.05980137 0.1312224 0.9895476 789260 male
1.269341 0.3459912 -1.106841 -0.355629 -0.8276615 -0.434171 9408927 male
1.280364 0.3419872 -0.958848 0.2942398 -0.9502691 0.1020371 4080718 male
1.713907 0.2536744 -1.029089 -0.1702286 -0.9854043 0.0007751882 526600 male
1.487755 0.7549385 -1.157785 0.1137914 0.774195 -0.6226345 9670298 male
1.412354 0.2899157 -0.7881979 0.5221047 0.1132185 -0.8453332 329994 male
1.667102 0.4219687 -0.9932572 0.2098533 -0.3286617 -0.9208382 526600 male
1.702781 0.2821422 -1.033084 0.2135952 0.2348857 -0.9482647 526600 male
1.238941 0.6632677 -0.7852136 0.8371116 -0.4770885 -0.267639 13476772 male
1.152415 0.5349573 -0.7529944 -0.9139049 -0.2910698 -0.2829422 10456975 male
1.438437 0.6966417 -0.8645784 0.9643614 -0.2517948 0.08127964 11578552 male
1.684562 0.793411 -0.8989782 0.8769664 0.4670238 0.1132191 526600 male
1.478067 0.6576385 -1.035469 0.8058133 -0.5665269 0.172372 9735845 male
1.289014 0.3642882 -1.136919 -0.1779391 -0.5174495 -0.8370087 7896721 male
1.673555 0.5654866 -1.016628 0.284291 0.05500254 -0.957159 526600 male
1.223166 0.4988967 -0.9548955 -0.06804146 0.9078336 0.4137737 14869226 male
1.221941 0.4188381 -0.7857178 -0.128809 -0.9908417 0.04050947 14857395 male
1.503761 0.750948 -0.9303222 -0.5471019 0.5205405 0.6555281 14592668 male
1.489204 0.4780211 -0.654686 0.9427363 -0.2719393 0.193125 526600 male
1.189091 0.6450101 -1.013008 -0.9283864 0.3205274 0.1880449 7894656 male
1.202637 0.6243786 -0.7450905 0.7472746 -0.06476827 0.6613514 15382454 male
1.386548 0.7039629 -0.7990078 0.2377639 -0.244656 0.9400064 7236727 male
1.455023 0.4062434 -0.6623244 0.3399753 -0.3929798 0.8543909 526600 male
1.444361 0.4997566 -1.025061 -0.1373041 0.9757326 0.170568 7042179 male
1.429781 0.5663946 -0.6716182 -0.8578957 0.4249916 -0.2887857 526600 male
1.49269 0.5432908 -0.7015131 0.953325 0.02172652 -0.3011632 1184530 male
1.655848 0.7595239 -0.9689304 0.4961271 0.2104973 -0.8423471 14135982 male
1.138857 0.5279443 -1.040984 -0.9670263 0.1102599 -0.2295711 11775164 male
1.657878 0.2088601 -0.849574 0.4061268 -0.3229813 -0.8548357 526600 male
1.344386 0.6524399 -0.8035257 0.6595125 -0.6162776 0.4304012 16307926 male
1.645935 0.5101494 -0.9213098 -0.1287348 -0.02220458 0.9914303 526600 male
1.427401 0.4800401 -1.305196 -0.4750198 -0.09380125 0.8749614 986895 male
1.314196 0.3611736 -1.138786 0.03877398 -0.4624774 -0.8857828 3488063 male
1.692443 0.3937652 -0.9422919 0.4487406 0.2381616 0.8613424 526600 male
1.245254 0.4022811 -0.8734355 -0.6464388 -0.3645291 0.6702502 9278622 male
1.669404 0.5696713 -0.9314456 0.1996417 -0.02921588 0.9794333 526600 male
1.649743 0.707785 -0.8651768 0.3486647 -0.4637861 0.814454 15187637 male
1.426743 0.5600431 -0.6388375 -0.8492255 0.2173512 0.4812218 526600 male
1.387074 0.374525 -0.9854279 -0.1582834 -0.3453021 0.9250474 3815999 male
1.434088 0.6850591 -0.8704556 0.9108945 -0.4101019 0.0456911 9867165 male
1.70382 0.5376554 -0.9958282 0.8122297 -0.03419239 -0.5823348 526600 male
1.732495 0.2714459 -1.021398 0.4283066 0.09150023 -0.898989 526600 male
1.366817 0.7108337 -0.7955457 0.196492 0.08214597 0.9770583 11115939 male
1.501335 0.5435526 -0.6333761 0.8914406 -0.3484167 0.2897234 526600 male
1.37822 0.6255843 -1.323634 0.7206322 0.1867894 -0.6676818 10979462 male
1.399352 0.5771443 -1.070825 0.6886225 -0.7240585 -0.03922126 10790064 male
1.664781 0.4882555 -0.9265954 0.2436272 -0.04980311 0.9685895 526600 male
1.21925 0.6343808 -1.099116 -0.8019214 0.5500385 -0.2331945 9868455 male
1.588438 0.8374662 -0.9403128 -0.1391308 0.8403628 -0.5238634 4802633 male
1.363312 0.7607576 -0.8443749 -0.5372993 0.8414223 0.05760112 9079707 male
1.625423 0.8368317 -0.9287075 0.31434 0.8723771 -0.3743643 5262410 male
1.656953 0.706288 -0.9644155 0.8685602 -0.06255397 -0.4916199 14990007 male
1.372728 0.4171684 -0.792033 -0.1092706 -0.9780717 0.1773009 6909817 male
1.44969 0.5309331 -0.6153015 -0.3461969 -0.08245067 0.9345316 526600 male
1.250608 0.6322495 -0.9217885 -0.4824436 -0.146604 0.8635713 4407367 male
1.287982 0.7467592 -1.024061 -0.5336438 0.7483873 -0.393879 12433352 male
1.335319 0.4464063 -0.7770696 -0.6819591 -0.139368 0.7179891 3684672 male
1.38106 0.3790109 -1.133983 0.4210922 -0.2460431 -0.8730087 4145737 male
1.528586 0.7967823 -0.8873458 -0.8765121 0.4074054 0.2564127 9735828 male
1.62007 0.6674382 -0.9873583 0.2728512 -0.1980475 -0.9414507 12822432 male
1.427051 0.4534151 -0.9830835 -0.2799756 0.4209946 0.8627731 4473932 male
1.31453 0.4539197 -1.10089 0.3219545 0.9221597 -0.2143991 12699352 male
1.728109 0.2467628 -0.9514312 -0.1890383 -0.9233064 0.3343199 526600 male
-2.552793 0.3603534 -1.384337 0.8930258 -0.3182561 -0.3181483 5920082 male
-2.542225 0.05489365 -1.348292 0.8489742 -0.1732851 -0.4992149 3289659 male
-2.700974 -0.01672918 -1.420265 0.6962038 -0.05963245 -0.7153631 4078918 male
-2.591597 0.03422533 -1.255902 0.3840669 -0.2462329 0.8898664 2697257 male
-2.569427 0.3201534 -1.372787 0.850371 -0.3654336 -0.3785865 6775135 male
-2.773595 -0.153142 -1.416574 -0.3022897 0.0676249 -0.9508144 2895668 male
-2.53569 0.5941348 -1.501018 0.5689314 0.01354388 -0.8222737 8618358 male
-2.505623 0.5169423 -1.47273 0.6759784 -0.3395186 -0.6540493 6840152 male
-2.596759 0.7257685 -1.600837 -0.8249258 -0.4607766 -0.3273875 7497826 male
-2.69229 0.02593401 -1.349087 0.9452223 -0.07236107 0.3183062 1645857 male
-2.601779 -0.3228292 -1.318645 -0.8646492 -0.0644697 -0.4982224 1973534 male
-2.505912 0.745284 -1.673527 0.151831 -0.08124401 -0.985062 16438989 male
-2.754525 0.4011617 -1.434362 -0.882314 -0.03951395 -0.469 3617327 male
-2.608329 0.3555767 -1.452326 0.4301525 -0.4521096 -0.7813872 7235428 male
-2.618149 0.4038309 -1.275059 -0.01945299 0.2551783 0.9666984 7104098 male
-2.628294 -0.1007558 -1.283249 -0.873801 0.1029719 0.4752567 2369064 male
-2.784599 0.04454077 -1.425248 -0.6799874 -0.2485259 -0.6898204 2698289 male
-2.427193 0.689835 -1.460194 0.4110912 0.8214968 0.3951544 10458254 male
-2.562573 -0.4324545 -1.350866 -0.6771349 -0.389207 -0.624505 592137 male
-2.459471 0.6434516 -1.381023 0.4326022 0.3785929 0.8182439 10853527 male
-2.598185 0.6420848 -1.557901 -0.2589167 -0.5982242 -0.758347 16773095 male
-2.57519 0.1324996 -1.37325 0.3065006 0.05662242 -0.950185 3552824 male
-2.665218 -0.4647343 -1.469989 -0.07335462 -0.975547 -0.2071887 526600 male
-2.576715 0.6706785 -1.804579 0.3915382 -0.8732808 -0.2899631 6838871 male
-2.747761 -0.251959 -1.402861 0.6384403 -0.1384318 -0.7571203 2169889 male
-2.713201 0.63331 -1.426346 -0.4058062 0.6685579 0.6231788 9866631 male
-2.614969 0.6566981 -1.395177 -0.5480322 0.6805438 0.4863344 8880246 male
-2.495264 0.6107983 -1.350057 0.4130281 0.4017364 0.8173224 7761006 male
-2.695258 -0.04752552 -1.382494 0.970645 -0.2376658 -0.03692776 2302505 male
-2.41672 0.6291315 -1.446884 0.5767549 -0.5092764 0.6387422 6446423 male
-2.706464 0.3398685 -1.260432 -0.3619699 0.5657676 0.7408677 11247517 male
-2.589478 0.6262832 -1.538775 0.1500192 -0.7727524 -0.6167237 7958378 male
-2.546625 -0.1505604 -1.300024 0.9905025 0.1267745 0.05322844 3092530 male
-2.398669 0.6867986 -1.572367 -0.6421572 0.633216 -0.4320552 11116698 male
-2.493094 0.6471242 -1.645376 0.3933654 -0.3823582 -0.8361018 15190214 male
-2.700377 0.647983 -1.644196 -0.9238316 -0.02067301 -0.382241 8551288 male
-2.560053 0.1947675 -1.353456 0.6317225 0.2718095 -0.7259798 4276289 male
-2.407055 0.6242176 -1.520969 -0.283752 -0.8526601 -0.4386977 3420716 male
-2.731591 0.00612353 -1.432764 0.1176452 -0.1628151 -0.9796179 3684672 male
-2.730224 0.6040429 -1.410269 -0.5639287 0.4285923 0.705899 9801610 male
-2.676243 0.5541277 -1.3562 -0.3691646 0.274754 0.8878221 7827307 male
-2.592755 0.751855 -1.858001 -0.8739308 0.3328324 -0.3542143 16642277 male
-2.621401 0.6718943 -1.562733 -0.6044388 -0.1116978 -0.7887822 11706516 male
-2.743885 0.2321613 -1.245387 -0.2772846 -0.2168732 0.9359913 5261646 male
-2.459378 0.7814766 -1.569634 0.9435084 0.1764903 0.2804343 3947060 male
-2.758327 -0.0793592 -1.422253 -0.557312 -0.03762336 -0.8294505 2369324 male
-2.614381 0.6965724 -1.668025 0.3210409 0.8490679 0.4195433 8420213 male
-2.723131 0.597854 -1.587646 -0.8165785 -0.1656908 -0.5529432 1380878 male
-2.78816 0.2665804 -1.271936 -0.7238164 0.1357885 0.6764994 11248027 male
-2.744693 0.5197837 -1.500192 -0.5933144 -0.2747357 -0.7566365 3223601 male
-2.686821 0.374194 -1.277094 -0.3234279 0.6355483 0.7010512 7826791 male
-2.7115 0.008583812 -1.426474 0.4910797 -0.09952723 -0.8654104 4475732 male
-2.551179 0.2294275 -1.334612 0.7375609 0.2640676 -0.6215082 1579032 male
-2.625572 0.3509053 -1.459874 0.4539533 -0.411013 -0.7905663 8090479 male
-2.362124 0.6477151 -1.597845 -0.3425033 -0.729876 -0.591585 16045523 male
-2.522362 0.7537222 -1.499139 0.2408574 -0.01066865 0.970502 8090222 male
-2.631796 -0.1107857 -1.289841 -0.9484435 0.09184279 0.3033482 2565415 male
-2.561659 0.6960117 -1.429815 0.04788868 0.9613382 0.2711745 9011064 male
-2.648581 0.6086081 -1.56016 0.7864181 0.3072703 -0.5358469 4736575 male
-2.822471 0.1660979 -1.330254 -0.9448283 -0.1939271 0.2639928 2498854 male
-2.554817 0.1847226 -1.247936 0.7789344 -0.01272659 0.6269766 2499878 male
-2.800637 -0.4197327 -1.387017 0.9012641 0.1962851 0.3862583 2698289 male
-2.758417 -0.09362181 -1.327512 -0.037545 0.213049 0.97632 2894639 male
-2.52435 0.6083491 -1.48952 0.509789 0.2438575 -0.8250145 7892328 male
-2.650111 0.1755914 -1.213427 -0.1808606 -0.4321166 0.8834959 3421244 male
-2.789531 -0.4550556 -1.440701 0.2057824 -0.9734232 0.1005028 526600 male
-2.722442 0.6736962 -1.591444 -0.6484745 0.7583378 0.06636849 10063753 male
-2.553327 -0.3728233 -1.357693 -0.1840938 0.3980349 -0.8987091 3092015 male
-2.7593 -0.2590868 -1.408786 0.1943023 -0.1505427 -0.9693213 1973542 male
-2.804449 -0.3680103 -1.347397 0.3592623 0.07281138 0.930392 3289915 male
-2.348798 0.6709482 -1.620935 -0.6423341 0.3445936 -0.6845891 16773612 male
-2.21565 0.7129835 -1.721617 0.5432531 -0.6755913 -0.4984502 15060941 male
-2.475563 0.5777912 -1.419727 0.6980454 -0.716042 -0.004081875 723723 male
-2.559695 0.8320849 -1.615373 -0.4111504 0.7978911 -0.4408233 3485741 male
-2.645422 0.5148589 -1.545231 0.2144011 -0.300408 -0.9294017 7168090 male
-2.52588 0.5734869 -1.495004 0.5372336 0.003282081 -0.8434273 11773851 male
-2.811221 -0.1542179 -1.356007 -0.9839999 0.1088047 0.1410882 2565161 male
-2.58167 0.2722359 -1.364984 0.7292273 -0.1554828 -0.666373 8353908 male
-2.373816 0.6561562 -1.499632 0.7693911 0.03600401 0.6377628 8748668 male
-2.572004 0.704073 -1.477357 0.3046147 0.7656657 0.5665386 16769491 male
-2.551721 -0.2070343 -1.331075 0.7840539 -0.03849998 -0.6194978 2171945 male
-2.651579 0.325111 -1.227308 -0.1258574 0.4500792 0.8840753 9800330 male
-2.262404 0.717268 -1.639707 0.3023722 0.7196971 0.6249858 15847619 male
-2.429257 0.6300352 -1.424127 0.5845379 -0.3069552 0.7510621 7104868 male
-2.558972 -0.2284054 -1.270338 0.7564824 -0.1714428 0.6311435 2171169 male
-2.714855 0.08637388 -1.438719 0.5111053 -0.03456188 -0.8588232 4344656 male
-2.561268 -0.07135542 -1.29623 0.9487542 0.01205122 0.3157858 2697257 male
-2.634318 -0.08906949 -1.338138 -0.7129897 -0.272577 -0.6460246 1644825 male
-2.484294 0.7448944 -1.667094 0.3953047 -0.1128142 -0.9115961 13021861 male
-2.596101 0.2781978 -1.230463 0.541732 0.1025405 0.8342735 6708823 male
-2.688015 0.6816708 -1.490197 -0.4131159 0.901447 0.1293391 10327957 male
-2.399139 0.694232 -1.512938 0.1603499 0.9766362 0.143072 10457988 male
-2.687455 0.02950469 -1.374384 0.9981802 -0.05495236 0.02483535 2368807 male
-2.485272 0.8746223 -1.968108 -0.8048563 0.5470725 -0.2300397 14071469 male
-2.729377 0.3318689 -1.435533 -0.3418188 -0.1128483 -0.932966 6248790 male
-2.720378 0.02195929 -1.43171 0.361673 -0.1650443 -0.9175802 4079943 male
-2.540153 0.07209637 -1.289036 0.8853655 -0.1751173 0.4306532 2303275 male
-2.808459 -0.1573522 -1.381926 -0.9388136 0.09000215 -0.3324588 1974561 male
-2.459068 0.7028794 -1.621678 0.8684766 -0.07160515 -0.4905318 16636365 male
-2.572816 -0.07663754 -1.278679 0.6071683 0.08774785 0.7897133 1842977 male
-2.706745 0.08161516 -1.305735 0.6134833 -0.2110938 0.7609718 2302243 male
-2.48093 0.6680133 -1.488918 -0.3221333 0.5179263 -0.7924535 7893360 male
-2.798586 -0.1541029 -1.331055 -0.7106789 0.1194549 0.693301 3158840 male
-2.836887 -0.4112134 -1.391125 -0.9984624 -0.05127936 -0.02106351 2169889 male
-2.419228 0.6378667 -1.435016 0.5916608 -0.2553102 0.7646924 7170149 male
-2.604988 -0.1471385 -1.335161 -0.3708881 -0.1150273 -0.9215265 2697516 male
-2.562134 0.7812904 -1.892552 -0.752453 0.2902309 -0.5912536 16576489 male
-2.581338 0.5126464 -1.502077 0.316112 -0.3844253 -0.8673469 16506547 male
-2.76185 -0.335397 -1.379845 0.9366681 0.1895713 0.2944756 2236963 male
-2.73268 0.3909656 -1.317946 -0.5380354 0.4059386 0.7387368 11182234 male
-2.596076 0.8127063 -1.587057 -0.8696407 0.4762833 -0.129921 4933187 male
-2.439271 0.6444293 -1.401014 0.5832476 0.167267 0.7948865 9407879 male
-2.570027 0.8024505 -1.63952 -0.6135204 0.4341358 -0.6596355 3814706 male
-2.597405 0.7333775 -1.608569 -0.4733783 -0.3581097 -0.8047799 7234144 male
-2.592038 0.003663542 -1.263635 0.4070794 -0.2210964 0.8862296 2829357 male
-2.604886 -0.1191512 -1.260005 -0.228729 0.2682498 0.9358019 2895156 male
-2.552792 0.3585098 -1.322563 0.9395074 -0.1854029 0.2880141 4143414 male
-2.648849 0.6373674 -1.398503 -0.4311458 0.6682263 0.6062896 9210500 male
-2.55851 0.09321425 -1.258683 0.6649706 -0.1977301 0.7202202 2565671 male
-2.810964 0.2793471 -1.372052 -0.9813672 0.1195608 -0.1504126 4867394 male
-2.560825 0.803181 -1.515023 -0.3949057 0.4592559 0.795697 10195339 male
-2.510914 0.6595771 -1.653852 -0.1738634 -0.2878666 -0.9417561 14665410 male
-2.675696 0.1449453 -1.371454 0.981977 -0.04563659 -0.1834087 2631981 male
-2.667444 0.2589177 -1.422898 0.04391351 -0.1885703 -0.9810775 7564392 male
-2.849825 -0.443219 -1.414112 -0.8362134 -0.5469242 0.04026741 2105377 male
-2.615572 0.7298561 -1.808328 -0.872735 0.4714076 -0.1269202 16773095 male
-2.690664 0.1967542 -1.22313 -0.597765 -0.6094537 0.5208104 3618876 male
