# .PCD v0.7 - Point Cloud Data file format
VERSION 0.7
FIELDS x y z normal_x normal_y normal_z rgb label
SIZE 4 4 4 4 4 4 4 4
TYPE F F F F F F U U
COUNT 1 1 1 1 1 1 1 1
WIDTH 248
HEIGHT 1
VIEWPOINT 0 0 0 1 0 0 0
POINTS 248
DATA ascii
1.511742 1.038624 -0.7329157 0.1320641 -0.05752367 0.9895706 7630976 male
1.475797 0.651332 -0.838044 0.7395119 -0.2018932 -0.6421536 591881 male
1.533729 0.4980482 -0.9393917 -0.7523389 -0.2653812 0.6029585 526600 male
1.409089 0.7699018 -0.7400659 -0.8303039 -0.08070437 0.5514365 4213073 male
1.52094 1.026807 -0.735379 0.2447002 0.01052468 0.9695417 8881044 male
1.560676 0.5785139 -0.9992148 -0.3209347 0.3523222 -0.8791302 526600 male
1.57881 1.226731 -0.7650728 0.6553106 0.3114041 0.6881827 16306935 male
1.458964 1.382407 -0.7426988 0.4908284 0.7069891 0.5091698 10787238 male
1.609864 1.562056 -0.8224012 0.974723 0.02152334 -0.2223775 16175821 male
1.585901 0.8058957 -0.8214918 -0.03942513 -0.2575282 0.9654662 6975617 male
1.345614 0.4095191 -0.8224674 -0.9952368 -0.09732661 0.005601287 526600 male
1.604933 1.610315 -0.8116239 0.9317716 0.3626989 -0.01585183 16040647 male
1.599024 1.114647 -0.9219976 0.5579948 0.08404068 -0.8255779 6381417 male
1.575057 1.119283 -0.7428522 0.6287454 0.02768413 0.7771181 11644094 male
1.401075 0.9485987 -0.7960382 -0.9713537 0.1625142 0.1733819 3027255 male
1.444008 0.6848459 -0.8513564 -0.04497755 -0.06468471 -0.9968917 6975616 male
1.544878 0.784974 -0.947378 -0.5733689 0.01191113 -0.8192108 2171945 male
1.410607 1.347471 -0.7705843 0.6963237 -0.5310724 -0.4827996 526600 male
1.435257 0.2481069 -0.7121073 -0.2830596 -0.924647 0.2547651 526600 male
1.39433 1.271801 -0.7646529 -0.680269 -0.4235764 0.5981781 8617099 male
1.547713 1.425824 -0.7843617 0.3803845 -0.3450687 0.8580415 16373714 male
1.552072 0.8453107 -0.7770768 0.8816832 -0.4532686 0.1310811 8686228 male
1.691425 0.2683063 -0.875164 -0.003104566 -0.9990218 0.04411017 526600 male
1.646399 1.068013 -0.9846708 -0.7275157 -0.4807198 0.4895195 1052431 male
1.597575 0.3512965 -0.9550005 0.1357085 0.3170142 0.9386615 526600 male
1.466994 1.279892 -0.9226618 -0.7927212 -0.002885576 -0.6095776 12302539 male
1.409953 1.32623 -0.8765907 -0.6604983 0.1456522 -0.7365645 14011359 male
1.580678 1.210433 -0.7602099 0.6534273 0.2698236 0.707268 13823175 male
1.54538 0.7086409 -0.868543 -0.6531692 -0.170656 0.7377307 4737098 male
1.347672 1.290554 -0.7282493 -0.7486837 0.2566033 0.6112508 15840688 male
1.447275 0.9910985 -0.9072247 -0.6382695 0.2395825 -0.7315819 6975610 male
1.504051 1.404769 -0.7812297 -0.0179978 0.235667 0.9716673 10195617 male
1.368393 0.4375989 -0.782381 -0.430836 -0.1227408 0.8940442 526600 male
1.376725 1.356006 -0.7182315 -0.2439714 -0.07678461 0.9667379 9208468 male
1.545663 1.472627 -0.7442902 -0.431345 -0.6062859 0.6681009 10718082 male
1.620506 1.364081 -0.9979395 0.2215608 0.186854 -0.9570769 6446954 male
1.412828 0.8899835 -0.7423217 -0.8307424 0.09451636 0.5485742 3553606 male
1.365342 0.586596 -0.8008739 -0.8469827 0.3195871 0.4248345 526600 male
1.618891 0.6189026 -0.8856192 0.4403021 -0.5277323 0.7263834 527112 male
1.472173 1.302387 -0.9286162 -0.8017343 0.07059944 -0.5934962 14999280 male
1.509249 1.096416 -0.9180037 -0.5763423 -0.1661351 -0.8001429 11511479 male
1.670953 1.106363 -0.9751698 0.3501128 0.1854459 0.918167 16304333 male
1.542897 1.538616 -0.9011136 0.3131731 -0.3285203 -0.8910651 14339028 male
1.5711 1.000943 -0.9602547 0.2109348 0.107689 -0.9715501 7037802 male
1.481825 1.599836 -0.7785442 -0.7319856 0.202777 0.6504449 11314087 male
1.567948 0.5793884 -0.9068977 -0.2011866 -0.3475622 0.9158189 526600 male
1.651558 1.283277 -0.946758 0.8739651 0.1619772 0.4582012 16048092 male
1.653219 0.7802964 -0.9292558 0.8008624 -0.05278522 -0.5965174 7040379 male
1.632373 1.128648 -0.8480321 0.9952847 -0.02752603 0.09300929 8485258 male
1.628038 1.237492 -0.8992822 0.9597371 -0.04665107 -0.2769991 3750721 male
1.412568 0.9919569 -0.8748059 -0.7602077 0.2490279 -0.6000577 6909825 male
1.540462 0.5580823 -0.9247041 -0.648163 0.003707612 0.7614926 526600 male
1.426733 0.9556187 -0.7353376 -0.763465 0.1429147 0.6298385 7435905 male
1.646529 0.9895765 -0.8716125 0.9541101 0.1329764 0.2683116 10261148 male
1.348391 1.136363 -0.7217947 0.8756787 0.2147959 0.4324923 14396849 male
1.481367 1.628158 -0.7982497 -0.6732495 0.5684177 0.472902 723723 male
1.42354 0.7190861 -0.8466646 -0.4428857 -0.0199014 -0.8963571 3752266 male
1.586375 1.393388 -0.852987 0.6598895 0.7157785 0.2284884 13486813 male
1.544187 1.38552 -0.954756 -0.2129966 0.5587146 -0.8015425 11708858 male
1.522297 0.8796057 -0.9470482 -0.5294204 -0.418138 -0.7381563 8685720 male
1.437977 0.929415 -0.720817 -0.5462481 0.1215999 0.8287499 3421497 male
1.570107 0.3021876 -0.9773864 -0.7897896 -0.02235538 0.6129704 526600 male
1.562006 0.5457045 -1.008076 -0.2160272 0.1423343 -0.9659571 526600 male
1.574889 1.220049 -0.7579994 0.6567547 0.2874363 0.6971754 14873827 male
1.470973 0.8109299 -0.8640467 -0.04649872 -0.1347819 -0.9897836 5989227 male
1.648195 0.286949 -1.006418 0.449549 0.1053893 -0.8870167 526600 male
1.6286 1.351079 -0.9190757 0.460253 -0.2673686 0.8465703 9472659 male
1.37492 0.2519698 -0.7574995 -0.01702202 -0.9995344 -0.02532333 526600 male
1.5945 0.3838261 -0.9575421 0.4148955 0.08367056 0.9060137 526600 male
1.564904 0.3018884 -1.040116 0.1363941 0.3092768 -0.9411401 526600 male
1.353276 1.131281 -0.7540781 0.9818404 -0.1064493 -0.1570283 12691887 male
1.334852 1.236024 -0.7728266 -0.6711676 -0.0938684 -0.7353386 16767950 male
1.468682 1.268111 -0.7186525 -0.3927057 -0.2161589 0.8939002 5460827 male
1.57505 1.646958 -0.8003332 0.5173889 0.8374614 0.1759748 526600 male
1.631133 1.253648 -0.823508 0.9140877 -0.1726232 0.3669401 12103616 male
1.550655 1.263598 -0.7366491 0.7550582 -0.05802302 0.6530854 12762067 male
1.539306 0.6146829 -0.9200044 -0.9933808 -0.06356329 0.09567785 789516 male
1.457457 1.034582 -0.7329844 -0.2456706 0.3808392 0.8914075 3486517 male
1.375409 1.287557 -0.7156952 0.05754364 0.2633884 0.962972 14659755 male
1.483484 1.471317 -0.8571417 -0.8012034 0.03570078 -0.5973262 16767173 male
1.400317 0.3903818 -0.8270195 0.9590579 -0.2310815 -0.1637352 526600 male
1.401516 1.020402 -0.8354943 -0.9259079 0.2815305 -0.2518632 10985644 male
1.338883 1.07802 -0.6817116 0.1769689 0.4726657 0.8632897 15714246 male
1.437974 1.348044 -0.7190752 0.3375897 -0.4472086 0.8282739 12564936 male
1.401977 0.4004209 -0.8117583 0.9577915 -0.2001636 0.2063247 526600 male
1.63768 0.822561 -0.829203 0.5153581 -0.1617015 0.841581 7436171 male
1.359437 0.5253171 -0.7855783 -0.6966472 0.08201257 0.7127107 526600 male
1.451578 0.7097373 -0.72956 -0.0484103 -0.3741741 0.9260941 7304067 male
1.605304 1.609014 -0.8044943 0.9313825 0.3594241 0.05779988 15713222 male
1.419642 0.998753 -0.7501529 -0.830538 0.149127 0.5366262 5460571 male
1.522404 1.43198 -0.8967748 -0.3763491 0.6772646 -0.6321977 10591129 male
1.354806 1.374775 -0.7427724 -0.9237171 0.2268798 0.3086621 6644334 male
1.550345 0.7509961 -0.8519062 -0.5241098 -0.2853052 0.8024397 2632236 male
1.741661 0.9420478 -1.017388 0.8275738 -0.09511933 -0.5532393 14330540 male
1.628554 1.056517 -0.8326313 0.9773846 -0.1406536 0.157911 8355215 male
1.581707 0.6783408 -0.8578672 -0.2221827 -0.2996379 0.927821 5066837 male
1.417624 0.5414272 -0.7794679 0.6717142 -0.204192 0.7121135 526600 male
1.593775 0.4793338 -1.004406 0.4607812 -0.06857916 -0.8848602 526600 male
1.519785 1.624625 -0.7624294 -0.3831557 0.5388259 0.7502389 9275016 male
1.347969 0.5369751 -0.8438419 -0.8856991 0.1715525 -0.431401 526600 male
1.533336 0.6622223 -0.9121842 -0.9876068 -0.05286238 -0.1477779 525832 male
1.441039 1.318255 -0.7283167 -0.2288563 -0.7339661 0.6394674 526600 male
1.530608 0.5293243 -0.984425 -0.878065 0.0002819727 -0.4785412 526600 male
1.588584 0.3401328 -1.01646 0.38359 0.04811797 -0.922249 526600 male
1.426641 1.356329 -0.7407911 0.7937456 -0.4948548 0.3536759 1183250 male
1.444322 0.5970894 -0.7634665 0.5167222 -0.5338405 0.6693375 526344 male
1.644461 1.091628 -0.9754352 -0.3378931 -0.1828532 0.9232513 11771811 male
1.587725 1.240551 -0.777481 0.5518774 0.2243405 0.8031829 11242882 male
1.55788 0.5126748 -0.9203961 -0.161116 -0.1839114 0.9696485 526600 male
1.520079 1.028866 -0.9487894 -0.4066088 0.4155326 -0.8136349 8421003 male
1.544537 1.598503 -0.9098668 0.2924154 0.1421734 -0.9456636 5591125 male
1.411367 1.296381 -0.74234 0.9738395 -0.2052759 0.09745958 1974565 male
1.564783 1.621216 -0.8905506 0.5490455 0.4650993 -0.694429 4276805 male
1.599863 1.56271 -0.7797059 0.5028262 -0.0473708 0.8630885 7495777 male
1.413243 0.7391569 -0.8391408 -0.6914294 0.01819732 -0.7222149 3421759 male
1.344318 0.519133 -0.8406739 -0.9331535 0.06396677 -0.3537411 526600 male
1.485841 1.070892 -0.7277244 -0.1611406 -0.1065123 0.9811671 4605772 male
1.439877 1.297484 -0.8964906 -0.5109164 0.05687511 -0.8577468 12236232 male
1.392313 0.5854511 -0.771844 -0.461113 0.08523672 0.8832381 526600 male
1.573703 0.9110774 -0.9661196 0.1148071 0.006445396 -0.9933668 6514547 male
1.473888 1.573654 -0.8954902 -0.6602749 -0.03046069 -0.7504059 9735828 male
1.609588 1.521297 -0.7876295 0.9747822 -0.05991913 0.2149638 16237757 male
1.659404 0.8701672 -0.8461004 0.874078 0.07186746 0.4804401 13290970 male
-2.545288 0.283417 -1.31439 0.7889674 -0.6064627 -0.0986591 5328969 male
-2.599087 -0.00635311 -1.278356 -0.6610493 0.07312549 -0.746771 2696490 male
-2.688895 -0.3143771 -1.401418 0.9655921 0.08523533 0.2456968 2302246 male
-2.574894 0.03793985 -1.131649 0.2066591 -0.3779921 0.9024491 4145478 male
-2.567812 0.2641562 -1.297647 0.6499746 -0.7370309 -0.1852524 6248274 male
-2.731441 -0.09726807 -1.386655 -0.9212376 0.2033207 -0.3316355 1711393 male
-2.793619 0.1879348 -1.140512 -0.8817841 0.1212755 0.4557952 7761005 male
-2.603316 0.3326023 -1.477023 -0.07771169 -0.7225882 -0.6868969 4210499 male
-2.658801 0.3713922 -1.685815 -0.7660846 -0.3455443 -0.5419538 16771294 male
-2.64187 -0.0685581 -1.335219 0.9867471 -0.09948018 0.1281957 1841692 male
-2.53946 -0.2820688 -1.306999 -0.5761686 -0.1030906 -0.8108035 1776411 male
-2.660747 0.4214162 -1.707321 -0.9181874 -0.06724422 -0.390398 14534076 male
-2.76292 0.3873814 -1.292733 -0.8151851 0.3547197 0.4578726 5591117 male
-2.650037 0.2231326 -1.290942 0.08632864 -0.4649196 -0.8811342 9142908 male
-2.616828 0.3545498 -1.17429 0.07915241 0.5038959 0.8601304 7761000 male
-2.546609 -0.08500575 -1.225446 -0.01851115 -0.2079774 0.9779586 2500654 male
-2.740487 0.0717804 -1.320475 -0.2460753 0.3492605 -0.9041373 2829617 male
-2.442963 0.4004145 -1.537359 0.7386336 0.6541503 -0.1628128 10920604 male
-2.53683 -0.403365 -1.314673 -0.8123813 0.2864568 -0.5079169 2631465 male
-2.494595 0.4117748 -1.557282 -0.1459781 0.5047566 -0.8508297 5590602 male
-2.674186 0.4041101 -1.558583 -0.7166365 -0.658564 -0.2296212 16771039 male
-2.51065 0.0806471 -1.224211 0.9670863 0.1532567 -0.2031174 2829363 male
-2.562542 -0.4651951 -1.457171 0.07255931 -0.9521887 -0.2967692 657418 male
-2.892637 0.3698868 -1.827916 0.01931709 0.9842727 0.1755965 14008237 male
-2.692928 -0.2121631 -1.432113 0.1255883 -0.1357959 -0.9827449 1710618 male
-2.705008 0.5016078 -1.470244 -0.1044999 0.9920891 -0.06956298 12366766 male
-2.619892 0.4944172 -1.465888 -0.0632565 0.9969356 -0.04602111 15786197 male
-2.476866 0.4139405 -1.401007 0.7885506 0.02662532 0.6143935 3814962 male
-2.650179 -0.01378248 -1.324038 0.979709 0.1484968 -0.1346076 2895408 male
-2.392531 0.214989 -1.892792 0.5311952 -0.6436471 -0.5509539 12295831 male
-2.622966 0.2146548 -1.082 0.1522082 0.1678911 0.9739845 11314337 male
-2.577964 0.4785075 -1.525188 0.4228806 0.6777787 -0.6014884 9735813 male
-2.483741 -0.1292114 -1.285435 0.9849657 0.1599396 -0.06528664 2368296 male
-2.423935 0.3439947 -1.609645 0.3465971 0.7999755 -0.4898058 10721940 male
-2.578548 0.3279553 -1.670909 0.5983531 -0.7067892 -0.3773894 14929858 male
-2.809929 0.417025 -1.608294 -0.4896315 0.8601339 -0.1429361 8748152 male
-2.518515 0.1284029 -1.216877 0.905659 0.2595768 -0.3352642 3487806 male
-2.442727 0.3356616 -1.513809 0.3636906 -0.5061851 0.7819885 4143927 male
-2.733473 -0.03397644 -1.349723 -0.7523654 -0.04444542 -0.6572451 2434085 male
-2.668622 0.5014138 -1.481275 0.164187 0.9771832 -0.1347431 6380633 male
-2.66936 0.4982076 -1.405189 0.2150007 0.944054 0.2500735 9473160 male
-2.92577 0.3502441 -1.758814 -0.7469615 0.6608459 0.07301533 16638935 male
-2.652203 0.4621516 -1.610394 -0.7763215 0.3295943 0.5373014 7037274 male
-2.777094 0.2215769 -1.128127 -0.7435511 0.2047872 0.6365486 7630180 male
-2.525065 0.4442336 -1.685179 0.9760541 -0.1214244 -0.1804848 3947060 male
-2.731803 -0.07139976 -1.37177 -0.9181987 0.03353677 -0.3946982 2236706 male
-2.800983 0.378559 -1.691226 0.6425699 0.5940966 -0.4838939 15716544 male
-2.817157 0.359278 -1.57342 -0.6230547 -0.5509346 0.5552244 6314583 male
-2.718151 0.2727218 -1.126035 -0.2341753 0.5582018 0.7959728 9077632 male
-2.769016 0.3764529 -1.450498 -0.7657449 -0.5923159 0.2505932 5064773 male
-2.668291 0.3571848 -1.186821 -0.2573025 0.6825 0.6840974 10064009 male
-2.677069 -0.2817226 -1.386625 0.9833537 -0.1492569 0.1036248 2236963 male
-2.531854 0.1520608 -1.1357 0.8986149 0.05599464 0.4351507 2697257 male
-2.637831 0.2420584 -1.320208 0.1198308 -0.8482062 -0.515933 7366244 male
-2.458067 0.2901644 -1.605862 -0.7257698 -0.6852402 0.06086272 7695978 male
-2.551791 0.4608513 -1.591428 0.6611462 0.148963 0.7353204 8090222 male
-2.558536 -0.1438823 -1.251841 -0.8527002 0.1730083 0.4929206 2434090 male
-2.537167 -0.436518 -1.399202 0.5453381 0.8315091 0.1058264 2828843 male
-2.706096 0.4327922 -1.529353 0.452092 -0.01814605 -0.8917868 4670271 male
-2.813946 0.1179988 -1.178419 -0.983902 -0.1657844 0.06672961 2960433 male
-2.527598 0.176994 -1.153479 0.9632094 0.1400782 0.2293602 2368808 male
-2.720219 -0.4226614 -1.443654 0.7722868 -0.5226602 0.361109 1053456 male
-2.72228 -0.142857 -1.421452 -0.5969994 0.1243479 -0.7925462 2368039 male
-2.801992 0.1761376 -1.152049 -0.937911 0.1100994 0.3289396 8156014 male
-2.64305 0.1089346 -1.092195 -0.3596319 -0.7193136 0.5943509 2302500 male
-2.700326 -0.4510371 -1.463392 0.1398826 -0.9872021 0.07658218 526600 male
-2.802535 0.4312407 -1.575357 -0.57824 0.8158652 0.001676947 8157298 male
-2.544491 -0.3953498 -1.281463 -0.9781224 0.155995 0.1376313 2302243 male
-2.698442 -0.2595836 -1.424313 0.01480943 -0.09874922 -0.9950023 2303019 male
-2.748692 -0.3866861 -1.395196 0.6973909 0.1907952 0.6908281 2302757 male
-2.421666 0.259027 -1.648489 -0.8424006 -0.1200702 -0.5253044 16772839 male
-2.355219 0.1806968 -1.747013 -0.428678 -0.8913884 -0.1471801 12430506 male
-2.511833 0.4117383 -1.549556 -0.3686125 0.3952259 -0.8413808 6643037 male
-2.611253 0.5142145 -1.712826 -0.2510027 0.7631478 -0.5954857 4934210 male
-2.63166 0.3822366 -1.525805 -0.1375622 -0.9222713 -0.3612373 5458499 male
-2.806223 0.2191642 -1.179089 -0.9801908 0.06288289 0.1878088 4341562 male
-2.742966 -0.1488128 -1.394479 -0.9486682 0.09328822 -0.3022025 2105892 male
-2.574366 0.2091659 -1.220557 0.5046542 0.2367028 -0.8302387 9407880 male
-2.428957 0.3333596 -1.528744 0.7178826 -0.2124116 0.6629677 7499370 male
-2.570377 0.4329606 -1.583491 0.7307567 0.1823002 0.6578462 7628389 male
-2.487051 -0.1701557 -1.314124 0.7169068 0.06173659 -0.6944304 3224633 male
-2.64686 0.3259911 -1.149925 -0.1310506 0.7367019 0.6633975 10064523 male
-2.36034 0.2651297 -1.632294 0.90218 0.4051437 0.1480876 16768979 male
-2.458113 0.3827564 -1.584355 0.2447535 0.5286134 -0.8128123 6118228 male
-2.488451 -0.2076877 -1.242977 0.730235 -0.1206645 0.6724561 2236706 male
-2.652332 -0.06084071 -1.298039 0.8038984 -0.150815 0.5753281 2105120 male
-2.530464 -0.05082388 -1.211324 0.7025199 -0.2334074 0.6722997 2829358 male
-2.57116 -0.1212225 -1.290486 -0.9418701 -0.2428264 -0.232199 1907741 male
-2.619943 0.400958 -1.741392 -0.3495057 -0.3740509 -0.8590297 16505552 male
-2.598643 0.1646407 -1.081956 0.359145 -0.04212939 0.9323306 3225149 male
-2.693825 0.4651 -1.542924 -0.2915975 -0.04412036 -0.9555233 4407355 male
-2.470437 0.3118581 -1.610558 -0.8758731 -0.1769829 -0.4489139 7892847 male
-2.642616 -0.08333235 -1.369553 0.9729342 -0.222228 -0.06335711 2697257 male
-2.899674 0.4191374 -1.986269 -0.3862225 0.8820544 -0.2698375 13610146 male
-2.687515 0.2547558 -1.362554 -0.1907475 -0.8099172 -0.5546616 6708567 male
-2.684152 -0.2986725 -1.387005 0.9647779 -0.1128535 0.23763 2170913 male
-2.543208 0.0774918 -1.131823 0.6759016 -0.2749006 0.6838034 2105383 male
-2.726012 -0.106726 -1.347569 -0.7255673 0.2142775 0.65394 2763567 male
-2.592167 0.3832012 -1.728316 -0.03905272 -0.9739879 -0.2232095 12232610 male
-2.522357 -0.03456354 -1.21625 0.8750046 -0.1984255 0.4415818 1973798 male
-2.739694 0.06739051 -1.129972 0.06112856 -0.700968 0.7105683 4802898 male
-2.514355 0.4417067 -1.52782 -0.06643048 0.5825008 -0.8101112 5263943 male
-2.723592 -0.1340379 -1.341285 -0.5923957 0.1543054 0.7907321 2960690 male
-2.777169 -0.4009085 -1.416049 -0.9885514 0.1213021 -0.08973339 3225657 male
-2.441796 0.3746998 -1.580485 0.4716671 0.701066 -0.5348241 16772046 male
-2.51739 -0.1477028 -1.325907 -0.1232706 -0.1572286 -0.9798387 2171171 male
-2.937983 0.336053 -1.774192 -0.8722804 0.4889963 0.003131151 16705502 male
-2.605971 0.3501762 -1.497498 -0.00955078 -0.6967574 -0.7172435 8881535 male
-2.696947 -0.329707 -1.427358 0.7612086 0.3328424 -0.5565768 2368812 male
-2.674431 0.3977264 -1.246414 0.05524442 0.7631232 0.6438875 7432807 male
-2.651978 0.4998666 -1.639249 -0.8116782 0.4992 0.3032789 4604222 male
-2.455491 0.390018 -1.461954 0.8869598 0.03622142 0.4604243 2565667 male
-2.647353 0.5013484 -1.693171 -0.7326794 0.575357 -0.363518 4866361 male
-2.654634 0.3733999 -1.690982 -0.6508549 -0.3273934 -0.684983 16771552 male
-2.568517 -0.08883914 -1.237241 -0.5867931 -0.2700548 0.7633772 2499886 male
-2.500793 -0.1189614 -1.247934 0.6534318 0.2452656 0.7161508 1908771 male
-2.537117 0.3286476 -1.271348 0.9209468 -0.04779484 0.3867467 3289393 male
-2.603287 0.4926637 -1.408797 -0.2204181 0.9524328 0.2104466 6643548 male
-2.52728 -0.002912334 -1.190825 0.8163459 -0.2779788 0.5062681 2696492 male
-2.806009 0.07173665 -1.191095 -0.8862743 -0.4298028 0.1725914 3684161 male
-2.581463 0.5140913 -1.609952 0.1313588 0.7569715 0.6401087 10195339 male
-2.649081 0.3362229 -1.669884 -0.7495067 -0.5872884 -0.3055032 14667973 male
-2.669496 0.09357665 -1.245015 0.9191229 0.2658017 -0.2907968 2894638 male
-2.74508 0.1964751 -1.241666 -0.05692077 0.3266739 -0.9434217 5985360 male
-2.763741 -0.436137 -1.434244 0.1927186 -0.9794158 0.0600348 986895 male
