# .PCD v0.7 - Point Cloud Data file format
VERSION 0.7
FIELDS x y z normal_x normal_y normal_z rgb label
SIZE 4 4 4 4 4 4 4 4
TYPE F F F F F F U U
COUNT 1 1 1 1 1 1 1 1
WIDTH 246
HEIGHT 1
VIEWPOINT 0 0 0 1 0 0 0
POINTS 246
DATA ascii
1.482294 1.021565 -0.7118583 0.08233187 -0.08878442 0.9926423 7630976 male
1.437435 0.5978274 -0.8247198 0.7091135 -0.3457188 -0.6145214 526600 male
1.544532 0.4566172 -0.9312956 -0.8176476 -0.345479 0.4605395 526600 male
1.380787 0.7734964 -0.72936 -0.8584532 -0.03311229 0.511822 3488065 male
1.491545 1.009936 -0.7142004 0.1939431 -0.0181338 0.9808452 8881044 male
1.593665 0.545697 -0.9837927 0.3761705 0.2169761 -0.9007869 526600 male
1.535087 1.264338 -0.7194578 0.8703642 0.0252713 0.4917594 11510974 male
1.430098 1.381669 -0.729661 0.3450277 0.7988844 0.4926862 15261682 male
1.593017 1.541375 -0.7865489 0.9593819 -0.0206422 -0.2813541 16175821 male
1.585521 0.7964252 -0.8010917 0.1160794 -0.220003 0.968568 5923697 male
1.332507 0.3362656 -0.8005773 -0.7876065 0.05872066 0.6133741 526600 male
1.592015 1.588793 -0.771612 0.9513749 0.3046492 -0.04554862 16040647 male
1.565172 1.102488 -0.9019451 0.4528173 0.1683525 -0.8755649 5328985 male
1.547329 1.101891 -0.7165104 0.5999114 -0.003597874 0.8000583 11644094 male
1.373455 0.9396033 -0.7979659 -0.9911816 0.1066959 0.07858166 4343122 male
1.418954 0.6553678 -0.8394461 -0.01178515 -0.0605442 -0.9980959 6316648 male
1.561057 0.7865019 -0.9388291 -0.109218 0.01391439 -0.9939204 12437462 male
1.384005 1.264414 -0.7056183 0.9485369 -0.1500269 0.2788719 13679808 male
1.354612 0.2370878 -0.7578108 -0.0219713 -0.9997585 -0.0002159327 526600 male
1.378986 1.254732 -0.7265428 -0.5531781 -0.3342631 0.763061 4079173 male
1.524324 1.413329 -0.7495579 0.2346704 -0.4208403 0.8762553 16570323 male
1.512261 0.8349938 -0.7264544 0.7781303 -0.2655441 0.5692096 4078920 male
1.715409 0.2613643 -0.8337008 0.4970975 -0.8623821 0.09587008 526600 male
1.659789 1.040115 -0.932735 -0.4410809 -0.1021553 0.8916345 2827303 male
1.601453 0.4001395 -0.933129 0.3233133 -0.1130051 0.9395202 526600 male
1.446134 1.285091 -0.8944461 -0.7957914 0.08512892 -0.5995574 13880540 male
1.411763 1.345006 -0.853164 -0.4728651 0.3160934 -0.8224862 14012645 male
1.541759 1.181764 -0.7143107 0.6074328 0.1816395 0.7733256 14741724 male
1.532854 0.6653956 -0.8588027 -0.693009 -0.1923422 0.6947972 4736585 male
1.321091 1.281721 -0.7084587 -0.9047967 0.1711613 0.3899318 15908277 male
1.431831 0.9881619 -0.8910871 -0.6011662 0.3048895 -0.7386755 6974583 male
1.583348 1.355967 -0.8162662 0.6912339 0.5701402 0.4439999 12959181 male
1.330642 0.4314357 -0.7920869 -0.75651 -0.09112445 0.6476024 526600 male
1.348374 1.334364 -0.6914248 -0.3310924 -0.05872854 0.9417689 7829378 male
1.525514 1.4584 -0.7075125 -0.3459181 -0.4371525 0.8302038 11900812 male
1.587086 1.340436 -0.9682385 0.02318868 0.11074 -0.9935789 9935015 male
1.381302 0.8758016 -0.7382584 -0.8994725 0.09043311 0.4275173 2828851 male
1.343831 0.5698532 -0.8373867 -0.7297651 0.4477856 -0.5166537 526600 male
1.613372 0.6270653 -0.8543941 0.5174592 -0.3460549 0.7826122 8619667 male
1.444132 1.300296 -0.8878409 -0.8092016 0.1785404 -0.5597466 12629706 male
1.472034 1.084105 -0.882149 -0.6627015 -0.1002943 -0.7421374 11116209 male
1.686572 1.051258 -0.9629472 0.8658933 0.2516091 -0.4323443 14397359 male
1.530793 1.526307 -0.8580488 0.335451 -0.2817099 -0.8989506 12168624 male
1.566016 0.9745225 -0.9329699 0.3643733 0.1175606 -0.9238029 5133408 male
1.470558 1.583195 -0.7317554 -0.6777306 0.1912902 0.7099925 11314087 male
1.589426 0.5656364 -0.8868623 0.09976271 -0.403629 0.9094675 526600 male
1.631063 1.282759 -0.9230576 0.9478694 0.2586036 0.1861928 15255233 male
1.639816 0.7843981 -0.9024517 0.8548506 0.01789237 -0.5185657 7303552 male
1.532122 0.9158216 -0.9491615 0.01676142 0.1039748 -0.9944387 8817823 male
1.604941 1.224247 -0.8686655 0.9635246 -0.04626397 -0.2635904 3750721 male
1.378755 0.9679046 -0.8457998 -0.8874833 0.1626965 -0.4311649 8028302 male
1.56397 0.6812134 -0.834821 -0.3314534 -0.269684 0.9041068 5067869 male
1.390317 0.9176743 -0.7308529 -0.8434849 0.1401788 0.5185395 3817026 male
1.624813 0.9819582 -0.8780183 0.9550913 0.2156688 -0.2031938 2302499 male
1.334516 1.114067 -0.7083176 0.9912796 0.08075723 0.1041299 14464443 male
1.45963 1.619254 -0.7707133 -0.7211848 0.6007168 0.3450097 526600 male
1.378059 0.7264337 -0.8142057 -0.8864443 0.03603939 -0.4614299 5002076 male
1.415699 1.415661 -0.7887901 -0.5433457 0.8386784 -0.03733632 6447467 male
1.521788 1.374117 -0.9211501 -0.2152605 0.5794669 -0.7860541 11708858 male
1.511184 0.8759754 -0.9393654 -0.3244458 -0.3949407 -0.8595096 6843516 male
1.44468 0.9369039 -0.6996792 0.06107089 0.1544345 0.9861137 11317693 male
1.591896 0.2952553 -0.9482216 -0.8214309 -0.07671995 0.565124 526600 male
1.620281 0.4668441 -0.964256 0.8934845 -0.09106527 -0.4397643 526600 male
1.530454 1.259772 -0.7124559 0.8155161 0.003046534 0.5787264 11840451 male
1.450523 0.796736 -0.8508923 0.02608445 -0.1233247 -0.9920235 5989227 male
1.667801 0.2788724 -0.9797409 0.5435014 0.1291396 -0.829415 526600 male
1.626806 1.349501 -0.8960766 0.7451499 -0.2663881 0.6113827 14077406 male
1.320782 0.2385897 -0.7519948 -0.1314023 -0.9909809 0.0262741 526600 male
1.621314 0.348334 -0.9507257 0.9443392 0.2377613 0.2273611 526600 male
1.568902 0.3249424 -1.008205 0.3741029 0.3578886 -0.8555483 526600 male
1.320074 1.179699 -0.7033305 0.7401474 0.3372672 0.5817496 15252155 male
1.28157 1.111561 -0.7392218 -0.718608 -0.4114619 -0.5606259 16571874 male
1.466098 1.252971 -0.6824944 -0.04723981 -0.3277645 0.9435776 9670300 male
1.565233 1.62614 -0.7555701 0.5809633 0.7865632 0.2092843 526600 male
1.601202 1.256567 -0.7782134 0.7852214 -0.01239801 0.619091 11967893 male
1.518434 1.254526 -0.6994593 0.6413361 -0.03877372 0.7662798 14999798 male
1.538278 0.6045802 -0.9143786 -0.9962243 0.03268239 -0.08043042 526600 male
1.412972 1.025809 -0.7256311 -0.514524 0.3907547 0.7632665 5591899 male
1.349337 1.255194 -0.6837778 0.09618357 0.2071695 0.9735655 16766162 male
1.466599 1.444552 -0.8289771 -0.664713 0.2113738 -0.7165736 15643044 male
1.378577 0.3849576 -0.8204255 0.9591361 -0.2707526 0.08216313 526600 male
1.377474 1.006234 -0.8208332 -0.9127013 0.2844739 -0.2933444 10985644 male
1.31868 1.077386 -0.6619755 0.1351561 0.4440773 0.885736 15581892 male
1.406942 1.344231 -0.6844563 0.4885985 -0.3261093 0.8092738 7302526 male
1.382552 0.3948811 -0.827789 0.9459372 -0.2960045 -0.1326052 526600 male
1.523358 0.7998133 -0.8132101 -0.5665314 -0.2814719 0.7744777 2697261 male
1.329177 0.5234249 -0.8450882 -0.8066658 0.1857747 -0.5610507 526600 male
1.444548 0.6720482 -0.7322737 0.3637772 -0.3734116 0.8533639 7896977 male
1.592704 1.586879 -0.7646493 0.9550524 0.2951499 0.02759314 15713222 male
1.390746 1.000575 -0.7386315 -0.8208365 0.20066 0.5347551 7039091 male
1.485601 1.409029 -0.8652692 -0.5190369 0.7044841 -0.4840484 12762833 male
1.327136 1.36287 -0.737142 -0.9543697 0.253796 -0.1573725 7038323 male
1.527467 0.7341751 -0.8415275 -0.6592382 -0.3028452 0.6882513 2829099 male
1.725555 0.9265757 -0.9796315 0.0990572 -0.01285119 -0.9949987 14593453 male
1.597754 1.059187 -0.7720811 0.9346696 -0.09598518 0.342315 12433102 male
1.541139 0.5289149 -0.907698 -0.618194 -0.06569272 0.7832757 526600 male
1.395453 0.4560332 -0.8029222 0.8739048 -0.2306247 0.427905 526600 male
1.592508 0.5070923 -0.9887756 0.3387185 0.03394882 -0.940275 526600 male
1.510974 1.604116 -0.7161295 -0.3029521 0.4970222 0.8131351 9275016 male
1.323439 0.5196022 -0.8042043 -0.9436774 0.1471368 0.2963506 526600 male
1.522816 0.6545886 -0.8849697 -0.9932901 -0.1137673 0.02077541 526600 male
1.421757 1.281277 -0.6975538 -0.4744566 -0.5488836 0.6881987 657418 male
1.526617 0.5339631 -0.9350871 -0.9924362 0.03789427 0.1167664 526600 male
1.611788 0.3206477 -0.9962799 0.5629479 0.07565835 -0.8230222 526600 male
1.395445 1.341502 -0.7027298 0.7599149 -0.3042261 0.5744352 10590637 male
1.416173 0.5760909 -0.7600682 0.5515795 -0.6306605 0.5459187 855309 male
1.58192 1.127945 -0.958009 -0.8647612 -0.459918 0.2016521 1051664 male
1.538845 1.285191 -0.7314391 0.8380383 0.1453703 0.5258891 14469993 male
1.574613 0.702772 -0.8255695 -0.1534164 -0.2485059 0.9564038 4145482 male
1.473238 1.028222 -0.9023162 -0.5299911 0.4699682 -0.7058607 10657457 male
1.525264 1.589011 -0.8665137 0.2468833 0.201999 -0.947758 5591125 male
1.362544 1.245312 -0.6871194 0.4860943 0.03024855 0.8733827 15380401 male
1.548063 1.608741 -0.8467418 0.5383167 0.4867373 -0.6879694 4276805 male
1.585542 1.539077 -0.74338 0.5470982 -0.1508043 0.8233721 7495777 male
1.436338 0.6964962 -0.8397341 0.211343 -0.09225934 -0.9730481 5790564 male
1.35505 0.4980587 -0.7679476 -0.2790514 -0.04025336 0.9594321 526600 male
1.458631 1.048206 -0.7072178 -0.1811492 -0.175867 0.9676031 4868170 male
1.407151 1.284015 -0.861261 -0.5226413 0.04114783 -0.8515591 15131113 male
1.358268 0.5610499 -0.7682298 -0.5476325 0.1255707 0.8272428 526600 male
1.508999 0.8525355 -0.9261201 -0.5308173 -0.342809 -0.775058 6250863 male
1.449786 1.610418 -0.8185574 -0.8173564 0.5068995 -0.2738274 526344 male
1.592109 1.497958 -0.755157 0.9794605 -0.1369325 0.1480086 16237757 male
1.647116 0.8411323 -0.8424683 0.9758571 0.06805844 0.2075355 1579032 male
-2.383969 0.2688607 -1.36602 0.99796 -0.05594919 -0.03075266 8156787 male
-2.436866 -0.05616072 -1.357903 -0.7741473 -0.240705 -0.5854548 2171937 male
-2.419206 -0.01641032 -1.484656 0.9805131 -0.1760833 -0.08711529 4078918 male
-2.386773 0.115782 -1.255232 0.5109136 -0.09788432 0.8540411 2302758 male
-2.366653 0.3095031 -1.369613 0.9547956 -0.2963932 0.02272838 7761005 male
-2.487633 -0.09733838 -1.547179 -0.3734701 0.2504029 -0.893207 2105377 male
-2.591858 0.263479 -1.422714 -0.9676903 0.1289703 -0.2166623 7104613 male
-2.423583 0.3934976 -1.495442 0.2912948 -0.169939 -0.9414183 4998212 male
-2.155323 0.7798802 -1.439126 0.6060168 -0.6112505 -0.5090351 8088939 male
-2.458868 0.03429985 -1.418204 0.5767791 -0.1692591 0.799173 2434599 male
-2.403541 -0.2453053 -1.256134 0.1661505 -0.1353376 0.9767691 1777187 male
-2.209327 0.8206325 -1.441314 -0.2717532 0.1814545 -0.9451057 5394762 male
-2.460001 0.507942 -1.508063 -0.5973604 -0.06310576 -0.7994864 7564652 male
-2.391916 0.2166435 -1.407627 0.6485996 -0.5598191 -0.5156756 2894895 male
-2.495405 0.3029842 -1.24816 -0.3064897 0.1474414 0.9403858 7169381 male
-2.4456 -0.05027704 -1.345667 -0.9467283 -0.1939156 -0.2571042 2697257 male
-2.487436 0.05920135 -1.529438 -0.07707688 -0.1600741 -0.9840913 2698289 male
-2.28686 0.5897225 -1.2562 0.3551019 -0.9311264 0.08310392 5064773 male
-2.398926 -0.3831126 -1.32847 -0.2094169 0.3683381 -0.9057991 2302499 male
-2.323967 0.6559582 -1.239926 -0.06088372 0.7879369 0.6127388 12434357 male
-2.229324 0.6691135 -1.382012 0.719031 -0.6767418 0.1581618 15651528 male
-2.402268 0.1801564 -1.376182 0.5170754 -0.0739554 -0.8527391 2171945 male
-2.563062 -0.4525719 -1.491166 -0.515379 -0.8009998 0.3046046 592137 male
-2.173489 0.7491765 -1.792014 0.4777726 0.3766704 0.7936328 16769494 male
-2.467566 -0.1838086 -1.506387 0.7967547 -0.6003253 0.06922263 2763309 male
-2.459691 0.6096302 -1.465822 -0.9524937 0.2895783 -0.09434158 8222581 male
-2.398393 0.6654963 -1.323265 -0.6670783 0.7100632 0.2254265 9537666 male
-2.289447 0.4841034 -1.334993 0.8099262 -0.4766676 0.3417716 5722958 male
-2.434153 -0.09912507 -1.472507 0.4838108 -0.3973842 0.779752 1776156 male
-2.367512 0.6352592 -1.22442 -0.8780757 0.3603115 0.3148952 7497057 male
-2.543352 0.3192134 -1.304702 -0.8361843 0.4123525 0.3616098 9339262 male
-2.286322 0.6811811 -1.310538 0.7826397 0.3840897 0.4898473 4209974 male
-2.364301 -0.1944194 -1.321547 0.7000495 -0.1899801 -0.6883593 2236714 male
-2.316519 0.5456421 -1.225771 0.9093103 -0.3549157 -0.2172324 9472898 male
-2.203637 0.6877226 -1.382712 -0.0107096 -0.9335864 0.3581922 11378324 male
-2.323282 0.7052248 -1.603781 -0.6727829 0.682909 -0.2846026 10458766 male
-2.37478 0.2281745 -1.324198 0.91421 0.3205938 -0.2478708 2631981 male
-2.375744 -0.06940787 -1.285488 0.5939133 0.08090816 0.8004506 2433573 male
-2.489952 -0.04750364 -1.518624 -0.7941642 0.4405935 -0.4185459 3157302 male
-2.451017 0.6316147 -1.468 -0.9291764 0.3586701 -0.08937016 8090995 male
-2.404712 0.6768513 -1.412056 -0.6686944 0.6632701 0.3360369 3683888 male
-2.191949 0.7564526 -1.792454 -0.03685746 0.8163333 0.576404 16637388 male
-2.271751 0.8299363 -1.389532 -0.8766274 0.2826948 -0.3893691 5196103 male
-2.56214 0.342819 -1.38482 -0.8031354 0.5329502 0.2663416 8880253 male
-2.146241 0.8063596 -1.314043 0.5571259 -0.220817 0.8005316 3947060 male
-2.421075 -0.04754843 -1.517621 0.7336545 -0.1866252 -0.653393 3553087 male
-2.25088 0.714053 -1.645132 0.4130359 0.8431898 0.3441401 16047566 male
-2.286925 0.6443154 -1.626577 0.3830847 -0.9194887 -0.08824301 2895404 male
-2.552705 0.3572108 -1.388027 -0.7597719 0.597121 0.2572806 9800069 male
-2.329227 0.590912 -1.529036 -0.0724664 -0.5116305 -0.8561443 5196359 male
-2.515493 0.3801297 -1.335886 -0.7237423 0.6099784 0.3226818 7826791 male
-2.429157 0.01413573 -1.489056 0.9280114 -0.1489515 -0.34148 4475732 male
-2.407307 0.2722375 -1.243953 0.417644 0.09953696 0.9031424 4406843 male
-2.323684 0.401816 -1.407542 0.8879442 -0.3645951 -0.2804029 7038563 male
-2.4485 0.432239 -1.198131 -0.5562727 -0.2916631 -0.7781347 12103081 male
-2.158963 0.853229 -1.306262 0.4785892 0.2916334 0.8281923 4340793 male
-2.463434 -0.009363146 -1.324385 -0.9780578 -0.2072974 0.02076101 3224633 male
-2.357971 -0.4312529 -1.342012 0.07096425 0.9968301 0.03597086 2631720 male
-2.311503 0.7042207 -1.477857 0.580362 0.7765921 0.2451216 5722703 male
-2.542368 0.2720658 -1.494038 -0.6103304 0.183086 -0.7706988 4538425 male
-2.388571 0.2647491 -1.256507 0.7534242 0.1214181 0.6462274 6118230 male
-2.588587 -0.4149135 -1.508145 -0.3366554 -0.5956564 0.7292852 657930 male
-2.478794 -0.06428873 -1.478845 -0.4078901 0.5836257 0.7021444 2894639 male
-2.578239 0.2776141 -1.448018 -0.8695371 0.1811091 -0.4594619 7958634 male
-2.51242 0.1142818 -1.323832 -0.9526109 -0.2822576 -0.1134163 3618368 male
-2.595676 -0.4402687 -1.53376 -0.8028744 -0.556421 -0.2139821 723467 male
-2.379738 0.6805724 -1.549094 -0.8863297 0.2894685 -0.3614249 8156788 male
-2.436034 -0.3695933 -1.298974 -0.8818081 0.1274429 -0.4540628 2170657 male
-2.490988 -0.2140428 -1.503744 0.7474965 -0.6642345 -0.006449401 2566703 male
-2.615637 -0.3228118 -1.494251 0.4377318 0.1906388 0.8786626 2302757 male
-2.445181 0.4587122 -1.207622 -0.4710852 -0.2167236 -0.8550495 13415598 male
-2.400511 0.3060915 -1.128986 -0.4855506 -0.1248267 0.8652509 16506074 male
-2.358685 0.6530246 -1.250374 -0.4395082 0.6985591 0.5646662 7629927 male
-2.152159 0.8910927 -1.367733 0.5010232 0.8653116 -0.01455221 7169118 male
-2.276439 0.6077212 -1.480119 0.9777518 0.03076963 -0.2074969 4669758 male
-2.579644 0.2589736 -1.452295 -0.8699018 0.2059679 -0.4481609 8090221 male
-2.520761 -0.1010723 -1.522755 -0.7385513 0.5161185 -0.4337788 2499113 male
-2.439556 0.3740717 -1.262167 0.06106216 0.486828 0.8713611 5130053 male
-2.36488 0.5847673 -1.191985 -0.4674002 0.3167252 0.825362 10525079 male
-2.115558 0.8506473 -1.365716 0.8736582 0.4351149 0.2177076 6708568 male
-2.407541 -0.2540601 -1.32435 0.05875248 -0.2246442 -0.9726682 1776155 male
-2.519525 0.24048 -1.249737 -0.5145578 -0.0153373 0.8573186 3554369 male
-2.411395 0.386884 -1.13487 0.1150032 0.004012688 0.9933572 16770523 male
-2.305456 0.6269386 -1.194403 0.2568888 0.07412052 0.9635946 7500136 male
-2.404898 -0.2254011 -1.330629 0.08678448 -0.1934799 -0.9772585 2302246 male
-2.426888 0.09601112 -1.48919 0.9476095 -0.04945177 -0.3155804 4344656 male
-2.398707 -0.1507518 -1.251179 0.1429334 0.09913001 0.9847555 2367780 male
-2.363124 0.01304133 -1.349019 0.8921658 -0.1152485 -0.4367586 4277065 male
-2.125568 0.844488 -1.421471 0.6376518 0.4428484 -0.6303061 12168099 male
-2.408625 0.309387 -1.246411 0.3832217 0.1649588 0.9088069 3552302 male
-2.33263 0.7151498 -1.465823 0.1947713 0.9673724 -0.1620328 3815220 male
-2.357263 0.6099756 -1.196103 -0.4837549 0.2800243 0.829197 10327694 male
-2.444379 0.03249677 -1.431636 0.7325415 -0.1533438 0.6632262 2368807 male
-2.10286 0.8476329 -1.960623 0.1136138 0.9517688 0.2850056 11903121 male
-2.390585 0.3834565 -1.477644 0.4752261 -0.2439346 -0.8453735 6642008 male
-2.434289 0.02988226 -1.495858 0.86244 -0.1854296 -0.4709706 4079943 male
-2.352137 -0.1162084 -1.318513 0.9869834 -0.1355468 -0.08655137 3093046 male
-2.50983 -0.1223943 -1.543885 -0.4918481 0.1933976 -0.8489306 1974561 male
-2.11165 0.7860556 -1.369015 0.8997952 -0.2876449 0.3280693 6904657 male
-2.388013 -0.1459473 -1.254452 0.3639035 0.1104619 0.9248637 2631464 male
-2.50507 0.1162745 -1.374516 0.005902946 -0.2453919 0.9694061 2170913 male
-2.295257 0.6779954 -1.295828 0.7594351 0.4545006 0.4654973 6379603 male
-2.539843 -0.1410431 -1.521712 -0.8068143 0.2653024 -0.5278879 2499878 male
-2.626319 -0.3144011 -1.511465 -0.6799793 0.5308214 -0.5058231 3026741 male
-2.351065 0.6497853 -1.224112 -0.5568551 0.6115994 0.562013 10131345 male
-2.350976 -0.09093115 -1.34011 0.8380005 -0.4591339 -0.2948753 3222833 male
-2.216485 0.7179739 -1.827915 -0.505336 -0.1704059 -0.84593 16704221 male
-2.262325 0.5895135 -1.390892 0.9780877 -0.09923055 -0.1830249 5327439 male
-2.546917 -0.2651036 -1.472506 0.6379523 -0.2609644 0.72451 2499878 male
-2.443251 0.6152763 -1.387083 -0.8390335 0.4477395 0.3091152 7762029 male
-2.264903 0.8558099 -1.34314 -0.8339725 0.4740664 0.2824023 6576979 male
-2.277121 0.6125479 -1.219587 0.8296477 -0.4964498 0.2553874 7565162 male
-2.26196 0.8546854 -1.387638 -0.8179933 0.4270465 -0.385381 4077878 male
-2.146143 0.7707264 -1.426415 -0.02877891 -0.06458275 -0.9974974 13941943 male
-2.472676 0.01735365 -1.333433 -0.9493548 -0.2140576 -0.2300109 2565674 male
-2.364039 -0.1862679 -1.274399 0.8175014 -0.1076447 0.5657777 2434085 male
-2.358932 0.3440434 -1.327209 0.8531399 -0.4007692 0.3339709 7103075 male
-2.420536 0.6409037 -1.348599 -0.7982003 0.5977877 -0.07433856 7827563 male
-2.363859 -0.06515631 -1.301462 0.8095369 0.007341145 0.5870234 2434091 male
-2.527037 0.2876743 -1.502317 -0.4565043 0.1501002 -0.8769686 3092015 male
-2.205048 0.8702074 -1.303273 -0.1076596 0.529339 0.841552 4406587 male
-2.204985 0.751638 -1.452025 -0.1189381 -0.1076449 -0.9870495 16771038 male
-2.432968 0.150478 -1.427567 0.9587206 -0.07394379 0.2745676 3158840 male
