# .PCD v0.7 - Point Cloud Data file format
VERSION 0.7
FIELDS x y z normal_x normal_y normal_z rgb label
SIZE 4 4 4 4 4 4 4 4
TYPE F F F F F F U U
COUNT 1 1 1 1 1 1 1 1
WIDTH 250
HEIGHT 1
VIEWPOINT 0 0 0 1 0 0 0
POINTS 250
DATA ascii
1.31977 0.2450066 -1.316806 0.5071035 0.2935312 0.8103614 13749729 male
1.36507 0.2932035 -1.104647 -0.1492511 0.9642605 -0.2189201 6778240 male
1.731793 0.1872277 -1.023614 0.7559592 -0.6505063 -0.07326221 526600 male
1.35182 0.174785 -1.069391 -0.3011659 -0.6002939 0.7409091 5528418 male
1.314008 0.2747167 -1.302511 0.3479786 0.102214 0.9319137 11839924 male
1.749511 0.2734846 -1.237 0.5582288 -0.6817399 -0.4728756 526600 male
1.28824 0.09741982 -1.40477 -0.5397612 -0.5682712 -0.6210682 11051440 male
1.324818 0.03708186 -1.296173 -0.1979203 -0.9668176 0.161528 8291734 male
1.295746 0.6313032 -1.230307 0.9252533 0.1295855 0.3565303 11906226 male
1.544716 0.2039832 -1.282932 0.2106002 0.7504531 -0.6264724 6118761 male
1.539328 0.2961186 -0.8721455 0.7121575 0.6669946 -0.2189747 526600 male
1.246167 0.6227232 -1.169373 0.399211 -0.06171484 0.9147797 2169889 male
1.409358 0.3370908 -1.456082 0.977132 -0.02438996 -0.2112303 15392482 male
1.382519 0.1536415 -1.261348 -0.7626587 0.5830086 0.2800941 6514291 male
1.237206 0.0703315 -1.264534 -0.7654395 -0.6155579 0.1875924 6383730 male
1.37293 0.3049781 -1.028799 -0.4742222 -0.8382899 0.2690415 526600 male
1.564314 0.1046213 -1.27139 0.7290784 -0.5878498 -0.3505384 7766157 male
1.117088 0.4439703 -1.379276 -0.4902012 0.01755146 -0.8714326 6710127 male
1.625735 0.2577127 -0.7647749 0.573382 -0.8163758 -0.06901842 526344 male
1.301474 0.3185457 -1.302396 0.3781314 0.1167923 0.9183551 11451061 male
1.300758 0.5204231 -1.303884 0.8038887 -0.3594553 0.4738721 15714246 male
1.340172 0.2430968 -1.188255 0.170628 0.8314183 -0.5288001 6448758 male
1.704119 0.2186528 -0.8435041 -0.2040817 -0.3237489 0.9238709 526600 male
1.425909 0.4478115 -1.671854 -0.3988271 -0.761884 -0.5103624 12890292 male
1.700056 0.2056727 -1.084333 0.1939615 -0.9658682 -0.17169 526600 male
1.348123 0.3684158 -1.515707 0.1224574 -0.02851347 -0.9920641 11314612 male
1.238211 0.5047396 -1.421406 -0.3533662 0.6392329 -0.683018 15526645 male
1.169568 0.44809 -1.284995 0.2763795 0.3654627 0.8888483 10788524 male
1.553173 0.2178956 -1.26429 0.1150912 0.8682508 -0.4825914 6383477 male
1.146768 0.114596 -1.265806 0.5220616 -0.8471473 -0.09896006 11900305 male
1.267698 0.08968049 -1.378643 -0.5313196 -0.6341607 -0.5617292 9274774 male
1.673766 0.231086 -0.7925678 -0.597551 0.7936733 -0.1140853 526600 male
1.395272 0.3597865 -0.9365966 -0.6171004 0.1139447 0.7785909 526600 male
1.051374 0.3546543 -1.334978 -0.8407199 0.3256331 0.4326119 15182237 male
1.23469 0.5168127 -1.240655 -0.3388701 -0.8547907 0.3930646 12624022 male
1.407456 0.5546649 -1.475251 0.3791552 0.8359352 -0.3968043 16237510 male
1.292958 0.2178831 -1.218723 -0.3765688 0.8125163 -0.4449867 9213604 male
1.092561 0.3592886 -1.383854 0.05078205 -0.1694448 -0.9842305 12352891 male
1.638418 0.1707366 -1.228915 0.5563595 -0.7656704 -0.3228201 2895665 male
1.349877 0.3944893 -1.513977 0.1249295 0.006716372 -0.9921429 8749458 male
1.332832 0.5123903 -1.480523 -0.0839197 0.5203506 -0.8498192 11116977 male
1.503824 0.4629782 -1.649875 0.7936855 0.5599215 -0.237805 10848900 male
1.291488 0.6299169 -1.312612 0.7807578 0.4033606 -0.4771974 15583174 male
1.340587 0.1463643 -1.4629 0.1821989 -0.6057292 -0.7745293 7104628 male
1.153643 0.6254752 -1.249142 -0.9621838 -0.2624677 -0.07289082 13221316 male
1.701719 0.2781463 -1.235651 -0.6467703 -0.5996959 -0.4712251 526600 male
1.450511 0.5135393 -1.497507 0.8239759 0.4877975 0.2883005 14458002 male
1.370567 0.5094298 -1.449973 -0.1361271 -0.6225557 -0.7706451 526600 male
1.260612 0.265306 -1.47924 -0.7556691 -0.2425026 -0.6084052 12434125 male
1.406544 0.4203834 -1.41712 0.9964142 -0.08418163 0.008506477 986639 male
1.258624 0.1069473 -1.388637 -0.5512036 -0.5668851 -0.6122221 12564681 male
1.747453 0.1908925 -1.003667 0.9847923 -0.06356359 0.1616904 526600 male
1.240683 0.1361784 -1.183323 -0.8758736 0.02424469 0.4819311 3421245 male
1.433968 0.03505567 -1.337893 0.3913598 -0.75334 -0.5285038 3093305 male
1.11979 0.3599641 -1.353493 0.891312 -0.3991735 -0.2149965 853256 male
1.151721 0.6740109 -1.24841 -0.9637328 0.2666297 0.01129842 526600 male
1.404239 0.348922 -1.029044 0.1337192 -0.4226225 -0.8963868 526600 male
1.661097 0.2610844 -0.7499632 0.7041042 -0.7040002 -0.09284908 526600 male
1.363376 0.5227418 -1.367325 0.1619823 0.5308861 0.8318182 9999009 male
1.478204 0.05165387 -1.332224 0.6402625 -0.5874919 -0.494891 3093823 male
1.28029 0.1927005 -1.239997 -0.3774664 0.8320704 -0.406421 6251894 male
1.737388 0.1534825 -0.950189 -0.4160509 0.885083 0.2086379 526600 male
1.749078 0.3359288 -1.199368 0.1439524 0.6195886 0.7716138 526600 male
1.352432 0.0613535 -1.403802 -0.06195551 -0.7454818 -0.6636402 14475764 male
1.316469 0.06759029 -1.1736 0.04319751 -0.7036957 0.7091871 10791866 male
1.752331 0.1064431 -0.9163697 -0.6329252 -0.3601768 0.6853309 526600 male
1.415087 0.5737359 -1.422066 0.3616789 0.9305941 0.05641769 7762811 male
1.627161 0.2509165 -0.7357822 0.5416583 -0.8362766 0.0851337 526344 male
1.699063 0.2100934 -1.102166 0.09045576 -0.9666455 -0.2396127 526600 male
1.721431 0.1345619 -1.000879 0.05642331 -0.6113896 -0.7893156 526600 male
1.130656 0.3834805 -1.35418 0.8978972 -0.4026183 -0.1779861 133640 male
1.032237 0.1811864 -1.391672 0.3716285 -0.8039331 -0.4643101 6578790 male
1.339106 0.320628 -1.321761 0.4271644 0.2359143 0.8728545 14151634 male
1.232863 0.6821316 -1.182576 0.1761413 0.5429466 0.8210866 855053 male
1.261136 0.4913505 -1.314137 -0.246676 -0.7011006 0.6690358 14994891 male
1.362989 0.06450699 -1.406897 0.08062349 -0.7236504 -0.6854414 10726329 male
1.770468 0.2798613 -1.206295 0.8396434 -0.5126076 -0.179534 526600 male
1.272472 0.2142342 -1.280562 -0.0298657 0.917969 0.3955261 6841458 male
1.188547 0.1393227 -1.265329 0.03266785 -0.7952358 0.6054196 5257006 male
1.177101 0.6495233 -1.183226 -0.6646967 0.1818509 0.7246438 2960173 male
1.437173 0.3778436 -0.9334289 0.2620949 0.7350391 0.6253189 526600 male
1.223273 0.09018818 -1.32781 -0.7067469 -0.6494039 -0.2806839 12041164 male
1.009498 0.2778986 -1.415822 -0.7573252 -0.01447583 -0.6528774 16501184 male
1.100007 0.4176723 -1.300375 -0.4020044 -0.2304299 0.8861684 11050656 male
1.437525 0.3559354 -0.9154176 -0.1153941 0.4564924 0.8822125 526600 male
1.526395 0.2141405 -1.271751 -0.07721938 0.9082353 -0.4112735 7042179 male
1.34203 0.2439086 -1.048794 -0.7268474 -0.1103682 0.6778729 3816000 male
1.395565 0.4018002 -1.002587 0.07615718 0.8463267 0.5271918 526600 male
1.188966 0.6257657 -1.171827 -0.5153541 -0.03918042 0.8560812 526600 male
1.222267 0.09888944 -1.25751 -0.8798455 -0.3194118 0.3519204 2699064 male
1.300099 0.5497344 -1.424054 -0.1853223 0.8589594 -0.4773304 9933728 male
1.078204 0.3944342 -1.317425 -0.6484908 0.1820317 0.7391374 15649229 male
1.706785 0.3304145 -1.154528 -0.05854094 0.8766869 0.4774862 526600 male
1.626236 0.3238258 -1.593603 0.6216599 0.7235445 -0.3000372 16566472 male
1.155485 0.3290441 -1.363575 -0.8521363 -0.4050783 0.3313237 7433332 male
1.744033 0.1993926 -1.01004 0.9637397 0.1019876 0.2465855 526600 male
1.308262 0.1590759 -1.098618 -0.5679337 -0.3268245 0.7554052 5394778 male
1.726873 0.338527 -1.182623 0.04208198 0.8095343 0.5855623 526600 male
1.175444 0.5830502 -1.213091 -0.8229537 -0.4978943 0.2735845 10518658 male
1.150477 0.401807 -1.338345 -0.01054659 -0.9493966 0.3139025 526600 male
1.444438 0.1197297 -1.192238 -0.4608811 0.1332817 0.8773965 2894383 male
1.254525 0.4437407 -1.290562 0.1803794 0.1764821 0.9676349 12565201 male
1.762877 0.2650978 -1.188872 0.7771353 -0.6115637 -0.1484945 526600 male
1.75153 0.1177017 -0.9742485 0.2897121 -0.7770022 -0.558869 526600 male
1.075497 0.4068016 -1.323974 -0.8218174 0.1973849 0.5344673 13414062 male
1.412116 0.3967853 -0.948685 0.01803467 0.6999323 0.7139814 526600 male
1.530955 0.4309784 -1.618257 0.7797941 0.6249214 -0.03734255 11310224 male
1.345515 0.3746664 -1.324357 0.1206189 -0.1659762 0.9787252 13683153 male
1.721315 0.190989 -1.033722 0.6607254 -0.7438202 -0.1008638 526600 male
1.293926 0.5272748 -1.453134 -0.3342243 0.7009607 -0.6300383 10064034 male
1.277252 0.6990739 -1.258935 0.7721682 0.6314537 -0.0708701 7104361 male
1.085406 0.4411865 -1.356635 -0.8091165 0.3401369 -0.4792049 6973043 male
1.259598 0.6947841 -1.208324 0.5266799 0.6220278 0.5793873 2828843 male
1.301156 0.6004351 -1.230471 0.926203 0.05617546 0.3728167 15513519 male
1.3894 0.2638872 -1.043478 0.2192131 -0.941166 0.2572009 5066836 male
1.371066 0.3441446 -1.007369 -0.7661974 -0.5804298 -0.2757588 526600 male
1.252809 0.262947 -1.296877 -0.1091142 -0.04049878 0.9932039 8749965 male
1.222747 0.424307 -1.465883 -0.2159128 0.3259222 -0.920411 12236232 male
1.326263 0.08674502 -1.146418 -0.01438498 -0.6930183 0.7207764 5395034 male
1.447618 0.09149282 -1.375847 0.7082155 -0.1218272 -0.6954056 5131342 male
1.174966 0.7033503 -1.28047 -0.656548 0.6521699 -0.3789711 526344 male
1.253603 0.5288914 -1.197886 0.4306093 -0.3707244 0.8228846 14396330 male
1.49253 0.1960576 -1.219806 -0.4750779 0.7939159 0.3794716 4473932 male
1.397671 0.1914433 -1.407045 0.6993246 0.6325 -0.3329999 7959425 male
-2.516548 0.3678149 -1.442598 0.8501299 -0.4998958 -0.1654801 5065029 male
-2.590953 0.04920845 -1.394227 -0.2925258 -0.04348065 -0.9552687 2434859 male
-2.706053 -0.006741026 -1.40484 0.4192425 -0.05480376 -0.9062189 4343114 male
-2.563665 0.1159176 -1.248381 0.4136038 -0.2210512 0.8832149 2302507 male
-2.53166 0.3548237 -1.460307 0.7323003 -0.5896099 -0.3407295 5788496 male
-2.757179 -0.1873342 -1.382895 -0.4023459 -0.005506702 -0.9154713 2566703 male
-2.526489 0.5625046 -1.586416 0.511759 0.1864854 -0.8386455 5657162 male
-2.540842 0.4177665 -1.544622 0.1603191 -0.6915853 -0.7042781 10457469 male
-2.572569 0.6699446 -1.741694 -0.6983588 -0.2075519 -0.6849945 15848904 male
-2.679603 0.04879533 -1.363607 0.9636214 -0.07392019 -0.256846 2566444 male
-2.530479 -0.3691629 -1.392829 -0.4429834 0.3387798 -0.8300568 1776929 male
-2.561077 0.7255131 -1.76346 -0.5444697 0.0776328 -0.8351803 5195076 male
-2.750253 0.3824017 -1.441047 -0.9616705 -0.0001380832 -0.2742084 3617327 male
-2.584739 0.3505722 -1.510217 0.2628538 -0.5707272 -0.7779321 7892841 male
-2.611145 0.3419806 -1.272905 0.0005452782 0.6889011 0.7248552 9472128 male
-2.607069 -0.09823921 -1.308996 -0.7484623 -0.1685222 0.6414084 2697257 male
-2.771858 0.006983856 -1.306531 -0.7727363 -0.2436505 0.5861001 2235940 male
-2.455201 0.5322351 -1.540564 0.1970581 -0.9420739 -0.2714129 6051924 male
-2.520038 -0.4451632 -1.422488 -0.6342716 -0.7209409 -0.2791843 2500134 male
-2.466424 0.5033128 -1.503711 0.6958238 -0.6220579 0.3589892 3815731 male
-2.561057 0.5634245 -1.640059 0.1348241 -0.8376607 -0.5292892 16774895 male
-2.653032 0.1246503 -1.357168 -0.7891158 -0.1158055 -0.6032293 1974566 male
-2.63139 -0.4568796 -1.485689 0.9566231 -0.2911688 -0.009653807 2631976 male
-2.480939 0.3775319 -1.817379 0.4524001 0.5227804 0.72252 16376023 male
-2.706931 -0.2038148 -1.363345 0.7147481 0.006161617 -0.699355 2237482 male
-2.688361 0.6030367 -1.516032 -0.3728876 0.846269 0.3805044 9932935 male
-2.588516 0.5846172 -1.435221 -0.4207936 0.6440907 0.6388115 9471874 male
-2.49086 0.4972465 -1.411936 0.7055673 -0.01920479 0.7083828 4603965 male
-2.707913 0.04927482 -1.409264 0.5329949 -0.07368418 -0.8429041 3686215 male
-2.363647 0.5037479 -1.551138 0.8124951 0.1173357 0.5710379 7827567 male
-2.666767 0.2816736 -1.241658 -0.2036949 0.3300315 0.9217309 9735305 male
-2.602994 0.5573985 -1.617363 0.178452 -0.05027628 -0.9826635 6774107 male
-2.516566 -0.211664 -1.301857 0.8997323 -0.03749371 0.4348289 2303268 male
-2.431144 0.5263531 -1.588991 -0.5520133 -0.03360942 -0.8331579 7236453 male
-2.507658 0.5844871 -1.709117 0.1216349 -0.9568732 0.2638153 12170409 male
-2.739617 0.520474 -1.604483 -0.8507031 -0.5161011 0.0997209 5131597 male
-2.575259 0.1989264 -1.381735 0.3089019 0.2459189 -0.9187513 2829617 male
-2.542919 -0.01405011 -1.303497 0.836597 -0.1228451 0.533868 1908261 male
-2.77495 -0.08766831 -1.353371 -0.9616074 -0.02869255 -0.2729252 2499878 male
-2.702984 0.5943025 -1.5146 -0.4764588 0.8109904 0.3395314 10459794 male
-2.638865 0.5719488 -1.450142 -0.1851323 0.6927865 0.6969742 8946300 male
-2.536148 0.3754069 -1.820365 -0.4767163 0.7535751 -0.4526213 15717309 male
-2.582833 0.7525975 -1.738333 -0.7354345 0.3206967 -0.5969002 3222825 male
-2.747543 0.2617548 -1.250122 -0.4627798 0.2215123 0.8583516 11116701 male
-2.464961 0.7487064 -1.678425 0.9486514 0.2876794 0.1315349 3947060 male
-2.719621 -0.07145252 -1.407426 0.2460019 -0.1997879 -0.9484556 4145994 male
-2.629078 0.5194654 -1.6847 0.7573949 0.6050488 -0.2454979 8025714 male
-2.818865 0.128912 -1.340078 -0.9935567 -0.1111833 -0.02199364 1972767 male
-2.702002 0.2939877 -1.251949 -0.1160748 0.4360436 0.8924085 9012089 male
-2.729535 0.4423727 -1.524893 -0.7998961 -0.2797876 -0.5309288 3946035 male
-2.641381 0.2999858 -1.24438 -0.131935 0.4878803 0.8628826 9010552 male
-2.694714 0.008858449 -1.396483 0.7170845 -0.02541669 -0.6965227 3487807 male
-2.524024 0.2195558 -1.296677 0.9573618 0.1029911 0.26991 2303014 male
-2.667802 0.2914012 -1.463096 -0.225621 -0.6358616 -0.738089 6511451 male
-2.325591 0.3557223 -1.607687 -0.9897728 0.08969969 -0.1109233 16377825 male
-2.479092 0.7763138 -1.679947 0.7704502 0.6362334 0.04017058 3354670 male
-2.608437 -0.1200859 -1.31937 -0.923218 -0.1502014 0.3537067 2170913 male
-2.550313 0.642271 -1.538396 -0.06171856 0.9852982 0.1593059 9341058 male
-2.69184 0.6188501 -1.590055 -0.4872548 0.8152589 -0.3129469 4933187 male
-2.796676 0.1484562 -1.281936 -0.7537744 -0.2368374 0.6129705 3092022 male
-2.525202 0.2066994 -1.289302 0.9372857 0.08806132 0.3372551 2699056 male
-2.739208 -0.398279 -1.354792 0.9498606 0.1591702 0.2691286 1777186 male
-2.785577 -0.1916961 -1.335455 -0.9966931 -0.07788079 -0.02319163 1973534 male
-2.535801 0.5455409 -1.594582 0.4688024 -0.07703035 -0.879938 8024170 male
-2.636054 -0.03292419 -1.328418 -0.9904062 -0.1290504 0.04941547 2301475 male
-2.776169 -0.4583418 -1.339954 0.2267944 -0.9703024 0.08412783 789004 male
-2.662432 0.5511558 -1.701247 0.5111772 0.323852 -0.7961268 6971481 male
-2.530673 -0.4451858 -1.391508 -0.6509847 -0.6347243 -0.4163463 591625 male
-2.754653 -0.3664463 -1.321477 -0.6056837 -0.2687113 0.7489605 3026994 male
-2.793642 -0.4400809 -1.366943 -0.9773878 0.05595928 0.203917 2171169 male
-2.32206 0.3853319 -1.595137 -0.8328394 0.5005915 -0.2361923 16374736 male
-2.301824 0.3984416 -1.761575 -0.147505 0.9504632 0.2736093 16310481 male
-2.473301 0.47574 -1.536648 0.7629291 -0.4867766 -0.4254267 5657938 male
-2.540292 0.7710399 -1.754448 -0.2034291 0.6453311 -0.7363183 15590106 male
-2.624861 0.4420978 -1.592491 0.270637 -0.5292128 -0.8041703 15716005 male
-2.741086 0.3504299 -1.450403 -0.773795 -0.2026241 -0.6001542 3486255 male
-2.778196 -0.2325278 -1.351374 -0.9384897 -0.2021471 -0.2799534 1908256 male
-2.569057 0.2395551 -1.376786 0.4710807 0.06261054 -0.8798654 9407880 male
-2.334579 0.4679811 -1.614606 0.4392329 0.7932489 -0.4216999 16636876 male
-2.566703 0.6377504 -1.569959 -0.1036521 0.8974578 0.4287492 5262149 male
-2.523038 -0.2614476 -1.362817 0.6762162 -0.04956931 -0.7350339 2303017 male
-2.548608 0.4644423 -1.370765 0.3367568 0.2632798 0.9040348 5460555 male
-2.258855 0.3652003 -1.67191 0.991901 0.07767931 -0.1004918 16772328 male
-2.396536 0.5846377 -1.550862 0.7938315 0.6060424 -0.05044162 10392461 male
-2.517054 -0.2703043 -1.355186 0.8789227 -0.04279238 -0.475041 2630697 male
-2.678165 0.06477426 -1.368353 0.9420521 -0.08373017 -0.3248498 2828590 male
-2.532247 -0.09935035 -1.330271 0.9859294 0.1654669 0.02375567 2697257 male
-2.535941 -0.02110871 -1.356779 0.9126781 -0.2332662 -0.3355681 3224378 male
-2.507095 0.764833 -1.757886 0.3230388 0.6047798 -0.7279336 7168860 male
-2.585272 0.230749 -1.230343 0.4828257 0.0875231 0.8713319 2829875 male
-2.69855 -0.4639154 -1.457064 -0.7420982 -0.670129 0.01474887 264457 male
-2.378749 0.5433629 -1.54062 0.8639957 0.2344539 0.4455817 10130314 male
-2.679015 -0.0287258 -1.34856 0.9928489 -0.05116063 -0.1078612 2368805 male
-2.403697 0.3862336 -1.913185 -0.6306334 0.02032886 -0.7758148 16045517 male
-2.709825 0.3173236 -1.459354 -0.5083275 -0.4270221 -0.7478338 5657678 male
-2.701663 0.007531587 -1.402101 0.5604069 -0.04833241 -0.8268061 3948873 male
-2.52891 -0.004236166 -1.337257 0.9672827 -0.2433925 0.07158643 2696746 male
-2.749192 -0.146939 -1.289022 -0.2458392 0.1877074 0.9509622 2763824 male
-2.463911 0.7357703 -1.717567 0.9456825 0.2101511 -0.2480354 6314583 male
-2.533458 -0.1402985 -1.293296 0.730212 0.2725221 0.6265161 2104610 male
-2.694379 0.02753791 -1.29677 0.6773838 -0.1655584 0.7167579 2302499 male
-2.454216 0.6054965 -1.552044 0.2447592 0.9018918 -0.355927 6906977 male
-2.756566 -0.2040436 -1.289473 -0.4117996 -0.1588518 0.8973224 3224117 male
-2.766708 -0.3934792 -1.389036 -0.7822036 0.3460915 -0.5180526 2500646 male
-2.417081 0.5890581 -1.513144 0.6201074 0.6948417 0.3642279 9866373 male
-2.570225 -0.3236848 -1.337132 -0.9653038 -0.2207311 -0.139522 1973022 male
-2.57443 0.3382648 -1.71663 0.6155284 -0.06370499 0.7855359 14599101 male
-2.574733 0.4514274 -1.566456 0.1360081 -0.5981243 -0.7897781 16704948 male
-2.695862 -0.02935719 -1.396323 0.7057977 -0.0613556 -0.7057517 3158072 male
-2.722623 0.3822897 -1.337784 -0.454392 0.4826333 0.7487277 6840666 male
-2.605107 0.7637897 -1.670302 -0.9252336 0.3756046 0.05351835 5327945 male
-2.43626 0.5628209 -1.586811 -0.06126276 -0.1955302 -0.9787825 4342073 male
-2.596556 0.7676655 -1.702201 -0.8201138 0.4721298 -0.3232754 5196100 male
-2.587037 0.6940877 -1.726703 -0.8694974 -0.2169833 -0.4437262 6314326 male
-2.554154 0.01321481 -1.283278 0.6458422 -0.2050453 0.7354213 2367780 male
-2.52706 -0.1200837 -1.330518 0.9713032 0.2377818 -0.00549686 2104611 male
-2.507229 0.3872541 -1.419347 0.9204744 -0.3280317 0.2124201 3553590 male
-2.631208 0.4705724 -1.374787 -0.42213 0.5133504 0.7471799 8353393 male
-2.514664 0.08788023 -1.31891 0.9784189 -0.07256566 0.1934705 2170145 male
-2.80425 0.176429 -1.290912 -0.9068493 -0.09296407 0.4110746 3222578 male
-2.549476 0.7428335 -1.600141 -0.1900842 0.2620907 0.9461377 6313295 male
-2.559073 0.6129931 -1.718966 -0.6999556 -0.6222835 -0.3504649 14469564 male
-2.681942 0.1549981 -1.382877 0.7815468 -0.05405197 -0.6215007 3026482 male
-2.692406 0.2287154 -1.415344 -0.2155331 -0.1535702 -0.9643454 9604234 male
-2.749693 -0.4569739 -1.403882 0.4429939 -0.8962873 -0.0206283 592137 male
-2.617866 0.3400316 -1.736439 -0.581102 -0.8138296 0.00138855 15847368 male
