# .PCD v0.7 - Point Cloud Data file format
VERSION 0.7
FIELDS x y z normal_x normal_y normal_z rgb label
SIZE 4 4 4 4 4 4 4 4
TYPE F F F F F F U U
COUNT 1 1 1 1 1 1 1 1
WIDTH 246
HEIGHT 1
VIEWPOINT 0 0 0 1 0 0 0
POINTS 246
DATA ascii
1.478145 1.035981 -0.7182538 0.02487594 -0.2189717 0.975414 9867425 male
1.458829 0.6350249 -0.8011073 0.9430712 -0.3308086 -0.03438285 2105380 male
1.578707 0.4804863 -0.9031877 -0.0691452 -0.2929043 0.9536383 526600 male
1.377227 0.7944825 -0.736053 -0.843995 -0.0175718 0.536063 4804440 male
1.488126 0.9954014 -0.7231753 0.2717212 -0.007394716 0.9623476 10130595 male
1.635866 0.5071567 -0.9543884 0.9317589 0.007028324 -0.3630094 526600 male
1.533939 1.294844 -0.7068323 0.7014353 0.2099414 0.6811117 15985299 male
1.477585 1.334275 -0.6854719 0.4266071 0.3555405 0.8316233 14801129 male
1.636924 1.490518 -0.7442227 0.9842646 -0.1441242 -0.1022319 15119786 male
1.614264 0.795339 -0.8215619 0.5169804 -0.1231084 0.8470984 9344682 male
1.326103 0.4068359 -0.8111264 -0.9925015 -0.08600711 0.08685273 526600 male
1.645091 1.57008 -0.7113888 0.9438239 0.3001497 0.1382266 10392210 male
1.538452 1.136756 -0.9168104 0.13911 -0.2218552 -0.9651055 7236472 male
1.544984 1.117905 -0.7221972 0.5779027 -0.07750767 0.8124168 9999015 male
1.365097 0.9535972 -0.8231961 -0.9958662 0.08686107 -0.0265629 3883596 male
1.372792 0.7177303 -0.8147975 -0.926837 -0.006635292 -0.3754053 7896969 male
1.535905 0.7484133 -0.9416697 -0.475246 -0.09563711 -0.8746397 10461623 male
1.415147 1.324796 -0.7130778 0.8883133 -0.3876826 -0.2461739 790028 male
1.36338 0.2402431 -0.7519138 -0.01074987 -0.9997936 -0.01723737 526600 male
1.474661 1.243699 -0.6808048 -0.1069003 -0.4284635 0.897213 9538457 male
1.546793 1.408154 -0.7304029 -0.1124366 -0.6219345 0.7749552 11442069 male
1.465573 0.8318607 -0.7020967 0.3731873 -0.01853782 0.9275707 9937071 male
1.713566 0.2648054 -0.8721446 0.005076652 -0.9999542 0.008109117 526600 male
1.63809 1.071167 -0.9337311 -0.5272187 -0.334337 0.7811908 16642292 male
1.6332 0.3460667 -0.9422345 0.9013 0.3342859 0.2755203 526600 male
1.468485 1.286522 -0.9027828 -0.7238532 0.1476552 -0.6739693 11906758 male
1.433346 1.369728 -0.8355632 -0.4692503 0.4938191 -0.7320839 15000053 male
1.454355 1.193347 -0.6935897 -0.1919372 -0.07152629 0.9787973 8223621 male
1.542368 0.6262766 -0.8697754 -0.6350341 -0.3549849 0.6860886 4473159 male
1.340279 1.31899 -0.7156996 -0.9948004 0.09988049 -0.01990235 15843003 male
1.370432 0.9163875 -0.8544771 -0.9123395 -0.04747365 -0.4066728 2369068 male
1.603105 1.349289 -0.8047021 0.7484686 0.4514956 0.4857432 12037823 male
1.380416 0.4771764 -0.7657704 0.4531271 -0.1571865 0.8774784 526600 male
1.354575 1.321568 -0.685734 -0.5720475 0.1245664 0.8107064 12953770 male
1.563428 1.413172 -0.6959769 -0.5436609 -0.6804182 0.4913898 10060158 male
1.645649 1.341597 -0.9335548 0.8606759 0.009319318 -0.509068 7368827 male
1.369207 0.8300297 -0.753632 -0.9364827 0.003372155 0.3506975 3355964 male
1.366994 0.6117699 -0.8265378 -0.7181698 0.349023 -0.6020092 526600 male
1.633181 0.6148602 -0.8788642 0.909036 -0.2711557 0.3164302 526600 male
1.475143 1.310143 -0.9044603 -0.7314063 0.2251944 -0.6436864 15526648 male
1.48185 1.110635 -0.9036431 -0.5504521 -0.1484503 -0.8215626 10262699 male
1.685907 1.077431 -0.9633687 0.8824695 0.2261159 -0.4124551 15054774 male
1.574997 1.525644 -0.8194213 0.2601135 -0.13007 -0.9567772 10721690 male
1.535603 0.9360557 -0.9574339 0.1362998 0.1651117 -0.9768113 6514293 male
1.529354 1.562762 -0.6798419 -0.6197491 0.1441899 0.7714404 11314087 male
1.631813 0.5732814 -0.9047832 0.9367123 -0.1613691 0.3106928 526600 male
1.651661 1.278805 -0.9180692 0.9719962 0.2221038 0.07676727 14393241 male
1.628675 0.7986849 -0.9183918 0.7970692 0.04259771 -0.6023836 6185839 male
1.528059 0.975569 -0.9551553 0.1535691 0.1328257 -0.97917 8553617 male
1.611763 1.232455 -0.862888 0.9556547 -0.09528005 -0.2786499 526344 male
1.430597 1.02849 -0.8844236 -0.5767954 0.458396 -0.676151 12564681 male
1.576354 0.6881841 -0.8354748 -0.16424 -0.2438397 0.9558072 5527907 male
1.424011 0.9244945 -0.7090092 -0.1976482 0.1574357 0.967548 5526364 male
1.615389 0.9898355 -0.8658932 0.9661165 0.1676895 0.1962115 7961217 male
1.348851 1.140808 -0.7147292 0.9976807 0.05919421 0.03360355 14336712 male
1.526462 1.60892 -0.7081709 -0.5739695 0.6332541 0.5191803 526600 male
1.433123 0.6168138 -0.8339304 0.3715172 -0.2254389 -0.9006399 526601 male
1.474389 1.411523 -0.8222885 -0.3437422 0.743423 -0.5737278 16248831 male
1.549192 1.393247 -0.8983807 -0.04443693 0.7106594 -0.7021314 11249847 male
1.538475 0.8972237 -0.9608547 0.08773464 -0.04742993 -0.9950141 9409952 male
1.379077 0.9078502 -0.7469047 -0.8748659 0.1303623 0.4664927 3092536 male
1.603023 0.2965317 -0.9383339 -0.819408 -0.1110549 0.5623499 526600 male
1.614002 0.5136451 -0.9797909 0.5540398 0.05340654 -0.8307754 526600 male
1.52888 1.290725 -0.7009332 0.6759463 0.1980825 0.7098309 14668924 male
1.456827 0.6877995 -0.8308873 0.6831527 -0.1488218 -0.7149507 3487804 male
1.664238 0.283418 -0.9776734 0.4557405 0.1477866 -0.8777583 526600 male
1.646683 1.334175 -0.8893863 0.7947615 -0.2654273 0.5458044 14406883 male
1.349309 0.2433599 -0.7675596 0.0181648 -0.9998157 -0.006220392 526600 male
1.583491 0.4428241 -0.9151289 -0.1293622 -0.3037175 0.9439392 526600 male
1.579222 0.3269221 -0.9986955 0.3533503 0.3849101 -0.8526357 526600 male
1.342667 1.199569 -0.7019523 0.8628049 0.2094909 0.4600882 14002865 male
1.304607 1.071224 -0.7008924 -0.7047548 -0.5195284 -0.4831261 16701149 male
1.413845 1.276275 -0.7084268 -0.2955978 -0.3926875 0.8708723 526600 male
1.635478 1.589677 -0.7113277 0.8180466 0.5453708 0.1826755 526600 male
1.598399 1.280972 -0.7668695 0.6341204 0.1558161 0.7573721 15780594 male
1.539207 1.265466 -0.7075889 0.7769417 0.0457186 0.6279104 16249328 male
1.540672 0.5544363 -0.9552569 -0.8869524 0.1756148 -0.427171 526600 male
1.397822 1.032537 -0.746155 -0.6558171 0.4114651 0.63293 8683661 male
1.350603 1.291214 -0.6817889 -0.567493 0.2336429 0.7895333 16235189 male
1.497144 1.45502 -0.8079188 -0.5959951 0.4938082 -0.6332008 15643044 male
1.396461 0.4283078 -0.8033615 0.9169032 -0.2551163 0.3069268 526600 male
1.394665 1.04144 -0.8399409 -0.6619488 0.5666269 -0.4906705 10525357 male
1.309356 1.061988 -0.6571776 -0.7628819 0.1030089 0.6382792 14070453 male
1.403935 1.37091 -0.6630133 0.1276096 0.4106028 0.9028406 9867423 male
1.398038 0.4422536 -0.7993766 0.9008917 -0.2295282 0.3683897 526600 male
1.55032 0.7993311 -0.8124874 -0.1705782 -0.2497288 0.9531729 6052710 male
1.330812 0.525088 -0.7911271 -0.8905335 0.1623089 0.4249775 526600 male
1.455634 0.6356558 -0.7647501 0.8681531 -0.3721813 0.3283159 3619136 male
1.647747 1.550179 -0.7036949 0.9721217 0.08477081 0.2186167 12685963 male
1.376573 1.02263 -0.7732691 -0.8891829 0.3341682 0.3125466 5395547 male
1.49847 1.415787 -0.8380504 -0.4228982 0.794361 -0.4360593 13683681 male
1.352949 1.359811 -0.7437878 -0.7713342 0.06589857 -0.6330094 9803429 male
1.573515 0.7546442 -0.8213576 -0.0814957 -0.2463125 0.965758 5067098 male
1.7278 0.9214985 -0.9695755 -0.6117933 -0.1608321 0.7744946 1051664 male
1.552808 1.112783 -0.7291651 0.6260613 -0.08587016 0.7750312 12564943 male
1.571012 0.6973068 -0.8346642 -0.2199908 -0.2289664 0.9482501 5197661 male
1.380748 0.5563933 -0.7587516 -0.1653373 -0.07352379 0.9834926 526600 male
1.613305 0.4921737 -0.9808074 0.5415114 -0.008346672 -0.840652 526600 male
1.550875 1.593921 -0.6802887 -0.3044482 0.53091 0.7908514 1841948 male
1.328488 0.5292268 -0.8301043 -0.914309 0.2129201 -0.3445346 526600 male
1.535959 0.6903149 -0.9270333 -0.7787465 -0.1124072 -0.6171858 592137 male
1.460479 1.29628 -0.6713584 0.02489281 -0.2025931 0.9789464 9670043 male
1.543177 0.5328125 -0.9623999 -0.85435 0.0392359 -0.5182149 526600 male
1.622535 0.3235327 -0.9876447 0.5576701 0.1036367 -0.8235676 526600 male
1.389667 1.37616 -0.6667604 -0.1410687 0.5415416 0.8287535 10657452 male
1.411319 0.4737426 -0.8281417 0.9474144 -0.2376607 -0.214297 526600 male
1.592416 1.155123 -0.9344348 -0.6838678 -0.2549029 0.6836295 11052973 male
1.552178 1.282568 -0.7271544 0.8265164 0.03945517 0.561528 15328661 male
1.595824 0.7170424 -0.8300683 0.241067 -0.2326982 0.9421986 198411 male
1.511902 1.02574 -0.9414106 -0.1933637 0.4466366 -0.8735709 7696765 male
1.599224 1.60048 -0.7998746 0.4862265 0.5079211 -0.7110555 4802633 male
1.420373 1.333779 -0.7043938 0.1506919 -0.9381105 0.3118344 526345 male
1.617323 1.607484 -0.7656373 0.6934904 0.6605449 -0.2876657 5262410 male
1.633996 1.523573 -0.7648191 0.8633949 -0.1571226 -0.4794388 10653330 male
1.44702 0.6626777 -0.8349432 0.5387535 -0.1094247 -0.8353269 2171943 male
1.335446 0.4877758 -0.7792992 -0.7715698 -0.002470715 0.6361399 526600 male
1.456514 1.022998 -0.7210753 -0.03216982 0.08533678 0.9958326 5919581 male
1.413276 1.274319 -0.8545057 -0.6019242 0.06105174 -0.7962159 15724543 male
1.374373 0.6145403 -0.7665001 -0.6950219 0.0738733 0.7151834 1118998 male
1.501754 0.8514825 -0.9391241 -0.5168854 -0.3760861 -0.7690181 6250863 male
1.51505 1.614585 -0.7560609 -0.6890527 0.7182997 -0.09618664 526344 male
1.605217 1.447351 -0.7713926 0.5698257 -0.5309433 -0.6272143 13611950 male
1.632413 0.8572035 -0.8385677 0.8856745 0.1289688 0.4460354 4276556 male
-2.683674 0.3778622 -1.339106 0.4564291 -0.09968818 -0.8841579 6839644 male
-2.615684 0.01565443 -1.323286 -0.7669197 -0.4494911 -0.4580308 2697257 male
-2.754061 0.03888309 -1.305599 0.8046582 -0.01351821 -0.5935847 2829615 male
-2.543859 0.1183441 -1.268297 0.9363413 0.1966765 0.2908326 2631464 male
-2.685646 0.4153809 -1.342238 0.4109634 -0.06457052 -0.9093624 6708574 male
-2.825152 -0.0981369 -1.239603 -0.1816613 0.4902709 0.8524282 3157809 male
-2.842303 0.3870264 -1.267491 -0.9486214 -0.07773229 -0.3067173 3289393 male
-2.665855 0.551052 -1.351175 -0.04523447 -0.1647468 -0.9852983 7761003 male
-2.677583 0.8836082 -1.319324 -0.7946295 0.3947681 -0.4612184 9799549 male
-2.825783 0.1168961 -1.327308 -0.3236648 0.01775173 -0.9460055 4145739 male
-2.388627 -0.228996 -1.310827 0.9109374 0.1803681 -0.3710265 2105894 male
-2.652792 0.9162834 -1.325208 -0.5398768 0.5804023 -0.6096445 9732475 male
-2.841169 0.4672605 -1.212911 -0.9268925 -0.1582506 0.3403343 4144959 male
-2.747822 0.3745931 -1.343265 0.04110232 -0.04382319 -0.9981936 7762030 male
-2.643342 0.3660437 -1.181456 0.4086486 0.5154781 0.7531859 8156785 male
-2.557997 0.0405231 -1.243315 0.4506395 -0.044038 0.8916193 2632495 male
-2.840182 0.04981859 -1.220633 -0.7551919 -0.2706649 0.5970142 2829361 male
-2.530609 0.5558293 -1.364305 -0.6739144 0.4172928 -0.6096772 16640995 male
-2.335227 -0.4142963 -1.392538 0.3315336 -0.9280822 0.1695555 526344 male
-2.577669 0.5767508 -1.302229 0.5561713 -0.7491075 -0.3598769 3815731 male
-2.648455 0.7430983 -1.322671 0.4558343 -0.5579525 -0.6934727 14469307 male
-2.64345 0.175487 -1.3442 -0.1883023 0.1007996 -0.9769247 3158585 male
-2.747244 -0.392989 -1.268114 0.9321756 0.3573948 -0.05760187 1907997 male
-3.02152 0.6555988 -1.351843 0.9186468 -0.2605883 -0.2969546 16375770 male
-2.791681 -0.2409342 -1.276631 0.5250521 -0.2719439 -0.8064533 2697257 male
-2.677075 0.6810135 -1.18103 0.2690239 0.3710117 0.8888063 9207928 male
-2.670252 0.5647356 -1.155774 0.004510045 -0.07726151 0.9970008 7957353 male
-2.58842 0.5022774 -1.223343 0.8412815 -0.437466 0.3175992 4933187 male
-2.755563 -0.0421942 -1.306993 0.8361094 -0.1600372 -0.5246995 2631464 male
-2.487469 0.595341 -1.308574 0.9420127 0.3102846 -0.1278116 10722963 male
-2.640163 0.201263 -1.15592 0.4111177 -0.2723107 0.8699594 4079684 male
-2.69711 0.6904765 -1.305578 -0.03931287 0.2437105 -0.9690511 9076858 male
-2.436168 -0.1400579 -1.336338 0.6525387 0.05981285 -0.7553912 2303275 male
-2.490008 0.6247722 -1.272115 0.9848874 0.1690457 0.03769016 12694440 male
-2.61815 0.7587125 -1.34079 0.4613522 -0.8676129 -0.1854779 12366244 male
-2.868399 0.7419812 -1.217888 -0.6296463 0.7699012 0.1039127 6643031 male
-2.56381 0.1819868 -1.259641 0.9388898 0.2860688 0.1914439 2105892 male
-2.508297 0.01033123 -1.305222 0.8767413 0.4677516 0.1119535 2301988 male
-2.851664 -0.08932386 -1.299891 -0.9815649 -0.0507234 -0.184276 2434605 male
-2.708249 0.6579874 -1.15976 0.4020452 0.1998821 0.8935363 7105124 male
-2.83851 0.4486377 -1.275982 -0.9044951 -0.02897148 -0.4254991 4406587 male
-3.072148 0.660336 -1.320945 -0.7983769 0.521531 0.3009983 16773610 male
-2.663754 0.9284415 -1.299641 -0.6116098 0.6691442 -0.4221132 8090995 male
-2.73017 0.2043464 -1.142018 0.4179697 -0.5563415 0.7181823 5067349 male
-2.551222 0.8636125 -1.255777 0.9616736 -0.21548 0.1695663 3947060 male
-2.775416 -0.05496832 -1.326681 0.7601502 -0.2754266 -0.5884829 2697257 male
-2.915769 0.7012209 -1.281087 -0.02159762 0.8117771 -0.583568 15716544 male
-2.858929 0.133888 -1.210716 -0.8443516 -0.1830346 0.5035563 2170657 male
-2.783145 0.2530113 -1.129022 -0.2367431 -0.01370895 0.9714758 9668742 male
-2.830637 0.6617017 -1.262018 -0.8093874 -0.4681365 -0.3545992 6510931 male
-2.662741 0.2521475 -1.138605 0.2004482 -0.05714401 0.9780365 11183010 male
-2.767576 -0.2217237 -1.243029 0.9896992 -0.07793453 0.1200909 1841436 male
-2.599384 0.2789298 -1.254366 0.9425012 0.3302558 0.05121583 4013626 male
-2.780675 0.366268 -1.332856 -0.5211917 -0.1967536 -0.8304502 5788494 male
-2.51245 0.4333265 -1.421058 -0.9421616 0.2387325 0.2352418 16506842 male
-2.560098 0.8996183 -1.223549 0.8723885 0.2023584 0.4449602 4340793 male
-2.575622 -0.01412511 -1.273145 -0.3360204 -0.3742476 0.8643086 2369066 male
-2.60681 0.7071572 -1.248722 0.7279569 0.5735552 -0.3756506 4933187 male
-2.753621 0.7315638 -1.238313 -0.09978639 0.8859181 -0.4529812 3749425 male
-2.794466 0.1380569 -1.167414 -0.1003246 -0.4022569 0.9100135 3158835 male
-2.609516 0.2694472 -1.299904 0.6558766 0.4401569 -0.6132602 2105891 male
-2.774182 -0.3911604 -1.180643 0.9865974 -0.05306247 0.1543063 2698029 male
-2.853511 -0.1544815 -1.239757 -0.8434491 0.04224241 0.5355458 2697257 male
-2.656436 0.6523914 -1.322992 0.06476748 0.4244936 -0.9031116 8748149 male
-2.686903 0.1808656 -1.161454 -0.2216876 -0.8057807 0.5491558 2303274 male
-2.812763 -0.4180056 -1.227491 0.06925793 -0.9762974 0.2050533 591113 male
-2.822409 0.7324899 -1.182394 0.02688594 0.67915 0.733507 10130058 male
-2.297513 -0.3905941 -1.358316 0.4080727 -0.8826246 0.2333464 526344 male
-2.817386 -0.3251355 -1.228517 -0.9652977 -0.1543582 -0.2106519 1579032 male
-2.800704 -0.3800471 -1.129311 0.08405986 0.07510874 0.9936262 5988453 male
-2.514725 0.411231 -1.421183 -0.9688132 -0.1297857 -0.2110853 13087405 male
-2.468564 0.5051284 -1.493932 0.7089378 -0.2428866 -0.6621282 16767705 male
-2.597841 0.578539 -1.33906 0.5022893 -0.2242782 -0.8351078 5327688 male
-2.601176 0.940981 -1.31305 0.1623662 0.8778084 -0.4506547 15590106 male
-2.789343 0.572562 -1.329952 -0.4548371 -0.1048741 -0.8843784 6643802 male
-2.634106 0.6531839 -1.320036 0.1469356 0.4949706 -0.8563961 9341318 male
-2.836192 -0.2033217 -1.220832 -0.6540565 -0.05282649 0.754599 2499881 male
-2.615971 0.3430867 -1.285678 0.6727576 0.4393888 -0.5952604 4078901 male
-2.522453 0.5933858 -1.349126 -0.09646447 0.7377083 -0.6681924 12037543 male
-2.665388 0.7529087 -1.221345 0.0197446 0.07019462 0.9973381 16240071 male
-2.446249 -0.2027207 -1.323631 -0.315817 -0.4513781 -0.8345764 2697257 male
-2.66904 0.358594 -1.168467 0.1436166 0.4933732 0.8578795 9537152 male
-2.458126 0.4950441 -1.46224 0.9726835 0.2278842 0.04422277 16768981 male
-2.560199 0.6262438 -1.281654 -0.6059877 -0.4385422 -0.6636716 7171428 male
-2.462238 -0.1674328 -1.33436 -0.240316 -0.4032386 -0.8829763 2696745 male
-2.809051 0.1143989 -1.33132 -0.04581752 0.02449623 -0.9986497 4409683 male
-2.472435 -0.04799689 -1.323446 0.80242 0.5721784 -0.1695119 2565671 male
-2.546897 0.04644589 -1.346031 0.5522606 0.04727961 -0.83233 3224633 male
-2.652542 0.9117695 -1.329663 -0.5393318 0.5442354 -0.6425957 14140091 male
-2.621305 0.3412175 -1.181198 0.6649265 0.3353889 0.6673735 7301220 male
-2.735774 0.7431924 -1.237571 -0.2832921 0.8950689 -0.3443795 4407355 male
-2.511635 0.6399621 -1.231361 0.7274998 0.2487264 0.6394368 11183522 male
-2.741187 0.03450781 -1.278782 0.9471734 -0.0574958 -0.3155271 2565928 male
-3.021845 0.7659397 -1.394838 -0.4121227 0.594371 0.6905637 14796983 male
-2.806176 0.3715535 -1.312554 -0.6872473 -0.1182376 -0.7167366 6840159 male
-2.766803 -0.183076 -1.274786 0.8785927 -0.1289444 -0.4598354 2039842 male
-2.498218 -0.01813101 -1.333948 0.8517123 0.4524793 -0.2642893 2763053 male
-2.852181 -0.2087975 -1.266661 -0.9439973 -0.3066594 -0.1217765 1908256 male
-2.549853 0.8855315 -1.294903 0.9818742 0.0870343 -0.1683694 6116946 male
-2.459524 -0.06304896 -1.306637 0.8011506 0.5968696 0.04364142 2237737 male
-2.753054 0.02396533 -1.225682 0.7316946 -0.1799874 0.6574403 2500141 male
-2.53372 0.6687383 -1.254704 0.5387195 0.7807487 0.3165642 4340793 male
-2.773149 -0.1095269 -1.267244 0.9344375 0.2920576 0.203787 1711135 male
-2.82181 -0.3748588 -1.178632 -0.970953 0.04538775 0.2349264 2169889 male
-2.557029 0.6236529 -1.302552 0.001437873 -0.4099739 -0.9120963 5262152 male
-2.466357 -0.2115559 -1.292173 -0.7976531 -0.6030684 -0.007619798 1775643 male
-2.960667 0.6081119 -1.280429 0.4741956 -0.8181412 -0.325244 13877178 male
-2.697453 0.5992212 -1.337625 -0.3558033 0.2082927 -0.9110535 9144705 male
-2.812293 0.04489457 -1.327907 -0.1931598 -0.167026 -0.9668465 4211789 male
-2.77212 0.3771285 -1.169485 -0.101095 0.1504818 0.9834304 10129805 male
-2.678849 0.9172064 -1.220114 -0.7675118 0.4806895 0.4241031 4472124 male
-2.539146 0.5886869 -1.34426 -0.6805431 0.4101671 -0.6071444 7564643 male
-2.667913 0.9390537 -1.246681 -0.6104669 0.7876477 0.08331487 4998462 male
-2.649243 0.8722671 -1.349056 -0.4958122 0.008944133 -0.8683838 12168360 male
-2.590314 0.003630173 -1.26041 -0.3777553 -0.4265198 0.8218164 3224633 male
-2.457638 -0.07308788 -1.331221 0.8007957 0.4545778 -0.3899814 3224633 male
-2.62837 0.4351525 -1.310534 0.6997139 -0.2136223 -0.6817375 4933187 male
-2.705531 0.4343459 -1.170712 -0.08739656 -0.1010007 0.9910404 9603460 male
-2.529673 0.07956735 -1.305115 0.9773849 0.1998374 -0.06916785 2237738 male
-2.821092 0.1646094 -1.164113 -0.4847123 -0.3571373 0.7984405 3026998 male
-2.594661 0.8984421 -1.188167 0.4189246 0.2154845 0.8820821 4406587 male
-2.647818 0.8252652 -1.361767 -0.1757548 0.3156554 -0.9324549 15914441 male
-2.863478 0.1474189 -1.284702 -0.9363552 0.04739819 -0.3478401 2697257 male
