# .PCD v0.7 - Point Cloud Data file format
VERSION 0.7
FIELDS x y z normal_x normal_y normal_z rgb label
SIZE 4 4 4 4 4 4 4 4
TYPE F F F F F F U U
COUNT 1 1 1 1 1 1 1 1
WIDTH 246
HEIGHT 1
VIEWPOINT 0 0 0 1 0 0 0
POINTS 246
DATA ascii
1.443042 1.004975 -0.73549 -0.5906356 -0.3501014 0.727034 5064781 male
1.440278 0.736176 -0.7844397 0.8906441 0.113967 0.4401867 5922155 male
1.628748 0.4434386 -0.8881748 -0.0314047 -0.3224357 0.9460703 526600 male
1.304749 0.774245 -0.8862191 -0.8944824 -0.3904406 -0.217847 7238523 male
1.437534 0.9914625 -0.7476522 -0.530143 -0.4279544 0.7319859 4737356 male
1.659371 0.6039084 -0.9375762 0.3588872 0.3188132 -0.8772445 526600 male
1.440063 0.8661641 -1.055931 0.01724416 0.1435709 -0.9894898 7830924 male
1.565829 0.9349977 -0.8416345 0.4411522 -0.8974265 -0.003232166 12368332 male
1.829851 1.003224 -0.6065102 0.8336777 -0.1972855 -0.5158099 14592678 male
1.549087 0.7727602 -0.901662 0.4283814 0.3503089 0.8329304 8226710 male
1.391312 0.3529826 -0.7237534 0.7963063 0.07254927 0.6005272 526600 male
1.862712 1.102912 -0.6385554 0.4905852 -0.06262683 -0.8691397 13089990 male
1.582793 0.9759368 -0.9144542 0.624294 -0.5501633 -0.5545967 6510947 male
1.489748 0.9306703 -0.8180219 0.4315826 -0.7946374 0.4269519 14406635 male
1.407706 1.075801 -0.8332457 -0.743287 0.6685477 -0.0238421 9735580 male
1.43356 0.5817831 -0.774728 0.2562641 -0.1735652 -0.9508964 526600 male
1.576622 0.697903 -0.9837927 0.5893961 -0.109556 -0.8003809 5001303 male
1.575031 1.118299 -0.5766317 -0.128058 -0.8890403 0.4395548 13156049 male
1.366374 0.2450813 -0.7026777 -0.09881322 -0.9949538 0.01740808 526600 male
1.584387 1.07157 -0.6160085 0.1258557 -0.7665486 0.6297329 11382462 male
1.709822 1.053799 -0.6304606 -0.4925425 -0.6282651 0.6022332 13808046 male
1.419253 0.8090836 -0.7872355 0.6143805 0.3289903 0.7171487 12107215 male
1.711163 0.2786083 -0.8761554 -0.2020496 -0.958733 0.2000174 526600 male
1.759922 0.6985671 -0.8089967 -0.2759562 -0.1103758 0.9548116 16638180 male
1.672161 0.5149765 -0.8780029 0.5101808 -0.2617958 0.8192548 526600 male
1.721847 1.143094 -0.7600923 0.3965613 0.9172664 -0.03689687 11118521 male
1.568019 1.165798 -0.7790611 -0.08406089 0.8744029 -0.4778634 14605038 male
1.496441 1.031993 -0.6911936 -0.5583189 -0.3078382 0.7703996 7236213 male
1.583271 0.7499576 -0.9177742 0.8192368 0.3178692 0.4772948 4474191 male
1.389559 0.9556936 -0.7248865 0.9729087 -0.1927116 -0.127713 10909818 male
1.344799 0.9551913 -0.9542564 -0.6049306 0.5054997 -0.6152471 5067098 male
1.714371 1.036075 -0.6766957 -0.02768295 -0.9864066 -0.1619741 15982050 male
1.403519 0.5123229 -0.6841627 -0.02391943 -0.07029193 0.9972397 526600 male
1.516193 1.11964 -0.6050313 0.06369567 -0.6822695 0.7283207 16179682 male
1.769325 1.022359 -0.5615171 -0.5025698 -0.6036451 0.6188992 14462891 male
1.767204 0.9753807 -0.8520691 0.2941197 0.08184155 -0.9522582 11117230 male
1.414093 0.8658001 -0.8256602 0.6128629 0.4073097 0.6771247 6252151 male
1.564057 1.168885 -0.6403018 0.121033 -0.1391908 -0.9828413 526600 male
1.622029 0.6799957 -0.917262 0.9692453 0.2452464 -0.02044004 788492 male
1.720923 1.140699 -0.7881289 0.4186665 0.8826952 -0.2134653 12367816 male
1.651015 1.153222 -0.7781935 0.1435165 0.9693363 -0.1994744 15723258 male
1.771538 0.738663 -0.8673916 0.1948966 -0.02016689 -0.9806165 14133419 male
1.909499 1.092637 -0.5879302 0.9520767 -0.02782241 -0.3045912 3223601 male
1.393285 0.9658365 -0.9913856 -0.5599846 0.5803767 -0.591253 13620190 male
1.807011 1.100892 -0.5023762 -0.4635667 -0.06598988 0.8836014 9735055 male
1.641857 0.6619763 -0.896324 0.9419587 0.3339568 0.03444725 5067613 male
1.760278 0.8760414 -0.7802024 0.1316988 -0.1779719 0.9751828 16571102 male
1.723318 1.013787 -0.8546152 -0.2885894 -0.712386 -0.6397048 526600 male
1.397487 0.9895494 -0.970392 -0.4928493 0.6972274 -0.5205511 10064292 male
1.641204 0.995956 -0.8798862 0.5729203 -0.6102342 -0.5471531 5523020 male
1.355167 0.9836858 -0.9359927 -0.540306 0.6615883 -0.5199715 6578030 male
1.619427 0.4674915 -0.8826777 -0.3124137 -0.3146805 0.8963112 526600 male
1.32819 0.9085024 -0.8175162 -0.7105305 0.1746808 0.6816399 7369079 male
1.545824 0.9532819 -0.9738509 0.9237072 0.2683493 -0.2734109 3223608 male
1.460854 1.133713 -0.6695502 0.2950929 -0.1817277 -0.9380273 13753574 male
1.755586 1.136368 -0.5695432 -0.8987838 0.3322856 0.2859614 11971502 male
1.350066 0.6573262 -0.8214642 -0.8878303 -0.3259933 -0.3247858 5592924 male
1.676738 1.164694 -0.6645879 0.466042 0.8597559 0.2088653 11644345 male
1.768613 1.10528 -0.7733808 0.8847703 0.446841 -0.1323429 9210004 male
1.412999 0.8094192 -1.04881 -0.2730137 -0.5299233 -0.8028978 6843516 male
1.330079 0.9002722 -0.8156757 -0.6440095 0.1963913 0.7393796 3750978 male
1.611943 0.3227074 -0.9270821 -0.7298465 -0.07897063 0.6790345 526600 male
1.69338 0.5387055 -0.9113056 0.9795932 -0.07957838 -0.1845657 526600 male
1.562921 0.9634607 -0.913002 0.7036303 -0.6240069 -0.3398821 9933727 male
1.360964 0.7437521 -0.9220212 -0.1684174 -0.5018464 -0.8484019 5989227 male
1.606321 0.2977464 -0.9794598 -0.0487369 -0.8845472 -0.4638975 526600 male
1.788293 1.032885 -0.8360968 0.8247765 0.3405764 -0.4513884 6907762 male
1.405547 0.2871415 -0.7216362 0.8951447 0.439479 -0.07466018 526600 male
1.662555 0.4527253 -0.8949287 0.5865657 -0.2947998 0.7543433 526600 male
1.620581 0.3383183 -0.9692038 0.13248 0.2214814 -0.9661238 526600 male
1.457659 1.128231 -0.6678611 0.3441041 -0.3280138 -0.8797723 15200255 male
1.316894 1.046495 -0.7130858 -0.6118336 -0.03714785 -0.7901137 10456975 male
1.609651 1.127018 -0.5866035 0.6008346 0.0499189 0.7978132 12499142 male
1.904835 1.122853 -0.5368941 0.9107029 0.2085073 0.3565739 526600 male
1.66272 0.9640323 -0.7713136 0.2679318 -0.9065366 0.3261963 10656169 male
1.480242 0.9493461 -1.028453 0.2497628 0.2413099 -0.9377569 6643042 male
1.637673 0.5678309 -0.9511369 -0.05633104 0.245976 -0.9676376 526600 male
1.405493 0.8982665 -0.8235203 0.4935462 0.1742474 0.8520856 4804697 male
1.495768 1.179067 -0.6261516 -0.4733756 0.8595448 0.1926094 15251641 male
1.891647 1.048154 -0.5333994 0.7065493 -0.4807412 0.5193033 526600 male
1.369324 0.4149016 -0.709338 -0.5114642 -0.1420943 0.8474748 526600 male
1.38122 1.022515 -0.9062733 -0.4621007 0.7910178 -0.4009411 11774907 male
1.344753 1.123204 -0.6422861 0.2015378 -0.3887001 0.8990522 14923700 male
1.557265 1.193695 -0.5912251 -0.371739 0.8152564 0.4440351 8222597 male
1.384207 0.4334203 -0.6995978 -0.1934572 -0.2018636 0.9601173 526600 male
1.520921 0.7549786 -0.8923158 -0.01150239 0.1408719 0.989961 6646652 male
1.376988 0.5771475 -0.7146927 -0.8084066 0.3529862 0.4710408 526600 male
1.39586 0.665962 -0.740505 -0.1887014 -0.03041119 0.9815636 7106171 male
1.90524 1.059796 -0.5734259 0.9304326 -0.3369959 -0.1439753 15720414 male
1.295124 0.8795607 -0.9092899 -0.9940476 0.06866978 -0.08458027 5329246 male
1.732044 0.2801714 -0.9388059 0.0526012 -0.8865284 -0.4596743 526601 male
1.558215 1.121368 -0.5972518 -0.03016773 -0.9416051 0.3353651 14076110 male
1.599191 0.6233459 -0.8563406 -0.3101483 -0.2803847 0.908401 3750719 male
1.766458 0.4887446 -0.8727837 0.9340141 0.06294038 -0.3516478 10783885 male
1.466106 0.8813378 -1.050359 0.2515695 0.2076149 -0.9453088 6842485 male
1.610386 0.4351869 -0.8990307 -0.5073618 -0.2422584 0.8269793 526600 male
1.358572 0.6839623 -0.765533 -0.7379992 -0.08808751 0.6690274 4277321 male
1.662703 0.562063 -0.9472673 0.4101683 0.1661113 -0.8967546 526600 male
1.857496 1.049474 -0.5105995 0.1626566 -0.442429 0.8819292 1051656 male
1.383064 0.5853828 -0.7121243 -0.7660047 0.3219671 0.5563936 526600 male
1.441594 0.7253085 -0.9349884 -0.7304393 -0.4502864 0.5135177 3618878 male
1.635072 1.15507 -0.6194013 0.3942671 0.4782116 0.7847719 5854815 male
1.612422 0.5694859 -0.9401961 -0.6233337 0.2805754 -0.7298853 526600 male
1.662317 0.3502133 -0.9305595 0.8588194 0.4531745 -0.2388771 526600 male
1.566036 1.19909 -0.6235675 -0.2992936 0.8974413 -0.3240716 8421000 male
1.453066 0.5657216 -0.7124469 0.855503 -0.4912573 0.1636492 723723 male
1.796085 0.6930439 -0.8306977 0.9971974 -0.04127811 0.06239751 15711164 male
1.622844 1.003543 -0.6939191 0.2687151 -0.8625723 0.4286737 10717596 male
1.623287 0.4307372 -0.8949778 -0.1844954 -0.2967918 0.9369504 526600 male
1.476824 1.063535 -0.9382854 -0.4450597 0.5315895 -0.7206486 9275285 male
1.825045 1.186797 -0.5863207 -0.05114873 0.9802948 -0.1908029 16643837 male
1.574738 1.166 -0.5686575 -0.09159404 0.4946237 0.8642673 6973040 male
1.828916 1.165957 -0.624844 0.1149719 0.6931862 -0.7115296 16116461 male
1.83492 0.9998429 -0.5933443 0.4822972 0.2379244 -0.8430784 13609123 male
1.357442 0.6571912 -0.8368731 -0.6644371 -0.4113714 -0.6239365 6909817 male
1.393608 0.5691682 -0.6940432 -0.5137368 0.2026249 0.8336771 526600 male
1.447499 1.061845 -0.7259333 -0.783712 0.1472825 0.6034096 6052448 male
1.602442 1.158256 -0.7914149 0.1388015 0.8625443 -0.4865711 11380410 male
1.336989 0.7739187 -0.7812104 -0.6597419 0.08732417 0.7464014 4869976 male
1.457824 0.8401529 -1.058449 0.159945 -0.03841034 -0.9863784 6514547 male
1.835058 1.158515 -0.5078102 -0.08171844 0.5831021 0.8082784 526344 male
1.831793 1.055458 -0.6562098 0.4502837 -0.124848 -0.884114 15120820 male
-2.608888 0.4596395 -1.213802 0.962194 -0.07168949 0.2627614 3420719 male
-2.55687 0.01152003 -1.382619 -0.8107793 -0.3935172 -0.4333375 2106151 male
-2.697884 -0.009089121 -1.332544 0.9451401 -0.05702805 -0.321649 2500910 male
-2.504669 0.1548923 -1.293818 0.92246 0.3713007 0.1058471 2302758 male
-2.607852 0.490574 -1.208494 0.9674978 -0.020874 0.2520168 4801601 male
-2.809242 -0.1434958 -1.302952 -0.8422496 0.3747826 0.3874968 2499881 male
-2.677518 0.6385596 -1.30671 0.1311271 0.4317748 -0.8923994 6775126 male
-2.62983 0.6987693 -1.20938 0.3961115 0.8480648 0.3519685 12697273 male
-2.829298 0.8197114 -1.355694 -0.5788485 -0.08125695 -0.8113768 15848904 male
-2.743232 0.1218694 -1.359152 0.2372506 0.1328143 -0.9623268 4212045 male
-2.449779 -0.03627652 -1.334993 -0.3564811 0.9154172 0.1869026 2763056 male
-2.851685 0.8391132 -1.333249 -0.7633296 -0.1754436 -0.6217296 5394762 male
-2.782802 0.4164955 -1.160136 -0.1910157 -0.2481 0.9497156 10063753 male
-2.627783 0.3660563 -1.291071 0.7401487 -0.02746501 -0.6718823 6642524 male
-2.665321 0.4708326 -1.14812 0.3793379 -0.1919618 0.9051263 6381144 male
-2.541531 -0.01230176 -1.375031 -0.8367348 -0.5141215 0.1885584 2696489 male
-2.791638 0.05859128 -1.236562 -0.6539523 -0.2254418 0.7221653 4342346 male
-2.621151 0.6154698 -1.224788 -0.8713632 -0.4901415 -0.02208728 4406330 male
-2.73934 0.7078742 -1.190004 -0.2452122 0.7361053 0.6308882 11116699 male
-2.610621 0.5483306 -1.203923 0.9939719 0.02786702 0.1060361 2959914 male
-2.745524 0.7203109 -1.317226 0.7672751 -0.2145806 -0.6043546 16442073 male
-2.647249 0.1587676 -1.317705 -0.5751737 -0.1403049 -0.8059095 2302246 male
-2.874151 0.5680983 -1.547912 -0.8567834 0.1230453 -0.5007817 15454152 male
-2.835766 0.4756178 -1.460025 0.9893925 -0.1324861 -0.05958337 11642016 male
-2.767362 -0.2990606 -1.273633 0.9733752 -0.2250333 -0.04359955 2434085 male
-2.808199 0.3391902 -1.191914 -0.6620947 -0.0793361 0.7452091 6576467 male
-2.717284 0.3451131 -1.157879 -0.214157 0.2617771 0.9410685 13681855 male
-2.816391 0.337418 -1.283834 -0.8057576 -0.2716677 -0.5262619 3354670 male
-2.739064 0.06919847 -1.365025 0.280366 0.02464615 -0.9595769 4344399 male
-2.602679 0.6527715 -1.266954 -0.01296338 0.4144589 -0.9099758 8617330 male
-2.619677 0.5255581 -1.389286 -0.02780765 0.222353 0.9745698 15586773 male
-2.766155 0.548714 -1.341051 0.3273987 0.07667364 -0.9417704 13942437 male
-2.444186 -0.09376247 -1.364045 -0.3341033 -0.9422448 -0.02344823 2697257 male
-2.595526 0.7074034 -1.231467 0.4857866 0.8735106 -0.03147522 8879222 male
-2.744673 0.7418809 -1.332536 0.5429352 -0.8226212 0.1688665 11182484 male
-2.915645 0.6347922 -1.325153 -0.1225131 0.4974391 -0.8588045 5985103 male
-2.545219 0.2202358 -1.298251 0.7623721 0.5763031 -0.294387 3683645 male
-2.389971 -0.02161637 -1.460315 0.7318682 0.6806253 0.03344223 2237222 male
-2.728952 -0.1070195 -1.391025 0.4257798 -0.5663528 -0.7056602 3816511 male
-2.822539 0.3365437 -1.210139 -0.8772388 -0.1278429 0.4627187 5788240 male
-2.81899 0.2757459 -1.183868 -0.7851012 0.008284022 0.6193123 6511706 male
-2.857645 0.3603256 -1.391343 0.9299759 -0.3288426 -0.1643406 10259336 male
-2.842716 0.9006868 -1.338147 -0.6425706 0.4340467 -0.6314323 3222825 male
-2.703089 0.6681611 -1.293779 0.2450876 0.6228218 -0.742984 9143163 male
-2.735493 0.8869711 -1.267578 0.9042484 0.2924715 0.3111197 3947060 male
-2.722986 -0.1545417 -1.339721 0.9161463 -0.3226351 -0.2378714 2698032 male
-2.94398 0.5933992 -1.305405 -0.7778481 0.03980564 -0.6271906 6906461 male
-2.817316 0.07059181 -1.321832 -0.952531 -0.0560427 -0.2992393 1908771 male
-2.827784 0.3224806 -1.221471 -0.9092419 0.3334035 0.2492422 4735808 male
-2.848872 0.5226061 -1.310374 -0.7446642 -0.3909709 -0.540941 4538429 male
-2.664449 0.1751391 -1.144853 -0.1355114 -0.7260569 0.67415 5790821 male
-2.716184 -0.1365314 -1.340235 0.9405486 -0.3385435 -0.02751017 1645600 male
-2.553125 0.1663502 -1.214639 0.7110482 -0.09969928 0.6960394 2764082 male
-2.701969 0.2663917 -1.331712 -0.1668564 0.03559874 -0.9853386 8618105 male
-2.508313 0.551947 -1.272567 0.7329594 0.6693109 -0.1216287 16772059 male
-2.764883 0.9198095 -1.245899 0.5976579 0.6440821 0.4774552 4340793 male
-2.541236 0.01997733 -1.309649 -0.3528758 -0.6207618 0.7000955 3223094 male
-2.793895 0.6398722 -1.317329 -0.03691575 0.4163525 -0.9084536 8025196 male
-2.880152 0.655511 -1.214949 -0.7381059 0.4749381 0.4792011 6971741 male
-2.719792 0.1585336 -1.159293 0.5223003 -0.7141564 0.466029 2960429 male
-2.573106 0.2926563 -1.221841 0.9086787 0.3123813 0.2769858 4078390 male
-2.816411 -0.3651383 -1.189364 0.7869451 0.1698119 0.593196 2631979 male
-2.811776 -0.1905551 -1.282723 -0.8107969 0.1696145 0.560214 2828331 male
-2.666584 0.6458551 -1.300309 0.237673 0.4978389 -0.8340672 8354165 male
-2.64163 0.1156549 -1.207711 -0.3985904 -0.7379211 0.5446084 1908773 male
-2.851713 -0.3995577 -1.191054 -0.3744087 -0.8960922 0.238405 1052688 male
-2.873863 0.5209322 -1.347959 0.6997694 0.3993483 -0.5923208 16772839 male
-2.458174 -0.1485393 -1.18215 0.7120891 -0.06897227 -0.6986933 3026222 male
-2.775084 -0.3213033 -1.26565 0.9988654 0.04694841 0.008010685 2434085 male
-2.837716 -0.36136 -1.238683 -0.9418203 0.01698295 -0.335688 2368808 male
-2.488364 0.4824815 -1.276354 -0.2158507 0.9254046 0.3115042 15189948 male
-2.476953 0.4164643 -1.285924 0.2122767 -0.8804368 -0.4239924 10129033 male
-2.614846 0.5654956 -1.19139 0.9743309 -0.04763221 0.2200246 2828585 male
-2.813305 0.932999 -1.321923 -0.2482415 0.8715984 -0.4227203 4932930 male
-2.751384 0.6088823 -1.322902 0.1492237 0.1675835 -0.974499 9143408 male
-2.671938 0.6581892 -1.292926 0.1898465 0.6138648 -0.766243 8683131 male
-2.742817 -0.1474324 -1.283358 0.5311434 0.3481271 0.77246 2632238 male
-2.584877 0.2973938 -1.187084 0.8481441 0.1862763 0.4959365 4275257 male
-2.594426 0.6838118 -1.257377 0.3363414 0.2343041 -0.9121274 8748660 male
-2.78629 0.7441369 -1.225652 -0.19305 0.07794326 0.9780883 16380126 male
-2.414436 -0.07980595 -1.308622 0.9352593 -0.1754068 0.3074456 1973793 male
-2.647358 0.536376 -1.151704 0.5117903 -0.0729674 0.8560063 6840160 male
-2.541464 0.4614735 -1.332247 -0.9089349 -0.2006797 0.3654658 15981014 male
-2.555302 0.556468 -1.287148 -0.3128163 0.3251089 -0.8924408 16773086 male
-2.400539 -0.04436236 -1.364248 0.8309226 0.4389792 0.3418553 1908256 male
-2.685175 0.1197532 -1.311824 0.8609391 -0.02459069 -0.5081139 2960178 male
-2.387895 -0.04679362 -1.398593 0.9170672 0.2830345 0.2808551 2039330 male
-2.49576 0.07170746 -1.381312 0.6022484 0.2730847 -0.7501479 3224634 male
-2.793017 0.8992241 -1.363863 -0.05771264 0.4719995 -0.8797078 5854285 male
-2.668039 0.3710182 -1.157722 0.1250323 -0.03828812 0.9914138 10524304 male
-2.823697 0.6902485 -1.208948 -0.2104717 0.7079273 0.6741964 5261635 male
-2.631249 0.6423416 -1.239915 0.4050593 -0.8227246 -0.3988122 2236448 male
-2.706894 0.07933723 -1.338309 0.7446036 -0.005273998 -0.6674862 3157808 male
-2.833223 0.5618495 -1.491649 0.8626757 0.3134012 0.3969517 11244686 male
-2.728117 0.2979583 -1.328092 -0.1858571 -0.03493501 -0.9819556 6972002 male
-2.707966 -0.1122799 -1.357955 0.8524033 -0.4734086 -0.2220207 2697257 male
-2.441211 -0.0950578 -1.417247 -0.3197689 -0.9446098 -0.07389325 2632237 male
-2.738478 -0.1037498 -1.308321 0.5417885 0.3979277 0.7403506 2500647 male
-2.735639 0.9001136 -1.310677 0.8604032 0.5008929 -0.09387743 6116946 male
-2.379763 -0.07722252 -1.461284 0.9246818 -0.3805586 0.01178467 3553086 male
-2.708438 -0.04219624 -1.282498 0.5543349 -0.09537118 0.8268117 2302499 male
-2.624379 0.5535548 -1.276607 0.9267721 -0.01061966 -0.3754742 4867394 male
-2.766015 -0.1947897 -1.264226 0.1682456 0.145648 0.9749258 2895404 male
-2.779353 -0.378943 -1.261662 0.5717735 0.706813 -0.4165218 2828843 male
-2.614643 0.6064169 -1.26474 -0.8908626 -0.2999848 -0.3411352 6906464 male
-2.436315 -0.03742455 -1.464267 0.870203 0.0099359 -0.4925933 3881795 male
-2.8658 0.3647194 -1.415084 0.6012926 -0.5480006 -0.5815005 8878199 male
-2.832669 0.4547947 -1.303101 -0.7168956 -0.1707089 -0.6759581 4143671 male
-2.741518 -0.2275732 -1.281583 0.8732724 -0.2161782 0.4366493 2039327 male
-2.728888 0.2720501 -1.140527 -0.1720151 0.1697056 0.9703664 9471108 male
-2.865765 0.8524361 -1.229189 -0.8074937 -0.06100769 0.586713 4932154 male
-2.519052 0.5394188 -1.27619 0.009211436 0.7999923 -0.5999395 15848392 male
-2.879509 0.8733728 -1.277041 -0.9985414 0.05267323 -0.01186806 4538941 male
-2.846572 0.8399941 -1.339182 -0.7706389 -0.1335885 -0.6231131 6314326 male
-2.563028 0.01275548 -1.338421 -0.7710214 -0.6051111 0.1984103 2434090 male
-2.39929 -0.09325329 -1.391176 0.6643601 -0.7278789 0.169759 2435117 male
-2.636123 0.4344664 -1.174323 0.6716694 -0.06114782 0.7383236 5855058 male
-2.685708 0.2588065 -1.131102 -0.1648029 0.05188491 0.984961 9339518 male
-2.395063 -0.0518555 -1.480448 0.9856755 0.1682754 0.01128513 2434601 male
-2.761568 0.1490346 -1.16472 -0.2080576 -0.6069127 0.7670524 1644825 male
-2.801944 0.9084418 -1.215189 0.1075689 0.5286361 0.8420055 4406587 male
-2.833164 0.7676826 -1.324327 -0.7637261 -0.5366876 -0.3587324 13614004 male
-2.773525 0.1800712 -1.344554 -0.2613567 0.3480151 -0.9003212 3224375 male
-2.682149 0.4266055 -1.327801 0.3251754 0.04342915 -0.9446561 7168869 male
