# .PCD v0.7 - Point Cloud Data file format
VERSION 0.7
FIELDS x y z normal_x normal_y normal_z rgb label
SIZE 4 4 4 4 4 4 4 4
TYPE F F F F F F U U
COUNT 1 1 1 1 1 1 1 1
WIDTH 247
HEIGHT 1
VIEWPOINT 0 0 0 1 0 0 0
POINTS 247
DATA ascii
1.41152 0.6925794 -0.8274898 -0.1319243 -0.8000352 0.5852689 7564667 male
1.474515 0.533137 -0.7456567 0.9583601 0.2228637 -0.1785433 3356994 male
1.720277 0.4049625 -0.8748789 0.1177395 -0.3571049 0.926614 526600 male
1.311552 0.5086318 -0.8702713 -0.6684605 -0.7372307 0.09824279 5395034 male
1.431495 0.6899871 -0.7970069 -0.2500206 -0.7784549 0.5757583 7367800 male
1.756498 0.532584 -0.8490499 0.08958691 -0.2339623 0.9681094 723211 male
1.372384 0.6417715 -1.062796 -0.2533663 0.1444133 -0.9565305 10198958 male
1.617745 0.761408 -0.7049921 0.5522951 -0.6353447 0.5397289 15460347 male
1.809877 0.7946954 -0.612794 0.8198798 -0.2241377 0.5268391 9992309 male
1.737203 0.5257043 -0.8455558 -0.4488869 -0.1963135 0.8717577 6249051 male
1.439885 0.475553 -0.5974554 -0.9274608 0.3135372 -0.2037419 526600 male
1.830263 0.8625252 -0.5782844 0.950666 0.2473171 0.1872661 1051664 male
1.511287 0.8213779 -0.9724253 -0.04680577 0.4970208 -0.8664753 7170165 male
1.42975 0.622602 -0.8844414 0.4684053 0.24686 0.8483258 6120309 male
1.348635 0.798125 -0.8868735 -0.840535 0.5286249 -0.1185603 9274256 male
1.506991 0.5016826 -0.6319675 0.05249587 -0.2882377 -0.9561188 526344 male
1.543998 0.4657454 -0.9886164 -0.03577606 -0.8543325 -0.518494 8027539 male
1.556432 0.7497034 -0.6285939 0.5494142 -0.7534021 0.3612885 7103860 male
1.391637 0.2501485 -0.6777101 0.2799852 -0.9228224 -0.2645885 526600 male
1.540124 0.8202597 -0.622648 0.03512731 0.4354682 0.8995184 7894656 male
1.709776 0.7524947 -0.673687 -0.2858954 -0.9414108 0.1789124 12560806 male
1.424632 0.6038842 -0.7987223 0.6827685 0.6997354 0.2102321 8357784 male
1.6538 0.2297554 -0.7828445 -0.2591565 0.2993419 0.9182768 526600 male
1.658349 0.6263838 -1.080335 -0.6572078 -0.2708877 -0.7033476 15847121 male
1.701703 0.3507021 -0.9371632 0.5087457 -0.2363478 -0.8278391 526600 male
1.66109 0.9092516 -0.8036634 0.2708193 0.9614512 -0.04762707 11643577 male
1.501579 0.8814841 -0.8029588 -0.2754677 0.9237486 -0.2660941 15918842 male
1.492634 0.7000719 -0.7537927 -0.214995 -0.8483124 0.4838835 8288902 male
1.719657 0.4511292 -0.8596653 -0.4227023 -0.1745556 0.8892993 526600 male
1.463361 0.7905089 -0.6324034 -0.7434875 0.5857535 0.322675 9801885 male
1.311927 0.6750882 -0.9870195 -0.7768266 0.3067844 -0.5499307 7304319 male
1.684226 0.767581 -0.8125584 0.6242136 -0.6798357 0.3849426 15590385 male
1.500695 0.4302164 -0.5542923 0.5598032 -0.5791456 0.5926303 526600 male
1.495847 0.7053303 -0.6331263 0.7428664 -0.6065702 0.283235 15518414 male
1.754712 0.7572417 -0.5701097 0.02585992 -0.6274068 0.7782621 14790567 male
1.751454 0.8298306 -0.8797784 0.7590282 0.5363166 -0.3691079 6643565 male
1.328576 0.5869679 -0.7894408 -0.6773975 0.3563406 0.6435479 4672599 male
1.396171 0.5079105 -0.689415 -0.840445 0.02295049 0.5414106 5197391 male
1.739049 0.5413602 -0.9123384 -0.7264786 0.2578709 -0.6369703 526600 male
1.650882 0.902685 -0.7709408 0.1402835 0.942217 0.3042164 10789300 male
1.58243 0.9051842 -0.819439 -0.303191 0.9447598 0.1245154 12367819 male
1.709604 0.5974825 -1.04066 0.6147181 0.1759353 0.7688748 15381944 male
1.8219 0.890944 -0.595727 0.8608752 0.5085177 0.01741675 8683908 male
1.342578 0.7129391 -1.00259 -0.6775948 0.5396724 -0.4996189 7039864 male
1.701291 0.8548233 -0.5510981 -0.6457488 -0.1094275 0.7556679 12431281 male
1.732424 0.5295855 -0.9437379 0.495436 0.121218 -0.8601449 723464 male
1.736765 0.7745805 -0.9125403 0.969265 -0.001901976 -0.2460114 16043211 male
1.559106 0.5586278 -1.020021 0.5344671 0.3155315 -0.7840821 7040379 male
1.36255 0.6895128 -1.044267 -0.531639 0.4298127 -0.7298089 13422818 male
1.621634 0.7590078 -0.9091612 0.6604834 -0.403095 -0.6334636 6644588 male
1.270508 0.611762 -0.9213557 -0.9970058 -0.04794591 -0.0606682 2698289 male
1.659967 0.3499575 -0.9159292 -0.4908553 0.202886 0.8472888 526600 male
1.294006 0.5492374 -0.8500387 -0.8911921 -0.2893174 0.3493881 7567755 male
1.491423 0.6761191 -0.9005498 0.4063866 -0.902056 0.1454123 11906757 male
1.355541 0.6614301 -0.6801932 0.02139822 -0.1062872 -0.9941052 13220807 male
1.719775 0.89213 -0.5413281 -0.4080043 0.3183942 0.8556621 526600 male
1.452238 0.4845065 -0.6888821 -0.2811977 -0.7646424 -0.5798706 7699597 male
1.659391 0.8691497 -0.7164526 -0.02843428 0.9556743 0.2930498 12103867 male
1.715784 0.8556721 -0.7790329 0.955439 -0.1545088 0.251522 8355208 male
1.426424 0.5665303 -1.07564 0.1772933 -0.04801083 -0.9829863 6843254 male
1.302055 0.6337925 -0.8456511 -0.7268304 0.2240192 0.6492558 5132630 male
1.644407 0.3144076 -0.9295602 -0.3815985 0.07892659 0.9209524 526600 male
1.812697 0.4909595 -0.8840773 0.8733687 -0.4430547 0.2023103 526600 male
1.381084 0.6233712 -1.066728 -0.1663513 0.1009411 -0.9808863 5988715 male
1.318654 0.5246738 -0.9540866 0.08183127 -0.9469743 -0.3107142 789516 male
1.645915 0.2820014 -1.012015 0.2033198 0.06670482 -0.9768375 526600 male
1.687776 0.7940354 -0.8602504 -0.3026096 -0.804312 -0.5113802 526600 male
1.390492 0.2629074 -0.7521175 0.1456785 -0.9856552 -0.08521527 526344 male
1.698772 0.3687673 -0.9393366 0.2107463 -0.2256203 -0.9511475 526600 male
1.636174 0.3416394 -0.9614854 -0.4159261 0.1363768 -0.8991145 526600 male
1.377894 0.6604089 -0.652934 0.882357 -0.3544016 -0.3095894 12820901 male
1.322598 0.4779784 -0.6370999 0.2684143 0.07181543 -0.9606229 11902369 male
1.535337 0.8417268 -0.6365312 -0.08723322 0.5747324 0.8136787 9013906 male
1.805447 0.9012194 -0.5704794 0.6901932 0.6253662 0.364075 526600 male
1.630694 0.7174712 -0.8384279 0.4725246 -0.8773534 0.08349486 12954533 male
1.358797 0.5946339 -1.059098 -0.475131 -0.03850249 -0.8790722 5198940 male
1.788484 0.5047607 -0.9360936 0.4254455 -0.003795959 -0.904976 526600 male
1.348256 0.6645966 -0.8337395 0.1369023 0.3542871 0.9250613 3947330 male
1.461359 0.7553881 -0.6076386 -0.4241765 0.2586784 0.8678477 15911111 male
1.664454 0.8540586 -0.6885793 -0.4906907 0.858179 0.1508359 13996159 male
1.485987 0.3892572 -0.6168777 0.8515184 -0.5239159 -0.02070007 526600 male
1.379555 0.8191955 -0.8668901 -0.7625971 0.643918 0.06176695 9605279 male
1.302689 0.6155853 -0.6229072 -0.8330879 0.1478434 0.5330168 14789546 male
1.489262 0.8221987 -0.6324562 -0.6707286 0.6643715 0.3297481 9735828 male
1.467371 0.3669778 -0.6137201 0.8003771 -0.5094988 0.315923 526600 male
1.687819 0.5239472 -0.8537728 -0.09439373 -0.03132246 0.9950421 527368 male
1.451566 0.5003256 -0.5616449 -0.8710151 0.3100907 0.3810202 526600 male
1.505496 0.5228786 -0.6357435 0.8216258 0.405152 0.4009775 6317425 male
1.825684 0.8426191 -0.5651167 0.8974941 -0.0433255 0.4388931 14401736 male
1.270505 0.6334906 -0.9081942 -0.9869881 0.07177795 0.1438828 5000279 male
1.680172 0.8782026 -0.7385894 0.08722331 0.9295796 0.3581535 7565691 male
1.482691 0.7549514 -0.6008903 -0.06622374 -0.03787908 0.9970855 8288639 male
1.697845 0.5295399 -0.8589664 -0.0235095 -0.02835939 0.9993213 592137 male
1.739586 0.4858657 -1.062603 0.9300216 0.3665455 -0.02653745 16230575 male
1.533033 0.678482 -0.8961573 0.472045 -0.8797913 -0.05604263 16185078 male
1.678604 0.3606157 -0.9036613 -0.2690448 0.0897194 0.9589397 526600 male
1.309849 0.5531691 -0.8078037 -0.853294 -0.05168126 0.5188625 3750723 male
1.813125 0.4893487 -0.8990268 0.9138028 -0.3566034 -0.194418 526600 male
1.746476 0.8715296 -0.5296369 -0.09284773 0.1305335 0.9870867 526600 male
1.4678 0.5019689 -0.5412307 -0.7081499 0.1890772 0.6802745 526600 male
1.555387 0.469695 -0.930494 -0.4055319 -0.8165107 0.4109187 527119 male
1.590295 0.7809712 -0.6705862 0.754891 -0.3674302 0.543263 13354196 male
1.777375 0.4635938 -0.934347 0.4979312 -0.2389982 -0.8336332 526600 male
1.668417 0.3306878 -0.9647906 0.3196285 -0.02815238 -0.9471246 526600 male
1.501558 0.7988734 -0.6028103 -0.3807486 0.3454515 0.857726 7104116 male
1.530585 0.4792642 -0.5423635 0.7076858 -0.6080858 0.3597395 526600 male
1.707136 0.5709435 -1.039434 0.1556454 0.06140925 0.9859024 13477035 male
1.602085 0.7295401 -0.758521 0.5410504 -0.8297785 0.1368653 11708599 male
1.737511 0.4119889 -0.8783511 0.3498076 -0.4091404 0.8427566 526600 male
1.433867 0.825404 -0.9112866 -0.5396129 0.8355181 -0.1035727 9868455 male
1.710586 0.9043545 -0.6630445 -0.368575 0.6189902 -0.6935441 4736841 male
1.532623 0.7417191 -0.6228932 0.4699337 -0.8602353 0.1978825 16643581 male
1.763411 0.9107566 -0.6598018 0.2672052 0.6053677 -0.7497542 7037283 male
1.817197 0.8036777 -0.6050508 0.4245741 -0.8636267 -0.2718193 10913925 male
1.496979 0.4889427 -0.664502 0.1462697 -0.5587139 -0.8163601 526600 male
1.457715 0.450938 -0.5490983 -0.6184851 -0.1492065 0.7715009 526600 male
1.419934 0.7555714 -0.7521983 -0.7121954 -0.2224371 0.6658074 4407367 male
1.424385 0.8210643 -0.9049615 -0.4087601 0.8667693 -0.2857029 11905981 male
1.341634 0.5402386 -0.7606291 -0.7980646 -0.002887902 0.6025649 5792617 male
1.425172 0.4966756 -1.04602 0.1169342 -0.7153715 -0.6888903 7107457 male
1.697827 0.9154143 -0.5776058 -0.6703787 0.6320539 0.3887161 526344 male
1.786209 0.7862579 -0.6757187 0.6225107 -0.1165306 -0.7738869 14266797 male
-2.550261 0.3523357 -1.332864 0.9682071 -0.1059018 -0.2266275 7103076 male
-2.588038 -0.09860253 -1.351703 -0.8095324 -0.2839223 -0.5138539 2105120 male
-2.636038 0.005775305 -1.442828 0.978643 -0.06827421 -0.1938993 3224376 male
-2.536992 0.0860966 -1.26009 0.4848154 -0.1775302 0.8564096 2565671 male
-2.553138 0.3142481 -1.34639 0.8808148 0.1442389 -0.4509554 7761515 male
-2.74701 -0.1275733 -1.408384 -0.8442828 0.3105991 0.4367093 2697005 male
-2.654741 0.455342 -1.432453 0.09342933 -0.005135175 -0.9956129 6709085 male
-2.524445 0.6100711 -1.3104 0.7608001 0.3582171 -0.541169 7565160 male
-2.617316 0.8329384 -1.392781 -0.1890807 0.130296 -0.9732789 15585990 male
-2.668662 0.1344922 -1.483327 0.4550698 0.07189394 -0.8875489 5132374 male
-2.527481 -0.3235326 -1.30047 0.9595933 -0.1942472 0.2035906 2105894 male
-2.597688 0.9062076 -1.390578 -0.09498104 0.4292847 -0.8981612 6445395 male
-2.761312 0.3857853 -1.373969 -0.9566246 -0.06212419 -0.2846231 4669502 male
-2.568 0.358146 -1.385304 0.7932785 -0.1534836 -0.5891964 8090994 male
-2.639654 0.21419 -1.214162 -0.09496216 -0.1414065 0.9853866 9143683 male
-2.602077 -0.06927983 -1.327083 -0.95587 -0.1851906 0.2280733 2696489 male
-2.763829 0.0887281 -1.400145 -0.9687439 -0.1998175 0.1469982 3617847 male
-2.519538 0.6582814 -1.256498 -0.4921071 -0.05542899 -0.8687684 7170147 male
-2.522833 -0.4263416 -1.362291 -0.3449871 0.6282124 -0.697376 1776667 male
-2.535651 0.5661732 -1.249174 0.9154107 -0.3380706 0.2184763 3354670 male
-2.583872 0.7372703 -1.33912 0.7852943 -0.5863822 -0.1986684 13416877 male
-2.511791 0.1552643 -1.358781 0.787232 0.172956 -0.5919057 4014408 male
-2.628763 -0.4267401 -1.500978 0.8790323 0.2731738 0.3907411 2763562 male
-2.594325 0.7003527 -1.658798 -0.1335072 -0.8759433 -0.4635722 8747128 male
-2.697389 -0.3000128 -1.428993 0.9969277 -0.04007134 -0.06730372 2235938 male
-2.750053 0.5619934 -1.26649 -0.6322169 -0.09055404 0.7694817 10788251 male
-2.663744 0.6449347 -1.207435 -0.6125172 0.2931862 0.7340741 9538441 male
-2.541686 0.4955165 -1.253972 0.9212065 -0.1230514 0.3691032 3223337 male
-2.64171 0.02583382 -1.396567 0.9347112 -0.08007909 0.34627 2697257 male
-2.466422 0.6314256 -1.215563 0.6258129 -0.3993394 0.6699898 9142659 male
-2.691043 0.2739094 -1.234533 -0.6092983 0.13812 0.7808193 9339262 male
-2.66137 0.6381364 -1.414471 0.5175996 0.4681536 -0.7161864 6511705 male
-2.508082 -0.1871336 -1.328966 0.8638405 -0.07538982 -0.4980926 3026998 male
-2.481786 0.6589552 -1.298579 -0.5314249 0.4962379 -0.6865389 7958384 male
-2.556457 0.7474874 -1.356106 0.6547565 -0.7318689 0.1888441 11510936 male
-2.776062 0.7058574 -1.435408 -0.9517406 0.1653859 -0.2585297 8420983 male
-2.532785 0.1312861 -1.254679 0.5930586 -0.101611 0.798722 2105892 male
-2.570621 -0.02884439 -1.279022 -0.02024707 -0.1291853 0.991414 3092272 male
-2.664587 -0.08547203 -1.485889 0.4009455 -0.4111498 -0.8186567 3947583 male
-2.759105 0.5792321 -1.273422 -0.664871 -0.09503687 0.7408878 7959919 male
-2.717846 0.4845872 -1.263672 -0.4544708 -0.2216674 0.8627399 7498084 male
-2.629385 0.6858402 -1.563539 0.2449143 -0.9657518 0.08567644 10061955 male
-2.61775 0.9320033 -1.368284 -0.2573576 0.7130944 -0.6521224 4800573 male
-2.784436 0.2631662 -1.342648 -0.9960831 0.01551256 0.08705246 7104356 male
-2.541104 0.8842674 -1.285302 0.8972487 0.08057936 0.4341106 5919050 male
-2.662163 -0.1247109 -1.454024 0.8943559 -0.3484144 -0.280598 2235939 male
-2.727877 0.725395 -1.491505 -0.7290084 0.4335269 -0.5297182 8812917 male
-2.749694 0.1355806 -1.466807 -0.7033408 0.005855176 -0.710829 1842979 male
-2.754156 0.2026945 -1.292634 -0.6163155 -0.3202271 0.7194512 4672079 male
-2.713998 0.6366654 -1.428795 0.004712164 -0.4205273 -0.9072677 5525324 male
-2.696271 0.3514406 -1.264997 -0.5899134 0.2978384 0.7505295 13813441 male
-2.638711 -0.0418803 -1.436715 0.9654487 -0.2557697 0.04990935 2500651 male
-2.513134 0.2389586 -1.299388 0.9680713 0.2501287 -0.01654458 2302758 male
-2.66743 0.312183 -1.4375 0.2201419 0.08348168 -0.9718891 6577242 male
-2.392895 0.5482407 -1.349691 -0.4172062 -0.8799295 -0.2272953 10588044 male
-2.570415 0.9240544 -1.263128 0.6121118 0.5304077 0.5865042 4340793 male
-2.596865 -0.0870608 -1.335891 -0.9819885 -0.1857573 -0.03454351 2630956 male
-2.5851 0.6917462 -1.291494 0.9385233 0.3184715 -0.1332297 4406843 male
-2.652504 0.7052138 -1.354803 -0.05250192 0.09156159 -0.9944146 5064261 male
-2.746356 0.1733257 -1.308577 -0.3723434 -0.6712729 0.6409004 4014149 male
-2.538882 0.211387 -1.249145 0.6593138 0.06037411 0.7494402 2699056 male
-2.716096 -0.3973879 -1.4212 0.8206587 0.05538231 0.5687289 1711650 male
-2.753959 -0.1596744 -1.408341 -0.9320343 0.1003946 0.3481859 2697265 male
-2.64686 0.4533416 -1.431208 0.1482112 0.01184551 -0.988885 7038307 male
-2.659043 0.144439 -1.272261 -0.7913179 -0.477509 0.3818396 5724511 male
-2.762818 -0.4345041 -1.473617 -0.5174202 -0.8555152 0.01923758 1118481 male
-2.689318 0.716651 -1.426295 0.9842484 0.1749067 -0.02574664 7499114 male
-2.506633 -0.4583152 -1.359759 0.07850568 -0.9952825 -0.05700494 526600 male
-2.710438 -0.3412066 -1.442855 0.6917186 0.2995731 -0.6571009 2171177 male
-2.779078 -0.4012357 -1.40503 -0.9291977 0.3383126 -0.1487833 3027254 male
-2.407539 0.5607255 -1.348441 -0.6927084 -0.6124958 -0.3807942 14862273 male
-2.299327 0.6058251 -1.515007 -0.7191464 0.6879534 -0.09771785 16771806 male
-2.550339 0.5701609 -1.186916 0.3681479 -0.7966828 0.4793367 2763562 male
-2.588906 0.947659 -1.344438 0.1846992 0.9251298 -0.3316943 10786699 male
-2.614594 0.5751528 -1.400955 0.8184289 0.05270277 -0.572186 10785670 male
-2.624499 0.4798619 -1.424024 0.4280277 0.1235812 -0.8952765 6709339 male
-2.693896 -0.1200524 -1.386719 0.2627286 0.2801132 0.9233149 2500391 male
-2.534982 0.3150157 -1.283102 0.9066796 0.4075332 0.1088531 3946803 male
-2.429996 0.6487139 -1.258911 0.8138791 0.3069234 0.493355 11509660 male
-2.646904 0.7575073 -1.261662 -0.4383798 0.1333717 0.8888394 16380126 male
-2.530551 -0.2697385 -1.327714 0.5345651 -0.1902118 -0.823444 2303529 male
-2.642996 0.2672658 -1.210563 -0.1028842 0.02185253 0.9944534 7564650 male
-2.304992 0.5655843 -1.391758 0.8970098 -0.2390319 0.371803 15387337 male
-2.507282 0.645847 -1.180417 0.279935 0.0001115602 0.9600191 5327945 male
-2.525451 -0.268758 -1.324139 0.7134486 -0.206639 -0.6695459 2303529 male
-2.631613 0.134939 -1.430763 0.9550008 -0.01036245 -0.2964228 2369324 male
-2.543544 -0.1466668 -1.262236 0.2792452 0.2319276 0.9317896 2105893 male
-2.507845 0.01428442 -1.312505 0.9191848 -0.2603628 0.295484 3027254 male
-2.6344 0.8740689 -1.384897 -0.5630455 0.07804707 -0.8227325 8680819 male
-2.619691 0.3170761 -1.214412 0.01247296 0.2218413 0.9750031 7301220 male
-2.723133 0.7060112 -1.286777 -0.475359 0.626967 0.6172087 10789274 male
-2.458488 0.6806104 -1.246671 0.624823 0.7802876 -0.02734211 11309698 male
-2.635437 0.0776343 -1.392249 0.9531872 -0.1834123 0.2404042 2763051 male
-2.4685 0.810196 -1.791257 -0.4825408 0.8641576 -0.1427799 15190462 male
-2.577962 0.4423465 -1.393293 0.6587555 0.07113282 -0.7489871 7235686 male
-2.636738 -0.02551628 -1.429175 0.9771187 -0.1901666 0.09526858 2828846 male
-2.50739 -0.1474219 -1.324859 0.9643326 -0.008657834 -0.2645528 2304300 male
-2.751463 -0.2266752 -1.437945 -0.9365606 -0.1335402 -0.3240703 1974305 male
-2.549061 0.9195512 -1.296674 0.8078838 0.5349836 0.2472173 3749169 male
-2.563867 -0.1453781 -1.261396 -0.1849177 0.2686954 0.9453087 2565929 male
-2.704512 0.000363317 -1.371121 -0.2789489 -0.2129635 0.9363944 2698289 male
-2.508425 0.6687738 -1.267574 0.3790866 0.2723272 -0.884382 7761000 male
-2.7103 -0.1758189 -1.376433 -0.1077371 -0.007316779 0.9941527 2302507 male
-2.763823 -0.3681601 -1.421683 -0.9820321 -0.04346556 -0.1836405 2368292 male
-2.488366 0.6591744 -1.184633 0.4701779 0.08530851 0.8784392 10919062 male
-2.582376 -0.2215853 -1.337114 -0.4732833 -0.1863069 -0.8609837 1710618 male
-2.619554 0.6822661 -1.593305 0.1325884 -0.9850969 -0.1095651 5721159 male
-2.617225 0.519482 -1.408939 0.5989125 0.2293723 -0.7672629 8813168 male
-2.674115 -0.2194115 -1.406384 0.9258068 -0.244053 0.2886521 1579033 male
-2.758063 0.3346397 -1.315428 -0.7272432 0.4239937 0.5397657 8221036 male
-2.68363 0.8766918 -1.268064 -0.9008037 0.06080837 0.4299482 4932413 male
-2.498107 0.705456 -1.227518 0.1921288 0.9707182 0.1441967 4605248 male
-2.673919 0.9162077 -1.328685 -0.8190249 0.4608182 -0.3418259 3551278 male
-2.622228 0.8462304 -1.391429 -0.3007821 -0.1368357 -0.9438254 14337977 male
-2.596375 0.01503264 -1.269898 -0.3692803 -0.2145941 0.9042022 2762282 male
-2.576218 -0.159757 -1.262295 -0.4421425 0.1787565 0.8789519 3486517 male
-2.544508 0.3746364 -1.296208 0.9893557 -0.04723265 0.1376401 5000003 male
-2.677288 0.5998482 -1.204964 -0.729033 0.06247482 0.6816217 10458512 male
-2.526307 -0.01918728 -1.297101 0.7604085 -0.1575302 0.6300504 2236714 male
-2.733024 0.150952 -1.320973 -0.3269315 -0.524958 0.7858341 4276553 male
-2.613732 0.9204184 -1.239521 0.0418418 0.5042143 0.8625646 4406587 male
-2.619085 0.782887 -1.385695 -0.4367324 -0.309137 -0.8448074 15784911 male
-2.707682 0.17273 -1.483404 -0.1752428 0.167686 -0.97014 2895406 male
-2.610504 0.3265404 -1.416514 0.4469772 -0.01282984 -0.8944535 7958377 male
-2.754833 -0.4297256 -1.413466 0.03629129 -0.9971865 0.06559029 1052688 male
