# .PCD v0.7 - Point Cloud Data file format
VERSION 0.7
FIELDS x y z normal_x normal_y normal_z rgb label
SIZE 4 4 4 4 4 4 4 4
TYPE F F F F F F U U
COUNT 1 1 1 1 1 1 1 1
WIDTH 249
HEIGHT 1
VIEWPOINT 0 0 0 1 0 0 0
POINTS 249
DATA ascii
1.295757 0.296587 -1.285844 0.3737398 -0.03104893 0.9270137 10658221 male
1.364477 0.2936682 -1.103821 0.4553872 0.764923 -0.4555385 4672079 male
1.673667 0.2788597 -1.061128 0.1315583 0.719189 0.682246 526600 male
1.318744 0.1382322 -1.103247 -0.08418165 -0.8130888 0.576021 9936562 male
1.297129 0.2606061 -1.301014 0.2032748 0.6592378 0.7239372 12894169 male
1.665663 0.3101428 -1.195049 0.2556833 0.9445605 0.2059889 9936295 male
1.293412 0.1185175 -1.412441 -0.4294128 -0.577189 -0.6945916 12037311 male
1.303797 0.06447122 -1.332757 -0.4038993 -0.9065505 -0.1226037 7502210 male
1.260321 0.5938578 -1.151673 0.8695004 -0.07770827 0.4877811 15712955 male
1.499939 0.2363452 -1.246435 -0.2011724 0.9708439 -0.1303532 6580088 male
1.521578 0.280244 -0.8443318 0.670573 0.6396081 -0.3758101 526600 male
1.228226 0.6058905 -1.107279 0.6190151 -0.2138222 0.7557118 14201275 male
1.388422 0.3483212 -1.429669 0.951123 0.01188912 -0.3085832 1314580 male
1.367313 0.1925104 -1.319617 0.4561494 0.8479885 -0.2698947 7039355 male
1.190452 0.1257103 -1.303288 -0.8586133 -0.5123751 0.0159713 6252400 male
1.367675 0.3443063 -1.010181 0.1487698 -0.5031244 -0.8513128 526600 male
1.551007 0.127433 -1.23522 0.6909486 -0.7022535 -0.1715519 6054769 male
1.084996 0.4834475 -1.323238 -0.6858619 0.5076661 -0.5214102 9801629 male
1.566409 0.2416274 -0.7843025 0.02877119 -0.1579783 -0.9870234 592137 male
1.251557 0.3839426 -1.254431 0.3346068 -0.1113302 0.9357585 12630227 male
1.275374 0.5457391 -1.245517 0.7532824 -0.4224052 0.5041225 15054258 male
1.342795 0.2312346 -1.193391 0.5326291 0.6809686 -0.5025813 3751751 male
1.692462 0.1751531 -0.8597466 -0.4638089 0.5227016 0.7153072 526600 male
1.415483 0.5053948 -1.604849 -0.4717409 -0.671955 -0.5709089 1249810 male
1.649745 0.1984418 -1.036284 -0.6690697 -0.5628136 -0.4853727 526600 male
1.330918 0.4256445 -1.476687 0.1515791 0.1468569 -0.9774747 11314612 male
1.166955 0.4839426 -1.403821 -0.4067486 0.4933029 -0.7689004 14472937 male
1.111374 0.496673 -1.274333 -0.5385153 0.7329376 0.4156967 6643048 male
1.543659 0.2561645 -1.217536 -0.189538 0.9785435 -0.08079611 986895 male
1.14514 0.1093028 -1.297515 0.5571081 -0.8148398 -0.1602082 11568004 male
1.22851 0.08324065 -1.252519 -0.6392852 -0.7487584 0.1751435 2369068 male
1.153032 0.5416232 -1.314453 -0.6661727 0.7145471 -0.2136262 9868190 male
1.359237 0.3737932 -0.9219459 -0.536119 0.2696321 0.7999218 526600 male
1.038719 0.3593532 -1.30922 -0.7448825 0.1189445 0.6565077 16630713 male
1.185327 0.5237334 -1.204001 -0.5271573 -0.8495176 0.02061419 14594733 male
1.400383 0.5952564 -1.367982 0.8933736 0.4466223 -0.0491145 8485508 male
1.230337 0.2021201 -1.146103 -0.8873266 0.2206062 0.4049498 4474698 male
1.094344 0.4206852 -1.351841 0.1538064 0.1102162 -0.9819348 15909574 male
1.61663 0.1954158 -1.228509 0.682391 -0.5033258 -0.5300995 526344 male
1.33194 0.4517647 -1.470152 0.1544926 0.1851814 -0.9704843 8749458 male
1.3236 0.5559235 -1.417956 -0.01807326 0.5422424 -0.8400277 10394022 male
1.488474 0.5122496 -1.588079 0.8315469 0.4694065 -0.2969632 13085614 male
1.270762 0.6129836 -1.262163 0.6615975 0.7497327 0.01376665 16768472 male
1.254032 0.2313497 -1.460708 -0.4352826 -0.5609274 -0.7041944 10329262 male
1.117656 0.619962 -1.176219 -0.9393845 -0.237238 -0.2475379 11314087 male
1.659416 0.2265273 -1.223876 0.6104866 -0.5388514 -0.58047 723725 male
1.418276 0.5628851 -1.415279 0.8564911 0.3332321 0.3941819 14393241 male
1.495133 0.08297033 -1.289333 0.6818238 -0.6563178 -0.3230529 5067353 male
1.364878 0.2539436 -1.44515 0.8811719 -0.007143554 -0.4727421 8027525 male
1.392214 0.4281616 -1.392779 0.9928008 0.09533051 0.07251623 526600 male
1.233602 0.133663 -1.379221 -0.5261778 -0.5489584 -0.6494472 10722479 male
1.717778 0.1887492 -0.9730499 0.9723369 0.09275273 0.2143779 526600 male
1.203205 0.1639314 -1.203715 -0.907607 0.06971891 0.4139914 4343370 male
1.349929 0.3074596 -1.315856 0.649186 -0.01375269 0.7605053 15923956 male
1.037858 0.3126261 -1.372064 0.6845714 -0.1174986 0.7194136 13542568 male
1.114632 0.6714429 -1.161299 -0.9603693 0.2786527 0.006583333 526600 male
1.355582 0.2969541 -1.020195 0.03498461 -0.9988933 -0.03143401 592137 male
1.664458 0.2312512 -0.7606004 0.7075313 -0.5757496 0.4097703 526600 male
1.344782 0.5423332 -1.300665 0.1800515 0.3256899 0.9281744 8618124 male
1.449173 0.09814636 -1.355753 0.6773172 -0.3240927 -0.6604584 7303801 male
1.215319 0.2010836 -1.201157 -0.8369049 0.5058419 0.2090793 3750976 male
1.705373 0.1617755 -0.8841894 -0.4294944 0.7235965 0.5403172 526600 male
1.701421 0.3440526 -1.153098 0.05215175 0.8256102 0.5618256 526600 male
1.262158 0.1336862 -1.40176 -0.5291491 -0.5224082 -0.6686485 10789036 male
1.263682 0.07030992 -1.203187 -0.2780126 -0.777362 0.5642848 9146780 male
1.704087 0.1032503 -0.8923728 -0.6888443 -0.4413284 0.575085 526600 male
1.402572 0.5634736 -1.351189 0.9044836 -0.3513818 0.2417441 14406883 male
1.57589 0.2296996 -0.7410616 0.3303338 -0.9383013 0.1023245 526600 male
1.687457 0.218373 -1.058347 0.5916189 -0.8030105 0.07184115 526600 male
1.67806 0.1153023 -0.9759146 0.08111078 -0.533891 -0.8416539 526600 male
1.077852 0.3300683 -1.336186 0.885947 -0.3851265 0.2584093 8812409 male
1.048597 0.1912754 -1.381843 0.5378847 -0.576245 -0.6153224 1315348 male
1.260743 0.4011063 -1.25782 0.4720374 -0.06692535 0.8790346 15786901 male
1.176162 0.6801012 -1.097536 -0.07167208 0.4517969 0.8892371 526600 male
1.298913 0.5199637 -1.272169 0.4057118 0.2290747 0.8848293 15327220 male
1.314435 0.09101687 -1.396249 -0.2683533 -0.7145985 -0.646015 10792124 male
1.728636 0.2680446 -1.190695 0.4827263 -0.7751917 -0.4074962 526600 male
1.260106 0.2375953 -1.267438 -0.01927695 0.9108195 0.4123543 12368580 male
1.183392 0.1338663 -1.271053 -0.2836694 -0.496397 0.8204398 16238534 male
1.142194 0.612973 -1.099212 -0.613398 -0.1622058 0.7729374 789516 male
1.418064 0.3020125 -0.8818262 -0.4958479 -0.06486453 0.8659835 526600 male
1.195713 0.1424938 -1.354136 -0.671429 -0.5177378 -0.5302176 11512765 male
1.018444 0.3075376 -1.410791 -0.195144 0.02756149 -0.9803873 16236474 male
1.05595 0.4271733 -1.292818 -0.8953652 0.0288927 0.4443943 10918561 male
1.415416 0.3572887 -0.9013243 0.2530257 0.6614382 0.7060293 526600 male
1.487252 0.2301742 -1.223675 -0.4302509 0.8738062 0.2265984 6119276 male
1.330558 0.257212 -1.024216 -0.5660537 -0.5898171 0.575933 657418 male
1.339349 0.3517739 -1.003206 -0.7820023 0.4302257 0.4509746 1250068 male
1.158019 0.584461 -1.102587 -0.3632328 -0.4926335 0.7908061 16041149 male
1.200757 0.1307196 -1.232454 -0.8943156 -0.2841552 0.3456231 2698289 male
1.310568 0.5938584 -1.328308 0.2179226 0.9465914 0.2376433 6974064 male
1.066651 0.3501573 -1.295315 -0.05224189 -0.2449879 0.9681176 16435400 male
1.665737 0.3151294 -1.102683 -0.3281835 0.7503946 0.5737626 526344 male
1.590032 0.386139 -1.592823 0.5957997 0.7919503 0.1335558 13998490 male
1.154113 0.3576129 -1.311608 -0.6862172 -0.4261129 0.58952 526600 male
1.68803 0.2415972 -1.023923 0.3721316 0.7820705 0.4998838 526600 male
1.268716 0.1424508 -1.120193 -0.5414228 -0.4519199 0.7089638 8884123 male
1.70993 0.3348457 -1.140018 0.3206348 0.7418349 0.5889603 526600 male
1.119023 0.6082184 -1.168666 -0.9328297 -0.3269294 -0.1514784 11774123 male
1.316022 0.264602 -1.030178 -0.7922794 -0.09027186 0.6034438 4014152 male
1.452728 0.1520859 -1.180613 -0.4230238 0.06959464 0.903442 3751753 male
1.213701 0.4822936 -1.250841 -0.1621128 0.2135041 0.9633979 15459318 male
1.729324 0.262163 -1.169398 0.5891432 -0.7708572 -0.2422593 526600 male
1.692572 0.1404255 -0.9816058 0.1013331 -0.8812545 -0.4616516 526600 male
1.065096 0.4491038 -1.327267 -0.7538773 0.3209294 -0.5733002 6710127 male
1.398587 0.3814947 -0.9242252 0.3830698 0.7702479 0.5098781 526600 male
1.482722 0.4981511 -1.551538 0.3368472 0.4777516 0.811349 16307925 male
1.286385 0.4840625 -1.262544 0.2617835 -0.02991308 0.964663 14012650 male
1.695619 0.2737071 -1.068393 0.5148528 0.5388409 0.666766 526600 male
1.270543 0.5620018 -1.401839 -0.3328229 0.7632435 -0.5537944 12103104 male
1.24733 0.6879367 -1.184969 0.8259916 0.5601075 -0.06338292 13616328 male
1.067812 0.4673765 -1.317163 -0.766664 0.4055499 -0.4977506 7565691 male
1.247991 0.6786037 -1.14602 0.8454189 0.4607376 0.2701624 7103849 male
1.246568 0.5591354 -1.155182 0.5088471 -0.5670283 0.6477294 15777462 male
1.380695 0.3398904 -1.015857 0.4787808 -0.6337599 -0.6075503 526600 male
1.342338 0.3315824 -0.9760377 -0.8056046 -0.5640611 -0.1812082 526600 male
1.230728 0.2578591 -1.295121 -0.1030656 0.2159337 0.9709532 7038579 male
1.208803 0.4742176 -1.420835 -0.2418918 0.5080334 -0.8266743 12235204 male
1.309565 0.1948102 -1.060752 -0.5518898 -0.4316936 0.7134832 5528421 male
1.46943 0.08050151 -1.322759 0.6715504 -0.5489379 -0.497682 4145737 male
1.140958 0.7090031 -1.179542 -0.6162629 0.7609804 -0.2028028 526344 male
1.239983 0.52549 -1.188029 0.6121868 -0.7014088 0.3650384 11040118 male
1.449344 0.1948388 -1.20158 -0.4704759 0.6634275 0.5818216 2763053 male
1.333361 0.2770363 -1.320151 0.5764573 0.1066924 0.8101319 11380413 male
-2.525039 0.3561198 -1.43866 0.8193864 -0.552527 -0.1527092 5328969 male
-2.604265 0.04679472 -1.381318 -0.3030076 -0.03168172 -0.9524615 2434859 male
-2.71799 -0.3062629 -1.333058 0.9888269 -0.09532014 -0.1146118 1644826 male
-2.57615 0.1121469 -1.234771 0.4264619 -0.2272592 0.8754907 2302507 male
-2.549877 0.3287551 -1.436265 0.6806433 -0.6601725 -0.317643 6248274 male
-2.758437 -0.1027813 -1.292594 -0.173332 0.2005785 0.9642222 2434859 male
-2.543835 0.524865 -1.598973 0.4516726 -0.09211586 -0.8874159 5853519 male
-2.552518 0.4059282 -1.549689 0.03219233 -0.7268205 -0.6860726 16767157 male
-2.577018 0.6373199 -1.757779 -0.6204793 -0.3551968 -0.6991717 14929599 male
-2.689562 0.05103039 -1.3275 0.9923105 -0.1156689 -0.04405499 1842205 male
-2.533595 -0.3365189 -1.358716 0.8044215 0.04104582 -0.5926393 2368811 male
-2.582136 0.6774669 -1.768896 -0.7450733 -0.05699501 -0.6645433 14929606 male
-2.744723 0.4294605 -1.398528 -0.8643933 0.2342168 0.4449348 9866633 male
-2.617797 0.2891774 -1.447487 0.1790203 -0.6341851 -0.7521709 7038051 male
-2.62407 0.3317986 -1.255156 0.01792677 0.670003 0.742142 8090477 male
-2.618131 -0.1224807 -1.305696 -0.8958201 -0.08067587 0.4370332 2302243 male
-2.785272 0.004765934 -1.294496 -0.7683485 -0.2596585 0.5849944 2235940 male
-2.449594 0.496927 -1.576244 -0.7043127 -0.595575 -0.3863084 7301223 male
-2.514027 -0.4638152 -1.417948 -0.1134181 -0.9923946 -0.0478463 591881 male
-2.468803 0.4758832 -1.525248 0.7309428 -0.6596919 0.1747267 5787472 male
-2.529775 0.5557337 -1.678201 0.6449994 -0.7534036 -0.1279016 13416877 male
-2.580724 0.1252198 -1.381367 0.1583257 0.09891406 -0.9824201 3421756 male
-2.653053 -0.4519388 -1.47227 0.9629682 -0.2491718 -0.1029853 2631464 male
-2.541176 0.3062385 -1.767727 0.7607603 -0.2499585 0.5989698 13020845 male
-2.724399 -0.207016 -1.36219 0.670923 -0.001163566 -0.7415264 2500137 male
-2.700148 0.5807358 -1.506647 -0.3703902 0.8505271 0.3733829 10656657 male
-2.61711 0.5810575 -1.476149 -0.3232524 0.8151355 0.4806892 8288882 male
-2.488451 0.4672469 -1.423253 0.8715711 -0.142176 0.4692014 3486773 male
-2.702703 0.05102188 -1.374691 0.8495349 -0.0251432 -0.526933 3091249 male
-2.377152 0.5017656 -1.551011 0.86678 0.1977807 0.4577942 9670535 male
-2.672956 0.2718005 -1.22404 -0.2031184 0.2885814 0.9356623 9209213 male
-2.597063 0.526653 -1.618498 0.1677064 -0.3570425 -0.91891 8090482 male
-2.535445 -0.2124361 -1.285813 0.7899224 -0.05345301 0.6108729 2368292 male
-2.434151 0.5006955 -1.595729 -0.4896976 -0.04536864 -0.8707113 8221806 male
-2.521661 0.5513304 -1.703735 0.2212443 -0.9362123 0.2730523 11839899 male
-2.751378 0.503038 -1.618738 -0.8747303 -0.4479558 0.1848857 3552302 male
-2.624631 0.1860237 -1.377319 0.08325213 -0.09647678 -0.9918476 2895152 male
-2.687822 0.1809853 -1.282948 -0.7757308 -0.5833111 -0.2408115 526600 male
-2.763411 -0.06788119 -1.393749 -0.6245302 -0.07394726 -0.7774923 3289397 male
-2.612947 0.6058761 -1.526386 -0.1712419 0.9369153 0.3047393 8156270 male
-2.639829 0.5541996 -1.444644 -0.1369894 0.7100108 0.6907378 8353652 male
-2.558795 0.3426894 -1.815681 -0.48023 0.7315375 -0.4839755 15717309 male
-2.59775 0.7029542 -1.745443 -0.8654166 0.1303611 -0.4837979 8090995 male
-2.757186 0.2619256 -1.234429 -0.4434217 0.2460388 0.8618829 11116701 male
-2.469691 0.7174929 -1.691463 0.9444003 0.2863854 0.1615294 3881270 male
-2.732935 -0.06643573 -1.400714 0.2409516 -0.152457 -0.958488 4278352 male
-2.648666 0.4954922 -1.690787 0.6604263 0.559801 -0.5004599 8550515 male
-2.826033 0.09653956 -1.326838 -0.9854188 -0.1687082 0.02208436 1908257 male
-2.729117 0.2818833 -1.233606 -0.1616223 0.3829287 0.9095297 10129547 male
-2.738568 0.4311608 -1.515589 -0.8289012 -0.2760124 -0.4865597 3946035 male
-2.631473 0.2768203 -1.219685 0.05401593 0.3527894 0.9341425 9339773 male
-2.72376 0.0355912 -1.396912 0.4725422 -0.06699258 -0.8787583 3883594 male
-2.535553 0.2372275 -1.296314 0.9759384 0.09833923 0.1946124 5590860 male
-2.685935 0.2865423 -1.448284 -0.3375665 -0.6265759 -0.7024611 5788494 male
-2.330072 0.3239354 -1.599258 -0.9695061 -0.237417 -0.06075615 15716814 male
-2.479323 0.7392474 -1.708548 0.8033454 0.5882584 -0.09267306 3354670 male
-2.621121 -0.1291877 -1.316004 -0.9678875 -0.1501691 0.2016021 2171171 male
-2.563518 0.6146545 -1.574072 0.01213663 0.9726558 0.2319341 8946816 male
-2.695301 0.6006995 -1.592697 -0.4641828 0.8157628 -0.3450587 4933187 male
-2.800607 0.1288102 -1.262307 -0.6443982 -0.2836563 0.710134 3355963 male
-2.550823 0.2353088 -1.342457 0.6839108 0.1583365 -0.7121768 7959409 male
-2.750369 -0.3976452 -1.348083 0.9540189 0.1590155 0.2540913 1777186 male
-2.796552 -0.1802603 -1.311646 -0.9442283 -0.03047874 0.3278786 2235682 male
-2.770854 0.3536732 -1.383426 -0.9845407 0.1144839 -0.1325648 3026477 male
-2.651036 -0.01212511 -1.313969 -0.9889435 -0.1478228 0.01181704 2170657 male
-2.786563 -0.4574409 -1.33219 0.2226837 -0.9708483 0.08868805 789004 male
-2.667713 0.5204846 -1.693562 0.6943486 0.2182654 -0.6857409 6643802 male
-2.550179 -0.428128 -1.378831 -0.9462938 0.1724133 -0.2734992 1777444 male
-2.774444 -0.3673989 -1.322428 -0.6960236 -0.2749266 0.6632999 2565927 male
-2.804644 -0.4393204 -1.359111 -0.9741082 0.06211409 0.2173834 2171169 male
-2.366913 0.3804671 -1.600982 -0.8535985 -0.5201732 -0.02809882 16046033 male
-2.29659 0.3644588 -1.762797 0.5057965 0.844189 0.1775245 15584445 male
-2.490667 0.4447052 -1.545671 0.5963156 -0.528747 -0.6040155 6249815 male
-2.541357 0.7504198 -1.758204 -0.08469419 0.7946572 -0.6011214 10786699 male
-2.651256 0.4155406 -1.581554 0.02501367 -0.6799188 -0.7328608 7499108 male
-2.548567 0.5009405 -1.596277 0.3405424 -0.3080998 -0.8883162 8024428 male
-2.794114 -0.2278721 -1.340128 -0.9667068 -0.2074161 -0.149856 1907998 male
-2.549162 0.2561092 -1.353386 0.6881593 -0.0419289 -0.7243474 6446169 male
-2.351964 0.4561371 -1.619996 0.4252678 0.7203147 -0.547991 16111048 male
-2.561125 0.6205577 -1.597504 0.01283176 0.6913434 0.7224125 16772834 male
-2.535423 -0.2636737 -1.35371 0.6891668 -0.06000202 -0.7221144 2303017 male
-2.630713 0.3903377 -1.307814 -0.05451925 0.4882473 0.8710008 9668995 male
-2.264314 0.3453713 -1.669703 0.9180087 0.3804566 -0.1118611 16374992 male
-2.400729 0.5526164 -1.578606 0.7299343 0.5626458 -0.3881056 8487035 male
-2.535052 -0.2447885 -1.354786 0.6833589 -0.04344505 -0.7287891 2566703 male
-2.686469 0.07054255 -1.327929 0.9881645 -0.1386807 -0.06556469 2171429 male
-2.544622 -0.1016612 -1.322166 0.9856944 0.1653192 0.03281021 2697257 male
-2.564735 -0.0421706 -1.370777 0.6985525 0.04632677 -0.7140577 3356991 male
-2.514966 0.7041028 -1.788622 0.2463101 0.2757507 -0.9291358 9932935 male
-2.594558 0.2438477 -1.221161 0.5259404 0.1728029 0.8327821 8748921 male
-2.711096 -0.4641617 -1.449649 -0.7446496 -0.6666853 0.0320583 264457 male
-2.383663 0.52736 -1.567232 0.809394 0.5769034 -0.1098363 10326409 male
-2.694999 -0.06542325 -1.335801 0.9825 -0.1152758 -0.146306 1972766 male
-2.432456 0.3619691 -1.890946 -0.7614458 0.1250465 -0.6360535 14795704 male
-2.75029 0.3225374 -1.4255 -0.749294 -0.3669773 -0.5512589 4472892 male
-2.712196 -6.451271E-05 -1.387471 0.6277283 -0.01460012 -0.7782959 3619391 male
-2.541447 -0.007087179 -1.326005 0.9684268 -0.2415404 0.0617094 2696746 male
-2.762145 -0.2085227 -1.382128 -0.1864048 -0.07496639 -0.9796089 2170913 male
-2.465573 0.703101 -1.723271 0.9755324 0.1745479 -0.1336779 4077361 male
-2.546553 -0.1419743 -1.285587 0.7215964 0.2770757 0.634451 2104610 male
-2.707723 0.02501413 -1.284612 0.6875789 -0.1863722 0.7017841 2302499 male
-2.423377 0.5584236 -1.510369 0.6698002 0.591072 0.4494461 6381145 male
-2.762885 -0.1792739 -1.28023 -0.2186181 -0.0004496768 0.9758105 3157808 male
-2.77205 -0.3882821 -1.387055 -0.5872874 0.4715799 -0.657804 2368804 male
-2.401534 0.5559437 -1.547971 0.7815645 0.6161962 0.09726027 11380380 male
-2.585559 -0.1308609 -1.362277 -0.3495503 -0.3313077 -0.8763846 1973793 male
-2.592124 0.2991739 -1.717229 0.6127203 -0.3501313 0.7085071 13351349 male
-2.605231 0.4084073 -1.549993 0.3820064 -0.6016316 -0.701506 16509877 male
-2.723222 -0.3211904 -1.333901 0.9949235 -0.05368147 -0.08512264 1644825 male
-2.754968 0.3671999 -1.332967 -0.609826 0.6883013 0.3928787 6182993 male
-2.603467 0.7256694 -1.667544 -0.8850059 0.3157829 0.3421197 4471612 male
-2.437921 0.5222792 -1.593557 -0.2665729 -0.2878599 -0.9198238 10261900 male
-2.603894 0.7344452 -1.702033 -0.8918802 0.4407849 -0.1012847 4998462 male
-2.586744 0.6509587 -1.753114 -0.8477306 -0.2078375 -0.4880131 12825255 male
-2.566419 0.009655231 -1.271408 0.6532275 -0.2116803 0.7269701 2367780 male
-2.539525 -0.1222051 -1.322679 0.9716074 0.2365188 0.006190181 2104611 male
-2.512598 0.3824465 -1.412723 0.9169627 -0.2943988 0.2692749 3355441 male
-2.643295 0.4413002 -1.348835 -0.3574923 0.5498844 0.7548686 8551031 male
-2.527506 0.08474149 -1.306143 0.980104 -0.07212981 0.1849152 2170145 male
-2.797359 0.1438568 -1.255712 -0.636292 -0.297618 0.7117276 2697265 male
-2.544273 0.7186534 -1.620142 -0.09371173 0.3698535 0.9243522 6313295 male
-2.566013 0.5938183 -1.748592 -0.6504027 -0.4782734 -0.590111 16771294 male
-2.700519 0.1608107 -1.371716 0.7072459 -0.05497773 -0.7048268 2828846 male
-2.689823 0.2327486 -1.410644 -0.256335 -0.28973 -0.9221438 7564392 male
-2.761071 -0.4566187 -1.396383 0.4393202 -0.898088 -0.02087179 592137 male
