# .PCD v0.7 - Point Cloud Data file format
VERSION 0.7
FIELDS x y z normal_x normal_y normal_z rgb label
SIZE 4 4 4 4 4 4 4 4
TYPE F F F F F F U U
COUNT 1 1 1 1 1 1 1 1
WIDTH 246
HEIGHT 1
VIEWPOINT 0 0 0 1 0 0 0
POINTS 246
DATA ascii
1.482418 1.02867 -0.7121116 0.04527292 -0.1749573 0.9835346 9144216 male
1.442279 0.6137044 -0.8262427 0.6387796 -0.2951116 -0.7105418 526600 male
1.534472 0.4844532 -0.9226694 -0.790046 -0.3007818 0.5341889 526600 male
1.381334 0.7754045 -0.7281854 -0.8565709 -0.03444607 0.5148784 3488065 male
1.491305 1.014167 -0.7141095 0.181496 -0.03138878 0.9828906 9078680 male
1.538884 0.591279 -0.9478573 -0.8260964 0.3459592 -0.4448335 526600 male
1.568564 1.19992 -0.7433086 0.6190626 0.2538016 0.7432001 14348754 male
1.429585 1.383495 -0.7322866 0.3388135 0.8024635 0.4911799 15261682 male
1.59103 1.545121 -0.7885705 0.965694 -0.008904283 -0.2595301 16175821 male
1.585628 0.7978779 -0.8003109 0.1187562 -0.2180232 0.9686913 5923697 male
1.326918 0.4693082 -0.8420519 -0.8080106 -0.05105389 -0.5869517 526600 male
1.588886 1.592763 -0.7745003 0.9468671 0.3202295 -0.02992895 16040647 male
1.593609 1.105321 -0.881404 0.7824256 0.05385146 -0.6204112 3223601 male
1.54767 1.104223 -0.7172278 0.5987513 0.00123446 0.800934 11644094 male
1.376241 0.9353874 -0.7841603 -0.9807061 0.1565988 0.1170146 3027255 male
1.430662 0.6458861 -0.8367667 0.197408 -0.08581298 -0.9765583 855055 male
1.560559 0.7877194 -0.9378585 -0.1133678 0.01156845 -0.9934857 12437462 male
1.380195 1.248791 -0.715278 0.9781176 -0.2053136 0.03364855 2500653 male
1.36611 0.2364329 -0.7427034 -0.05927809 -0.9964499 0.05978099 526600 male
1.376552 1.265869 -0.7300189 -0.4875458 -0.4594654 0.7424222 657930 male
1.523673 1.416357 -0.7512525 0.2284685 -0.4058286 0.8849323 16570323 male
1.517943 0.8357493 -0.734794 0.8174448 -0.3419196 0.4635461 5856105 male
1.697842 0.2601982 -0.8458568 0.1530107 -0.9786012 -0.1375767 526600 male
1.672423 1.030232 -0.9311658 -0.4055976 0.02665515 0.913663 9864847 male
1.593698 0.3826648 -0.9332649 -0.03094691 0.007975437 0.9994893 526600 male
1.444778 1.270193 -0.8952422 -0.7832966 0.01768594 -0.6213964 12302539 male
1.403588 1.335892 -0.8548665 -0.5187761 0.2706271 -0.8109453 13816034 male
1.543647 1.199927 -0.7212773 0.6389794 0.2401865 0.7307639 12051622 male
1.536933 0.6668799 -0.8523166 -0.6011683 -0.2096534 0.7711304 4144710 male
1.318528 1.274863 -0.7133915 -0.9369561 0.1626415 0.3092912 15118247 male
1.427627 0.9807875 -0.8907424 -0.5992342 0.2554734 -0.7587171 6975610 male
1.57415 1.356948 -0.8038391 0.7093309 0.4705108 0.5248516 12103621 male
1.351487 0.451797 -0.7724231 -0.2857291 -0.1690253 0.9432865 526600 male
1.337262 1.333511 -0.7006662 -0.6072868 0.06893513 0.7914863 7434105 male
1.526839 1.468937 -0.7062592 -0.1937157 -0.3065099 0.9319473 12689815 male
1.567471 1.345926 -0.9680783 -0.3994313 -0.01894072 -0.9165674 8880784 male
1.381521 0.877838 -0.7373801 -0.898501 0.09020211 0.429604 2828851 male
1.345647 0.5875035 -0.7988256 -0.9061756 0.3418585 0.2489549 526600 male
1.614761 0.5959074 -0.8734887 0.5073097 -0.5824426 0.6351358 526600 male
1.444595 1.301502 -0.8900452 -0.8077741 0.1722909 -0.5637525 12629706 male
1.472531 1.085466 -0.8828423 -0.6623544 -0.1042864 -0.741897 11116209 male
1.681751 1.067602 -0.9645155 0.9013516 0.2836764 -0.3272506 15055547 male
1.530645 1.527763 -0.8611623 0.3595714 -0.2908363 -0.8866356 12168624 male
1.566382 0.9755456 -0.932951 0.3637701 0.1118749 -0.924746 5133408 male
1.466668 1.585749 -0.7372634 -0.6966825 0.1917584 0.6912758 11314087 male
1.569829 0.5566142 -0.8898174 -0.1076454 -0.2951998 0.9493521 526600 male
1.626628 1.303079 -0.9396422 0.9611189 0.2333871 -0.1475831 15649220 male
1.639475 0.7852322 -0.9018263 0.8526266 0.01130998 -0.5223982 7303552 male
1.534832 0.9141405 -0.9489916 0.02442697 0.08670704 -0.9959344 9080219 male
1.605614 1.226107 -0.8699244 0.9645818 -0.0440128 -0.2600861 3750721 male
1.391293 0.980617 -0.8602728 -0.7279719 0.2602469 -0.6342936 6909825 male
1.563404 0.6826785 -0.8334772 -0.3287961 -0.2654291 0.9063335 5067869 male
1.398006 0.9414833 -0.7223051 -0.8033375 0.1317129 0.5807758 7435905 male
1.622823 0.9849681 -0.8467942 0.941834 0.1498149 0.3008389 9143694 male
1.333761 1.122297 -0.7097712 0.9742882 0.1328579 0.1819643 15779530 male
1.466814 1.615289 -0.7550794 -0.6271265 0.566258 0.5348498 723723 male
1.378407 0.7281744 -0.8129498 -0.8882731 0.03264358 -0.4581544 5002076 male
1.420819 1.41956 -0.784107 -0.3618239 0.9006241 0.2407482 6840680 male
1.522084 1.375618 -0.9233775 -0.2141429 0.5759715 -0.788923 11708858 male
1.511246 0.8773055 -0.9385993 -0.3277806 -0.3975754 -0.857026 6843516 male
1.444943 0.9392394 -0.6992176 0.06295341 0.1582167 0.9853955 11317693 male
1.587273 0.2965634 -0.947388 -0.8141654 -0.06866981 0.5765579 526600 male
1.617504 0.467802 -0.9627302 0.8890315 -0.09963736 -0.4468729 526600 male
1.531905 1.254317 -0.7169584 0.8275651 -0.0233452 0.5608841 11117240 male
1.450629 0.7985656 -0.8500015 0.02347347 -0.1256498 -0.9917969 5989227 male
1.62809 0.2742301 -0.9966314 0.3008844 -0.7259226 -0.6184698 526600 male
1.634658 1.360986 -0.8872216 0.825525 0.3160603 0.467562 9603735 male
1.330117 0.2387173 -0.7389548 -0.122821 -0.9849302 0.1217686 526600 male
1.613397 0.3560384 -0.9455383 0.8657311 0.2017584 0.4580429 526600 male
1.56388 0.3264183 -1.006963 0.3646299 0.3539066 -0.8612753 526600 male
1.322429 1.164697 -0.7048391 0.8027003 0.2987769 0.516144 15184821 male
1.291169 1.09538 -0.739213 -0.4710956 -0.5112013 -0.7188478 13474726 male
1.458736 1.250869 -0.6870763 -0.1933465 -0.3349496 0.9221854 7170933 male
1.561136 1.629913 -0.7597139 0.5626493 0.7999963 0.2084023 526600 male
1.59728 1.254219 -0.7747019 0.7453077 -0.03640207 0.6657261 12625053 male
1.510393 1.263416 -0.6954631 0.5325811 0.04430917 0.8452183 15723519 male
1.53533 0.5915798 -0.9212788 -0.9806154 0.1764919 0.0851123 526600 male
1.402176 1.031565 -0.7373104 -0.6688222 0.412892 0.6182208 8683661 male
1.343461 1.283198 -0.6913357 -0.2174813 0.2736132 0.9369299 15249068 male
1.466656 1.445656 -0.8318834 -0.6572486 0.1915374 -0.728929 15643044 male
1.375608 0.3847714 -0.8047083 0.9246404 -0.1884947 0.3309227 526600 male
1.377846 1.008052 -0.8209963 -0.9125013 0.2834068 -0.2949946 10985644 male
1.312836 1.062069 -0.6578774 -0.2798449 0.3372032 0.8988774 15911629 male
1.402638 1.344681 -0.7127079 0.8026643 -0.4993412 0.3261723 1051664 male
1.381236 0.3939423 -0.8114721 0.9343569 -0.2593764 0.2443378 526600 male
1.53501 0.7994876 -0.8067827 -0.4183054 -0.2798534 0.8641196 3881535 male
1.339046 0.5381331 -0.7810638 -0.7476597 0.1726293 0.6412519 526600 male
1.422637 0.6849493 -0.7222609 -0.08515581 -0.3996729 0.9126939 7634057 male
1.59206 1.576994 -0.782019 0.9768391 0.1550797 -0.1474297 13348791 male
1.391079 1.002882 -0.738705 -0.8205104 0.2043703 0.5338497 7039091 male
1.481518 1.407788 -0.8670657 -0.5273159 0.6893429 -0.4967336 12632016 male
1.337062 1.347615 -0.7620633 -0.8503758 0.05603087 -0.5231839 10130594 male
1.548319 0.7399074 -0.8242244 -0.4066858 -0.3167719 0.856891 4145735 male
1.734972 0.9121214 -0.9802247 0.8575528 -0.1269164 -0.4984932 10520196 male
1.603164 1.051271 -0.7950288 0.9616727 -0.1423663 0.2343449 9078681 male
1.539441 0.5305958 -0.9054769 -0.6128354 -0.06043135 0.7878965 526600 male
1.396417 0.4579363 -0.8014103 0.8793535 -0.2251979 0.4195512 526600 male
1.571207 0.5297193 -0.989113 -0.03103638 0.108831 -0.9935757 526600 male
1.499702 1.602491 -0.7210487 -0.370733 0.4480212 0.8135319 8748925 male
1.338715 0.5294002 -0.8519133 -0.6294463 0.1982658 -0.7513242 526600 male
1.529464 0.6552601 -0.9060396 -0.914021 -0.05395206 -0.4020631 527368 male
1.418574 1.290481 -0.7002202 -0.3934388 -0.6380002 0.6619378 592137 male
1.523949 0.5264797 -0.9396802 -0.9993989 -0.003771892 -0.03446043 526600 male
1.606866 0.3217223 -0.9955188 0.5534413 0.06974116 -0.8299631 526600 male
1.399894 1.350968 -0.6848285 0.4925526 -0.2815752 0.8234727 8024962 male
1.408229 0.5790916 -0.7519773 0.2584187 -0.5558404 0.7901021 526600 male
1.679702 1.063055 -0.9365112 0.4309561 0.4437035 0.7857506 15121082 male
1.545098 1.272502 -0.7421485 0.776836 0.03825643 0.6285397 16776697 male
1.574158 0.7041985 -0.824402 -0.1506097 -0.2450425 0.9577426 4145482 male
1.502195 1.019871 -0.9273924 -0.3636124 0.4336337 -0.8244683 8421003 male
1.524459 1.591116 -0.8706772 0.2654846 0.1993069 -0.9432892 4933195 male
1.38931 1.338457 -0.7349979 0.4759817 -0.8636813 0.1658188 526344 male
1.546311 1.610656 -0.8509219 0.5452939 0.4839733 -0.6844153 4276805 male
1.576396 1.538835 -0.7418382 0.5421085 0.4658104 0.6993848 9597552 male
1.446113 0.6925862 -0.8351238 0.3983916 -0.1041107 -0.9112876 4672854 male
1.348929 0.4836846 -0.7689877 -0.431084 -0.06498101 0.8999689 526600 male
1.456943 1.055865 -0.7072349 -0.2044733 -0.1338936 0.9696717 4605772 male
1.415812 1.278254 -0.8685457 -0.5203188 0.03386974 -0.8533002 12432837 male
1.359026 0.5628034 -0.7665102 -0.5404721 0.1239712 0.8321785 526600 male
1.557382 0.9012246 -0.9452465 0.1776381 0.02324174 -0.9838213 6514547 male
1.447389 1.611113 -0.8249676 -0.8193641 0.4879874 -0.30085 526344 male
1.590433 1.500301 -0.7617013 0.9825109 -0.1677602 0.08080187 16236730 male
1.616528 0.8647977 -0.8013942 0.5772214 0.0569029 0.8146027 6712703 male
-2.379382 0.3957182 -1.395994 0.8914029 -0.4265945 0.15303 7367528 male
-2.447326 -0.06071616 -1.407636 -0.1916955 -0.2799887 -0.9406696 1974306 male
-2.594419 -0.2649419 -1.467057 0.5570443 -0.2288998 0.7983149 1644825 male
-2.485698 0.1046066 -1.280607 0.1564603 -0.1521035 0.9759022 2368036 male
-2.407662 0.3476351 -1.423639 0.8924078 -0.4004954 -0.207875 7301221 male
-2.516919 -0.1892834 -1.514102 0.8538396 -0.4624194 0.2390112 2500398 male
-2.663133 0.242222 -1.428152 -0.9727314 0.05796275 0.2245758 11905701 male
-2.597925 0.3567634 -1.499117 -0.5706149 0.6665733 -0.4796653 6709086 male
-2.184273 0.6990431 -1.416174 0.1925566 0.539232 -0.8198481 14793396 male
-2.499514 0.06325447 -1.538138 0.851208 -0.08019383 -0.5186658 4211531 male
-2.393005 -0.3246349 -1.311691 0.8941994 -0.04493505 0.4454083 2565928 male
-2.225648 0.7916296 -1.418323 0.03027606 0.3662565 -0.9300213 4669246 male
-2.505679 0.5374171 -1.538011 -0.7166723 0.28464 -0.6366799 5591116 male
-2.466758 0.2230111 -1.46094 0.7323952 -0.04064842 -0.6796656 9406080 male
-2.575131 0.2696088 -1.286215 -0.3054494 0.1060974 0.9462792 6249304 male
-2.506625 -0.001440339 -1.321783 -0.6576892 -0.3349213 0.6747392 3223601 male
-2.51596 0.04710983 -1.555216 0.5714403 -0.150506 -0.8067244 2960687 male
-2.379384 0.5551367 -1.266446 0.2718416 -0.9615967 0.03786759 4867394 male
-2.400654 -0.3746098 -1.344548 -0.1288161 0.2304548 -0.9645193 2236708 male
-2.385237 0.6333282 -1.282879 0.3548258 0.7221309 0.593823 4999492 male
-2.290794 0.6183501 -1.388547 0.6545562 -0.7479917 0.1098399 16771552 male
-2.437697 0.1652986 -1.376955 0.8435786 0.3045847 -0.4422711 3685184 male
-2.607557 -0.4406386 -1.48194 -0.3890105 -0.8513873 0.3518675 526600 male
-2.126749 0.7011357 -1.815778 -0.5546203 0.592927 -0.58381 16772067 male
-2.553049 -0.2405413 -1.534874 0.5236689 -0.7060661 -0.4766986 1908255 male
-2.479792 0.6129255 -1.522099 -0.7829158 0.468809 -0.4089758 6708317 male
-2.439806 0.6533974 -1.379933 -0.5477356 0.8200125 -0.1660285 10195339 male
-2.446339 0.5283967 -1.27884 -0.1946935 -0.8454971 0.4972214 2696742 male
-2.494447 -0.1269641 -1.506747 0.595144 -0.336611 0.7297238 1580065 male
-2.46771 0.5977857 -1.261072 -0.8884107 0.4315343 -0.1565406 6841183 male
-2.617682 0.3235073 -1.381783 -0.8033255 0.5350853 0.2614427 11247517 male
-2.356327 0.6421217 -1.318689 0.6876903 0.2977799 0.662125 4209974 male
-2.370357 -0.2040768 -1.333608 0.9803005 -0.178732 -0.084059 2303275 male
-2.4261 0.5113875 -1.245431 0.8632387 -0.4925013 -0.1107318 9472898 male
-2.253816 0.6405904 -1.375484 -0.101934 -0.960552 0.2587458 11378324 male
-2.267229 0.6615884 -1.56359 0.8981315 0.4107566 0.1569681 6841181 male
-2.448249 0.2069072 -1.318789 0.8765514 0.3193153 0.3601328 3946044 male
-2.43868 -0.05397932 -1.322788 -0.2631944 0.116226 0.9577163 2235682 male
-2.558993 -0.05855423 -1.556988 -0.7108153 0.1029657 -0.6958016 1907741 male
-2.470833 0.6145144 -1.531629 -0.7203717 0.5029963 -0.4775558 6445397 male
-2.414274 0.6774495 -1.438768 -0.4494867 0.8820508 0.1412378 10723483 male
-2.125608 0.6866668 -1.752013 0.6188838 0.3723037 0.6916451 16505035 male
-2.316676 0.7835152 -1.377597 -0.811641 0.3321365 -0.4805459 5196103 male
-2.637495 0.3078838 -1.490262 -0.8565729 0.3030663 -0.4176527 8024687 male
-2.214926 0.7567405 -1.280502 0.3218523 -0.260003 0.9103899 3881270 male
-2.518633 -0.08581851 -1.56953 -0.1527921 -0.1056488 -0.9825951 2303275 male
-2.235201 0.6749869 -1.633738 0.2976632 0.8643326 0.4053715 16243147 male
-2.274403 0.6102875 -1.646403 -0.009590231 -0.9294999 -0.3686978 7365215 male
-2.611794 0.3544726 -1.44023 -0.7428427 0.6557809 0.1346709 7236710 male
-2.380101 0.5431407 -1.541198 0.3113803 -0.2069085 -0.9274866 4406586 male
-2.605052 0.3442221 -1.387082 -0.7688703 0.5871807 0.2530957 13023413 male
-2.569357 -0.2427855 -1.475134 0.6415488 -0.3225279 0.6959822 2302499 male
-2.535724 0.255093 -1.275599 -0.05204031 0.09882516 0.9937432 4801344 male
-2.471205 0.3287529 -1.505966 0.4950682 -0.3491531 -0.7956129 6905951 male
-2.569343 0.4287857 -1.238156 0.2897923 -0.05305082 -0.9556183 15849944 male
-2.216851 0.7959545 -1.276983 0.3544401 0.1972081 0.9140467 4340793 male
-2.493048 -0.03719087 -1.367371 -0.9473906 -0.3196109 -0.01732373 2829358 male
-2.363977 -0.433993 -1.365394 0.127088 0.9227203 0.3639174 1513499 male
-2.306687 0.6252575 -1.497146 0.8244058 0.1140961 0.5543801 7564651 male
-2.587186 0.2778058 -1.546167 -0.3861215 0.1428308 -0.9113231 4275256 male
-2.51193 0.2242796 -1.272756 0.2078739 0.1264603 0.9699467 2303270 male
-2.648581 -0.4118 -1.487167 -0.3049638 -0.790224 0.531548 592137 male
-2.520978 -0.1979438 -1.553943 0.6529534 -0.5923909 -0.4719375 3816770 male
-2.648633 0.2085735 -1.391809 -0.7459247 -0.4400443 0.4999576 7039347 male
-2.59375 0.1191849 -1.360708 -0.8627583 -0.4621098 -0.2051899 1908773 male
-2.38946 0.6742671 -1.387967 -0.4070164 0.8863574 0.2206995 9801357 male
-2.354427 0.6615401 -1.584922 -0.687768 0.5453388 -0.479146 8615540 male
-2.450069 -0.3646359 -1.300116 -0.9089012 0.1160843 -0.4005288 2368292 male
-2.609799 -0.2951543 -1.513542 -0.0793581 -0.4927708 -0.866533 1842206 male
-2.617295 -0.3367857 -1.476969 0.8405734 0.08724858 0.5346254 2369316 male
-2.54905 0.4577186 -1.224547 0.7982385 -0.002133267 -0.6023381 16774890 male
-2.546543 0.3211793 -1.178785 0.1423101 -0.02628867 0.9894732 16112335 male
-2.349428 0.5701262 -1.285421 0.9847945 0.09766008 0.1436751 7037018 male
-2.201472 0.8398526 -1.332594 0.4971843 0.8555292 0.1444909 7169118 male
-2.317397 0.5605045 -1.484293 0.9963526 -0.08385698 -0.01580721 6116947 male
-2.665234 0.2250039 -1.441774 -0.9972783 -0.005099399 0.07355386 3619907 male
-2.557742 -0.1020915 -1.517301 -0.5745196 0.736223 0.3576354 2500910 male
-2.54754 0.3681681 -1.317156 -0.4858026 0.4533229 0.7473249 6509906 male
-2.478089 0.5502962 -1.216991 -0.5412728 0.3978627 0.7407627 4338737 male
-2.165499 0.7989718 -1.329757 0.8333077 0.3985973 0.3830388 6708568 male
-2.407056 -0.2562288 -1.349839 0.2717323 -0.2518066 -0.9288461 2697257 male
-2.556336 0.3612864 -1.317775 -0.4804379 0.5957403 0.6436405 10129546 male
-2.586221 0.3867488 -1.17894 -0.5790773 -0.1842838 0.7941722 15387337 male
-2.426841 0.6187265 -1.227981 -0.4012167 0.6197197 0.6745167 11841192 male
-2.396976 -0.2183484 -1.357366 0.3707347 -0.239465 -0.8973364 2696745 male
-2.4913 0.0749074 -1.508868 0.9966273 -0.04862479 -0.06610495 3752009 male
-2.381442 -0.1066887 -1.320358 0.765883 0.2163356 0.6054935 2565671 male
-2.414883 -0.03443268 -1.407411 0.3420442 -0.1543093 -0.9269276 2434093 male
-2.16355 0.7862988 -1.389508 0.8014464 0.3088843 -0.5121273 5854285 male
-2.495171 0.2885538 -1.281591 0.3093802 0.1805191 0.9336472 3552302 male
-2.38507 0.6840494 -1.48748 -0.1007195 0.9922086 -0.07333234 7169635 male
-2.459672 0.580784 -1.218807 -0.5416753 0.3380523 0.769616 10327694 male
-2.498635 0.03771498 -1.478868 0.8890957 -0.1056053 0.4453725 2829361 male
-2.036764 0.7272497 -1.936849 -0.6020364 -0.6362191 -0.4824703 11837084 male
-2.663421 0.2005973 -1.466425 -0.9853401 -0.1038113 -0.1353825 3816256 male
-2.602812 -0.2740466 -1.466465 0.5515864 -0.1763737 0.8152577 1644826 male
-2.372931 -0.1626843 -1.355677 0.80104 -0.1177781 -0.5869101 2500910 male
-2.561522 -0.1474244 -1.57342 -0.4478615 0.06520888 -0.891722 2303782 male
-2.160318 0.7285503 -1.346658 0.8747799 -0.3321232 0.3527813 12889765 male
-2.387919 -0.1260079 -1.304632 0.6289838 0.2257058 0.7439332 2237737 male
-2.624909 0.1268767 -1.419874 -0.5939354 -0.3524929 0.7231804 3026225 male
-2.335626 0.4998091 -1.345981 0.9486804 -0.2826805 0.141766 9077113 male
-2.57334 -0.217924 -1.555754 -0.206744 -0.4015719 -0.8921868 1908256 male
-2.717472 -0.3430363 -1.458178 -0.8101815 0.3339545 0.4817475 7171957 male
-2.43137 0.6201699 -1.232091 -0.4688167 0.6303942 0.6187199 11972522 male
-2.443696 -0.2207892 -1.358318 -0.5230882 -0.2734093 -0.8072338 1775899 male
-2.196305 0.6730195 -1.763044 -0.737117 0.4745795 -0.4810748 16377305 male
-2.323861 0.548315 -1.404753 0.970381 -0.2385229 0.03831077 5065548 male
-2.592546 -0.2856438 -1.482253 0.8136696 -0.2306063 0.5336319 2302243 male
-2.48725 0.6168649 -1.461238 -0.8288724 0.5487863 0.1086472 7037532 male
-2.316482 0.8040324 -1.32797 -0.8656385 0.4548156 0.209316 6576979 male
-2.370831 0.5889192 -1.22764 0.732299 0.177096 0.6575527 6051917 male
-2.3073 0.8074471 -1.371522 -0.7548234 0.4771407 -0.4500874 4077878 male
-2.180758 0.7226532 -1.402574 0.295188 0.1290985 -0.9466773 16638167 male
-2.499849 -0.02252934 -1.384883 -0.8630698 -0.2671227 -0.4286681 2301987 male
-2.371193 -0.1348453 -1.323344 0.9095035 0.1113771 0.4004981 3224633 male
-2.408842 0.3719888 -1.361978 0.7558724 -0.5044213 0.4173924 5920336 male
-2.511125 0.5739052 -1.385389 -0.8867837 0.4573344 -0.06678489 7564651 male
-2.414727 -0.03241094 -1.328355 0.681409 0.06887861 0.7286548 2697265 male
-2.608281 0.2416059 -1.539766 -0.5545997 0.149203 -0.8186317 4735548 male
-2.249937 0.8109381 -1.275763 -0.05106562 0.391252 0.9188658 7037274 male
-2.241588 0.7260537 -1.436906 -0.04882115 0.1098872 -0.9927444 16572627 male
-2.494704 0.1306418 -1.492539 0.9984541 0.03102473 0.04612094 4145223 male
