# .PCD v0.7 - Point Cloud Data file format
VERSION 0.7
FIELDS x y z normal_x normal_y normal_z rgb label
SIZE 4 4 4 4 4 4 4 4
TYPE F F F F F F U U
COUNT 1 1 1 1 1 1 1 1
WIDTH 252
HEIGHT 1
VIEWPOINT 0 0 0 1 0 0 0
POINTS 252
DATA ascii
1.344376 0.2138373 -1.331941 0.7839743 0.285808 0.5510881 11840965 male
1.412619 0.3272246 -1.102461 -0.03161141 0.8917758 -0.451372 6317425 male
1.765227 0.2942442 -1.224566 0.6390821 0.6585118 0.397412 526600 male
1.41285 0.177405 -1.076006 0.1193219 -0.6503827 0.7501764 2698033 male
1.337082 0.190536 -1.338181 0.660553 0.6250028 0.4159823 10526385 male
1.624074 0.2755817 -1.334844 0.1566228 0.4245109 -0.8917735 4276807 male
1.261456 0.0657177 -1.375703 -0.6430747 -0.6580427 -0.3917074 13026262 male
1.346144 0.00132278 -1.302983 -0.2947848 -0.9368177 0.1883469 5921131 male
1.317419 0.573837 -1.487804 0.4138671 -0.1866496 -0.8909972 14792887 male
1.711717 0.3043054 -1.221393 -0.3683386 0.4697727 0.802272 526600 male
1.52668 0.3565365 -0.9954562 0.8111819 0.5553391 -0.1832554 526600 male
1.332339 0.6524171 -1.483056 0.5249906 0.3114465 -0.792077 15322318 male
1.345202 0.3070918 -1.356148 0.8378392 0.3308862 0.4342118 16498163 male
1.409152 0.09498429 -1.35188 -0.166869 0.6931432 -0.7012183 14541550 male
1.289381 0.04780171 -1.206381 -0.5969682 -0.5569957 0.5773948 2960435 male
1.451529 0.3546985 -1.043389 -0.02376673 -0.4965591 -0.8676776 526600 male
1.522642 0.1099979 -1.364151 0.3170839 -0.1541953 -0.9357786 4738385 male
1.159938 0.4166631 -1.26419 -0.9253971 0.1118306 0.3621245 8025986 male
1.760823 0.2275759 -0.9385757 0.6893424 -0.6816925 0.2451582 526600 male
1.318184 0.3548922 -1.32347 0.7038598 0.320668 0.6338402 14275564 male
1.365143 0.520886 -1.404051 0.6779473 -0.05335772 0.7331715 12163479 male
1.4356 0.2334901 -1.161581 0.6434888 0.4271653 -0.6351786 3422013 male
1.873685 0.1819132 -1.042863 0.3501158 0.5281205 -0.7736327 526600 male
1.587925 0.2291276 -1.487316 0.7559704 -0.5923864 -0.2785447 16236726 male
1.716889 0.2476598 -1.221568 -0.8446015 -0.5339456 0.03937477 526600 male
1.244335 0.1303683 -1.449092 -0.6496396 -0.6731035 -0.353412 10921398 male
1.191515 0.430286 -1.460416 -0.6974161 0.3489027 -0.6260012 14803185 male
1.168159 0.4549983 -1.339958 -0.6856382 0.7218406 0.0940547 8156803 male
1.783877 0.2359704 -1.177134 -0.5840821 0.5978657 0.5490033 526600 male
1.358847 0.4968354 -1.119533 0.7443038 -0.2114144 0.633495 1775894 male
1.254429 0.04676631 -1.314306 -0.6016343 -0.762601 -0.2376462 6316913 male
1.720524 0.2650978 -0.8292104 0.6702979 0.09324494 -0.7362106 526600 male
1.386506 0.3988528 -0.9867786 -0.7367026 -0.2355768 0.6338555 526600 male
1.166473 0.3792278 -1.278468 -0.7822781 -0.6102301 -0.12514 9995401 male
1.407234 0.6106741 -1.394923 0.846714 0.4701295 0.2491058 13412260 male
1.548033 0.3160803 -1.505438 0.4702663 0.7632061 -0.4431321 14131352 male
1.368055 0.173261 -1.252027 0.1197932 0.6789783 -0.7243192 4473935 male
1.217877 0.2450111 -1.061367 0.6635442 -0.5544307 0.5023103 13408925 male
1.629406 0.2180313 -1.283496 0.2063665 -0.7907563 0.5762962 526344 male
1.24283 0.1827109 -1.480584 -0.7504602 -0.4191478 -0.5110034 10986679 male
1.249166 0.274811 -1.530823 -0.6362799 -0.3008186 -0.7103913 12039108 male
1.58989 0.2582051 -1.505561 -0.2619353 0.5134882 -0.8171413 16772582 male
1.3211 0.5255678 -1.474764 0.09528092 -0.2262446 -0.9693992 16634321 male
1.228037 0.2038108 -1.460064 -0.8979764 -0.3028616 -0.3192385 11315386 male
1.240458 0.6403586 -1.374576 -0.3783127 0.2307417 0.8964584 9933206 male
1.600704 0.1677452 -1.336328 0.6462417 -0.2942696 -0.7041144 3947333 male
1.542468 0.4136635 -1.400503 -0.9644447 -0.1119012 -0.2394255 4928821 male
1.516213 0.2871646 -1.503688 -0.1681698 -0.8890983 -0.425703 16303812 male
1.212625 0.275664 -1.481453 -0.8143243 -0.3137149 -0.4883226 11314614 male
1.372726 0.263525 -1.511835 0.8477366 -0.1802527 -0.4988503 4999500 male
1.218821 0.1929089 -1.435655 -0.6638353 -0.4020272 -0.6306322 10458536 male
1.71349 0.3530641 -1.263417 0.2571421 0.7638035 0.5920153 526600 male
1.287706 0.1386097 -1.173215 -0.8613411 0.2051941 0.4647438 3685184 male
1.44495 -0.008766939 -1.309175 0.3636019 -0.9136536 -0.1817436 9212580 male
1.211357 0.3962981 -1.295982 0.5175263 -0.7313947 -0.444104 526344 male
1.232119 0.6688509 -1.393287 -0.4811274 0.6138052 0.6259071 723723 male
1.475609 0.3486771 -1.036642 0.224958 -0.3815976 -0.8965362 526088 male
1.652256 0.2979963 -0.8459065 0.4423298 0.8097772 0.3854934 526600 male
1.322539 0.4530827 -1.54822 0.1286783 0.6915184 -0.7108054 6513003 male
1.482415 0.07105714 -1.373845 0.3540558 -0.1179143 -0.9277611 4474443 male
1.300172 0.1494083 -1.140904 -0.8065692 0.03396932 0.5901629 4936027 male
1.888084 0.191099 -1.062086 -0.5052803 0.3545549 0.7867545 526600 male
1.612016 0.3036496 -1.310141 -0.2980381 0.9484067 -0.1081577 9737892 male
1.337336 0.02777032 -1.402171 -0.2751549 -0.7905777 -0.5470619 9868191 male
1.359791 0.05114609 -1.165089 0.08761871 -0.6171539 0.7819489 9410213 male
1.905333 0.1331733 -1.152362 -0.1464826 -0.7226367 0.6755287 526600 male
1.511528 0.3560725 -1.482391 0.4472662 0.8312835 0.3300315 16506076 male
1.720395 0.2530212 -0.8550674 -0.3104121 0.7897078 0.5291558 526600 male
1.782218 0.2010893 -1.193252 -0.5968182 -0.6983775 -0.3950657 526600 male
1.846461 0.1653264 -1.174672 -0.9620243 0.2725043 -0.01582772 526600 male
1.201134 0.4030523 -1.309271 0.4649653 -0.848039 -0.2542382 526344 male
1.240812 0.2956542 -1.108321 0.1434555 -0.3255125 -0.9345919 15648203 male
1.377964 0.2627638 -1.374274 0.8176031 0.3327381 0.4699048 13033917 male
1.256945 0.6845048 -1.482374 -0.2329505 0.7242052 -0.6490461 526600 male
1.731641 0.2281998 -0.9040362 -0.5130889 0.8181498 0.2595586 526600 male
1.292082 0.03987508 -1.372556 -0.6006346 -0.7225827 -0.3422167 11183026 male
1.713711 0.3907496 -1.325197 0.435219 0.5926118 0.6777874 526600 male
1.207634 0.127245 -1.274755 -0.9460493 0.05678948 0.3190073 6117989 male
1.335266 0.4505876 -1.135533 -0.06320095 -0.7727662 -0.6315364 8614519 male
1.251673 0.4882183 -1.420304 -0.7939401 0.5772122 0.1910113 14659494 male
1.44311 0.4092867 -0.9606677 0.02461433 0.3778737 0.9255299 526600 male
1.189359 0.1306078 -1.351658 -0.8043844 -0.5866098 0.09409937 10262181 male
1.177701 0.3294366 -1.116884 -0.6761338 0.5907066 0.4403508 14855328 male
1.233776 0.3983397 -1.203876 0.622258 0.7352897 0.2685964 16368323 male
1.419903 0.3457121 -0.986855 -0.6360102 -0.6813528 0.3622836 526600 male
1.692629 0.3456751 -1.250799 -0.2187876 0.6120371 0.7599622 526600 male
1.207742 0.3621413 -1.261253 0.4992171 -0.747331 -0.4384961 526344 male
1.491522 0.3743227 -1.03411 0.6507819 0.1631488 -0.7415292 526600 male
1.326324 0.6979266 -1.433919 0.4361039 0.8950132 -0.09361978 13212564 male
1.211151 0.09939639 -1.277003 -0.9029636 -0.3095571 0.2980455 7235702 male
1.778762 0.1880037 -0.9141227 0.326712 0.06025917 -0.9432009 592137 male
1.184143 0.3843124 -1.191006 -0.7361525 0.4639758 0.4927534 15315368 male
1.565331 0.2397707 -1.322397 -0.2055237 0.8189331 -0.5358251 6974843 male
1.598429 0.4649725 -1.396097 -0.2069506 -0.6768196 -0.7064607 856591 male
1.229164 0.3197762 -1.302121 -0.2479346 0.157237 0.9559314 657418 male
1.796266 0.1981273 -1.19847 -0.3092169 -0.8619809 -0.4017137 526600 male
1.380446 0.1473173 -1.091629 -0.1875913 -0.5129796 0.8376523 4211787 male
1.716081 0.3463621 -1.362372 0.6644695 -0.2474419 -0.7051615 526600 male
1.332876 0.6585733 -1.379626 0.3850085 0.7174074 0.5805988 14333609 male
1.182968 0.3780493 -1.29646 -0.002055153 -0.8571742 -0.5150226 3420472 male
1.528474 0.04998565 -1.260144 0.6791484 -0.6316249 0.3739081 11711169 male
1.29022 0.4493184 -1.375167 0.3580607 0.7998309 0.4817292 15459318 male
1.708394 0.364661 -1.278609 0.2378906 0.7905827 0.564258 526600 male
1.886132 0.1488613 -1.174806 0.2684962 -0.5134181 -0.8150532 526600 male
1.225723 0.4114842 -1.216917 0.4216996 0.8424872 0.3352383 15717074 male
1.347523 0.2238888 -1.091976 -0.7157815 0.1392886 0.6842921 3949389 male
1.470886 0.334599 -1.533282 0.1785227 -0.5020243 -0.8462276 15711158 male
1.35314 0.4404772 -1.468754 0.5859073 0.7825081 0.2106981 13353171 male
1.785437 0.2590821 -1.217191 0.9860193 0.008870699 -0.166395 526600 male
1.293404 0.3952389 -1.568925 -0.3011936 0.2146823 -0.9290823 12301509 male
1.257745 0.5588153 -1.485073 -0.1155988 -0.6651312 -0.7377245 14471896 male
1.236628 0.4223639 -1.2797 0.980254 0.1838516 0.07280603 9275285 male
1.265972 0.5779746 -1.498481 -0.03881457 -0.5120677 -0.8580677 14933987 male
1.300629 0.5677446 -1.501149 0.5199339 -0.05280853 -0.8525726 14384508 male
1.402422 0.3449999 -1.039371 -0.2399468 -0.9650611 0.1052744 526600 male
1.383574 0.2669976 -1.050318 -0.6521474 -0.1473834 0.7436275 4672083 male
1.284425 0.2033461 -1.298674 0.2401702 0.4174567 0.8763836 7828865 male
1.199111 0.3912988 -1.475638 -0.5529184 0.1247632 -0.8238419 11643833 male
1.400996 0.1735853 -1.075984 -0.06679267 -0.5823655 0.8101785 4607829 male
1.462437 0.0962666 -1.369092 -0.01550621 0.1376374 -0.9903613 2235682 male
1.214523 0.5601206 -1.416282 -0.7375481 -0.6397395 0.216232 7432812 male
1.412262 0.6006299 -1.400077 0.8657053 0.3632137 -0.3444273 13281961 male
1.603996 0.2890778 -1.26492 -0.4238616 0.5729192 0.7015018 4999246 male
1.363061 0.2198229 -1.351413 0.8097595 0.2670862 0.5224506 13682143 male
1.864834 0.1422772 -1.16583 -0.9732189 -0.1765332 0.1472444 526602 male
1.522252 0.2847281 -1.468929 -0.4667406 0.1156133 0.8768048 10981012 male
1.423679 0.09085754 -1.159176 0.7215158 -0.5817722 0.3754412 2828851 male
1.524718 0.3468135 -0.9529247 0.4730477 0.5338904 0.7008473 526600 male
1.340631 0.1844245 -1.505964 0.4033089 -0.5070054 -0.761766 6776688 male
-2.47937 0.1300522 -1.357856 0.9164753 -0.3968043 -0.05118394 5393995 male
-2.492484 -0.07541274 -1.426672 0.1314617 0.4787896 -0.8680314 3882308 male
-2.687956 -0.2927375 -1.525458 0.6713681 -0.4228285 -0.6086717 2106151 male
-2.497832 -0.1031596 -1.267139 0.2952533 -0.6829264 0.6681596 4408907 male
-2.465214 0.1309679 -1.415442 0.9526348 -0.2614336 0.1553701 4603195 male
-2.697569 -0.1587458 -1.597139 0.6470722 -0.5052422 -0.5709888 2565929 male
-2.719281 0.05318073 -1.224999 -0.8835695 0.2403635 0.4019085 8090995 male
-2.47452 0.1015098 -1.565765 0.5772057 -0.7593114 -0.300466 7895157 male
-2.593614 0.04564565 -1.806172 -0.977739 -0.1722171 -0.1198671 6380116 male
-2.659351 -0.1431761 -1.513526 0.9127111 -0.14483 -0.382077 2302499 male
-2.501359 -0.3161709 -1.48051 -0.844861 -0.2044254 -0.4943888 1579032 male
-2.557282 0.01469279 -1.862706 -0.5546337 -0.5615415 -0.6140463 6709083 male
-2.700063 0.1775828 -1.334208 -0.920725 0.2089199 0.3295729 6380120 male
-2.519639 0.06100821 -1.436559 0.5032739 -0.8571249 -0.1097835 9342598 male
-2.53331 0.2243573 -1.326227 0.2577692 0.8317308 0.4917103 5920082 male
-2.500314 -0.1980522 -1.479645 -0.8842434 0.2444096 0.3979671 2237218 male
-2.736907 -0.1272955 -1.370044 -0.9212753 -0.2963188 0.2518875 2170917 male
-2.427685 0.2533022 -1.645141 0.4835531 0.7600863 -0.4341031 10986911 male
-2.539724 -0.4646877 -1.47651 -0.1267436 -0.9384092 -0.3214409 1183764 male
-2.428298 0.1643527 -1.641204 0.4434393 -0.6803215 -0.5835447 5327432 male
-2.524047 0.04602318 -1.686583 0.622229 -0.3123914 0.7178043 12035479 male
-2.522391 -0.005220169 -1.36294 -0.3098737 0.5475516 -0.777281 3026480 male
-2.719144 -0.4334796 -1.534694 -0.6944968 0.6490693 0.3104569 2763566 male
-2.663244 -0.2578098 -1.619434 -0.1988546 -0.1299511 0.9713752 6378835 male
-2.750061 -0.2779706 -1.534794 -0.8623722 -0.4112433 -0.2952853 2105380 male
-2.663392 0.1656945 -1.627113 -0.4166245 0.7580177 -0.5018299 6840412 male
-2.596427 0.2419228 -1.52999 -0.5125796 0.8585955 -0.008713871 9209216 male
-2.504209 0.2639419 -1.54949 0.1880307 0.9511036 0.2450434 6840671 male
-2.668876 -0.2182265 -1.549934 0.9693023 -0.1405592 -0.2017341 1974306 male
-2.41363 0.102285 -1.332007 -0.3294502 -0.2959689 0.8965854 6576727 male
-2.536693 0.06476226 -1.171412 0.2477084 0.1978629 0.9484151 3421236 male
-2.587187 0.04562389 -1.607355 0.5277506 -0.7758019 -0.3458478 8025201 male
-2.411452 -0.2054809 -1.497836 0.9937826 -0.03716374 0.1049528 2303011 male
-2.365964 0.2182693 -1.539189 0.8048742 -0.2922247 -0.5165099 16374219 male
-2.524828 0.01788059 -1.687561 0.3330024 -0.004519767 0.9429153 11312787 male
-2.721658 0.0246118 -1.629655 -0.9714825 0.008261712 -0.236968 8681843 male
-2.443753 -0.001579931 -1.288001 0.9816254 0.1794628 -0.06484538 2894894 male
-2.415998 0.2610277 -1.527489 -0.2216611 0.8671309 0.4460386 15978958 male
-2.735204 -0.08183389 -1.412389 -0.8572688 0.2690116 -0.4390026 2696490 male
-2.6968 0.1516491 -1.611978 -0.6167889 0.6082295 -0.4996283 10459794 male
-2.656011 0.1994034 -1.564306 -0.3657033 0.9033155 -0.2242373 6183254 male
-2.680464 -0.3282741 -1.679784 -0.7703259 -0.1262211 -0.6250333 16774121 male
-2.573822 0.04301279 -1.867792 -0.7149855 -0.2870344 -0.6375008 3222825 male
-2.615068 0.1023742 -1.192321 -0.1339481 0.430067 0.8928049 9404798 male
-2.453744 0.09045213 -1.817532 0.988309 0.145948 0.04409969 4868418 male
-2.739846 -0.1346299 -1.527111 -0.453954 0.3968815 0.7977538 3289915 male
-2.63876 -0.05690479 -1.666306 0.4300793 -0.3447918 -0.8343565 6643546 male
-2.666908 -0.01256921 -1.586683 0.265275 -0.5856388 0.7659352 592137 male
-2.638848 0.1264164 -1.210844 -0.1386501 0.629831 0.7642574 10786958 male
-2.721641 0.09324645 -1.484376 -0.8965598 -0.3820989 0.2240114 8156529 male
-2.575413 0.1544524 -1.221257 -0.1312136 0.7388786 0.6609399 10392206 male
-2.684749 -0.3133119 -1.495955 0.878914 -0.2566454 -0.4020494 1710618 male
-2.45382 0.01723556 -1.226344 0.9667911 0.06587727 0.2469322 2697257 male
-2.73099 0.08214682 -1.283115 -0.9895857 0.1437984 -0.006499529 3223593 male
-2.320404 0.2691513 -1.462265 0.1367387 -0.3658057 -0.9205915 13678503 male
-2.49482 0.1337651 -1.761237 0.5871896 0.6220373 0.5179558 7432551 male
-2.471534 -0.1421236 -1.469103 -0.2823835 0.1490218 0.9476563 2829617 male
-2.517736 0.141991 -1.666045 0.8907449 -0.06281406 -0.4501426 4077621 male
-2.597082 0.06358521 -1.664868 -0.4301628 -0.8951008 0.1172797 15261136 male
-2.694444 -0.07989037 -1.220208 -0.4554139 -0.7526579 0.4755043 3158835 male
-2.452391 -0.008865831 -1.239061 0.9555483 -0.05846569 0.2889801 2829359 male
-2.68486 -0.385923 -1.431465 0.9481857 0.03376098 -0.3159183 2236708 male
-2.768527 -0.1691335 -1.574251 -0.9924991 0.03136126 -0.1181627 3487547 male
-2.724067 0.07871468 -1.248976 -0.9380713 0.1785482 0.2968892 5394250 male
-2.545768 0.0007959893 -1.16707 0.05077741 -0.4873895 0.8717072 3421492 male
-2.723232 -0.4120575 -1.373984 -0.1972674 -0.9459427 0.2574454 526602 male
-2.625551 -0.01711516 -1.657726 0.729175 -0.2742613 -0.6269647 8484721 male
-2.55266 -0.4573434 -1.412208 -0.230209 -0.9543155 -0.190488 986895 male
-2.726585 -0.3300379 -1.452892 -0.8921968 -0.02110497 0.451154 1776155 male
-2.69911 -0.3548414 -1.39307 -0.5197589 0.4136572 0.7474883 3355187 male
-2.331496 0.2537997 -1.47524 0.1658809 -0.6045575 -0.7790981 14598837 male
-2.369234 0.1962545 -1.370581 -0.8812974 0.3645836 0.3006558 15587540 male
-2.438801 0.1595478 -1.640073 0.3235493 -0.6707494 -0.6673914 9670027 male
-2.532028 0.04462821 -1.890083 -0.1450388 -0.2955317 -0.9442589 4932930 male
-2.56196 0.04268523 -1.512792 0.7226925 -0.682747 0.107575 8814201 male
-2.705155 0.1505973 -1.34723 -0.9950991 -0.09871779 0.005718529 3289393 male
-2.725291 -0.1388077 -1.533677 -0.01179537 0.587474 0.8091571 2960690 male
-2.467174 0.08302602 -1.288444 0.7967342 0.162924 -0.5819541 5328201 male
-2.446756 0.0987217 -1.360385 0.9043546 -0.3322952 0.2678111 15322566 male
-2.492218 0.02835747 -1.875765 0.4959532 -0.4251255 -0.7571651 6708568 male
-2.426693 -0.2733575 -1.49823 0.932245 -0.3239017 -0.1612672 2697001 male
-2.568707 0.1897514 -1.266717 -0.09789297 0.872116 0.4794067 10064523 male
-2.354425 0.2692326 -1.48139 0.5852094 0.8106908 -0.01761881 16504780 male
-2.396005 0.2299534 -1.605658 0.934985 -0.1143591 -0.335746 14469813 male
-2.428066 -0.2693784 -1.512215 0.8567852 -0.3607023 -0.3685285 2697257 male
-2.66196 -0.1549037 -1.517097 0.9577994 -0.2860903 -0.02780092 1908514 male
-2.468979 0.2340058 -1.594202 0.06829777 -0.1737377 0.9824209 525832 male
-2.503649 -0.1927807 -1.502703 -0.9786255 0.1815559 -0.09659129 1841436 male
-2.558047 0.001157327 -1.847613 -0.564993 -0.7047151 -0.4291384 7431009 male
-2.512657 0.06568484 -1.181049 0.5690085 0.2096858 0.7951487 9012097 male
-2.639022 0.1484664 -1.666283 -0.2833591 0.6513897 -0.7038461 4077366 male
-2.395383 0.2033231 -1.572152 0.5945091 -0.6792231 -0.4303663 7104866 male
-2.666164 -0.1405348 -1.526617 0.8740715 -0.1721263 -0.4542816 2302505 male
-2.647585 -0.4989069 -1.65532 0.6661869 0.236332 -0.7073488 15320252 male
-2.646266 0.07745346 -1.371288 -0.5234976 -0.8402234 -0.1413335 6642008 male
-2.684175 -0.3507847 -1.455913 0.9583235 0.163467 -0.2342964 1579032 male
-2.483473 -0.05840061 -1.220486 0.6129277 -0.5698342 0.5473654 1710627 male
-2.770243 -0.177497 -1.567716 -0.9967722 0.03559982 -0.07195985 2105895 male
-2.463564 0.05304497 -1.856726 0.8409223 -0.2576357 -0.4758927 3749169 male
-2.472667 0.2494657 -1.579203 0.2548403 0.3717039 0.8926886 656906 male
-2.628852 -0.1134922 -1.304603 0.7769344 -0.6046346 0.1754705 2434085 male
-2.505499 0.2225549 -1.651119 0.07665032 0.6382924 -0.7659684 10129801 male
-2.750756 -0.2471533 -1.569386 -0.6481904 -0.4943906 -0.5791609 1776155 male
-2.727399 -0.3581583 -1.429365 -0.9420381 0.08953621 0.3233383 2368292 male
-2.408916 0.2620643 -1.60065 0.6435518 0.7572762 -0.1112382 9999242 male
-2.431491 -0.1922749 -1.550547 0.5727105 -0.2164111 -0.7906764 2830132 male
-2.656219 -0.3463592 -1.688911 -0.09452233 0.012936 -0.9954388 15191230 male
-2.57441 0.04069765 -1.464896 0.4115871 -0.9025949 -0.1261691 8813168 male
-2.700178 -0.2852445 -1.538016 0.4672475 -0.4655409 -0.7516326 2499881 male
-2.630054 0.2106488 -1.327585 -0.2375231 0.7932657 0.5606357 11181211 male
-2.560395 0.1518964 -1.816938 -0.4788068 0.8744796 -0.0776498 4932154 male
-2.437526 0.2741195 -1.620357 0.1962684 0.9800964 -0.02982768 8681843 male
-2.580203 0.1189635 -1.851613 -0.7986755 0.4604071 -0.3874828 6511192 male
-2.582951 0.0127141 -1.799269 -0.8403912 -0.5398798 0.0476737 14074809 male
-2.490304 -0.1450541 -1.437305 -0.4050109 -0.3686402 0.8367024 2500654 male
-2.431665 -0.1405886 -1.486743 0.9951296 0.03237791 -0.0931071 2434605 male
-2.489275 0.2221413 -1.447864 0.6279399 0.7221769 0.2900901 4801348 male
-2.623001 0.2216166 -1.54747 -0.6557719 0.733937 -0.1769173 7827050 male
-2.46344 -0.1141 -1.319057 0.7951643 -0.4611079 0.393819 2697257 male
-2.716313 -0.04710514 -1.210443 -0.7868686 -0.4495393 0.4227914 3026998 male
-2.475581 0.1261887 -1.859206 0.6933171 0.5688937 -0.4423479 7037274 male
-2.584836 0.01743444 -1.737074 -0.8812854 -0.4298026 0.1964842 15982546 male
-2.633452 -0.02796388 -1.351379 0.7296047 0.4104295 -0.5470145 3224632 male
