# .PCD v0.7 - Point Cloud Data file format
VERSION 0.7
FIELDS x y z normal_x normal_y normal_z rgb label
SIZE 4 4 4 4 4 4 4 4
TYPE F F F F F F U U
COUNT 1 1 1 1 1 1 1 1
WIDTH 246
HEIGHT 1
VIEWPOINT 0 0 0 1 0 0 0
POINTS 246
DATA ascii
1.446775 0.9334527 -0.7813887 -0.2960998 -0.6108516 0.7342922 7433331 male
1.448003 0.6929404 -0.8160762 0.9972632 0.06952108 -0.02515674 3158840 male
1.62924 0.4361551 -0.9196895 -0.2809792 -0.1911488 0.9404853 526600 male
1.353257 0.6508163 -0.7749985 -0.842275 -0.06515011 0.5350964 3553598 male
1.452015 0.9128613 -0.8072254 -0.1007197 -0.7622898 0.639351 7039347 male
1.684986 0.5712683 -0.9821433 0.3664207 0.1878241 -0.9112947 526600 male
1.385696 0.8419133 -1.076301 -0.2773305 0.164084 -0.9466596 3685961 male
1.618966 1.031236 -0.6973662 0.5756248 -0.4817769 0.6607171 14011102 male
1.798851 1.05079 -0.6210037 0.9398818 -0.320405 0.1181641 14464433 male
1.540841 0.7380498 -0.9475873 0.5140541 0.4759743 0.7135803 8226710 male
1.381411 0.3905051 -0.6878127 -0.5427757 -0.1860219 0.8190179 526600 male
1.821898 1.15774 -0.6790692 0.6451312 -0.08511411 -0.7593163 10130071 male
1.534427 1.055487 -0.9695071 -0.1153678 0.5074939 -0.853897 7828095 male
1.478702 0.8597832 -0.8778564 0.633279 -0.4014423 0.6616658 11907781 male
1.336891 0.9419218 -0.9531024 -0.6089872 0.6698878 -0.4247174 11117233 male
1.399664 0.6005978 -0.7895102 -0.437425 -0.4681824 -0.767766 8094355 male
1.544054 0.6282855 -1.022104 0.01307458 -0.3536642 -0.9352809 7896456 male
1.558596 1.029954 -0.6201567 0.4982534 -0.7251565 0.4752804 8617355 male
1.388479 0.2600375 -0.7394091 0.1974102 -0.9717396 -0.1294271 526600 male
1.55749 1.087271 -0.6306937 0.1910546 0.5295711 0.8264699 6315623 male
1.688918 1.064878 -0.6755878 -0.416976 -0.7332612 0.5370839 10917781 male
1.424896 0.7757543 -0.8187996 0.7619964 0.4279274 0.4860449 10594745 male
1.700081 0.2810126 -0.8812795 -0.4760073 -0.1057392 0.8730614 526600 male
1.713227 0.8146692 -1.011833 -0.5760411 -0.3963601 0.7148954 1379344 male
1.693126 0.4963741 -0.9195467 0.6070644 -0.2767076 0.7449199 526600 male
1.665403 1.161513 -0.8016857 0.1318891 0.9908667 0.02808021 12564681 male
1.508795 1.121196 -0.8247353 -0.3704278 0.8350754 -0.4067337 15918842 male
1.493477 0.9667538 -0.7371528 -0.3133463 -0.5775211 0.7538458 7827837 male
1.574565 0.7164373 -0.966898 0.8472039 0.4357068 0.3039821 4474191 male
1.469355 1.049934 -0.6588526 -0.8502179 0.5077321 -0.1390598 8880783 male
1.322251 0.8896906 -0.9878442 -0.7338242 0.37416 -0.5670153 7567491 male
1.690553 1.049784 -0.7252945 0.3088561 -0.9404355 -0.1420879 15982050 male
1.403797 0.4605414 -0.6579161 -0.3502353 -0.1857337 0.9180622 526600 male
1.514946 0.9803408 -0.6317878 0.7859138 -0.4368252 0.4376336 15518414 male
1.703971 1.06837 -0.6233875 -0.700072 -0.4844603 0.5245925 13611180 male
1.70851 1.099984 -0.9176968 -0.3302301 0.5015846 -0.7996005 8880783 male
1.310556 0.7552168 -0.827853 -0.8229492 0.05365546 0.5655756 3684672 male
1.493546 1.062976 -0.6894009 -0.6721578 -0.7363579 -0.07733694 526600 male
1.627053 0.6378092 -0.9802369 0.8432338 0.13562 -0.5201577 591879 male
1.660138 1.162267 -0.8002367 0.0845561 0.9945716 0.06064419 12301511 male
1.591105 1.148235 -0.8143141 -0.3246129 0.9441306 0.05695572 14012126 male
1.758507 0.8190681 -1.036821 0.9146364 0.2187738 -0.3399682 12491674 male
1.853199 1.167191 -0.6300842 0.9683992 0.131274 -0.2120612 3223601 male
1.365125 0.9307315 -1.007472 -0.6270808 0.6203156 -0.4711455 7039864 male
1.741118 1.169256 -0.5581759 -0.5544989 0.02282764 0.8318713 9735055 male
1.651483 0.6337661 -0.9457167 0.9154742 0.3705535 -0.156834 5067613 male
1.751203 1.009348 -0.8981946 0.8968478 -0.2781637 0.3439315 16313061 male
1.506251 0.7422372 -1.067949 0.5298513 0.08312766 -0.8440067 2698033 male
1.383693 0.9096463 -1.050165 -0.4921588 0.5125475 -0.7036156 13422818 male
1.656598 0.9987393 -0.8948061 0.6158364 -0.4153278 -0.6695136 8157060 male
1.283535 0.8410643 -0.942164 -0.9799383 0.09224427 -0.1766692 9211548 male
1.635835 0.4546379 -0.9134232 -0.1924178 -0.2395808 0.9516178 526600 male
1.292454 0.7359881 -0.878449 -0.9443232 -0.3014418 0.1318577 9277597 male
1.517489 0.9076332 -0.9864443 0.9966809 -0.009713661 -0.0808264 7762046 male
1.39086 0.8977594 -0.6735168 0.5808131 -0.2983349 -0.7573985 12167599 male
1.692299 1.175034 -0.6341465 -0.9778007 0.1583961 0.1371729 11971502 male
1.377021 0.6110006 -0.8086015 -0.603338 -0.5145819 -0.6092525 6909818 male
1.606056 1.151964 -0.7006345 0.07246222 0.9397544 0.3340823 11513015 male
1.689378 1.152766 -0.8451667 0.4261974 0.8699266 -0.2481603 11381180 male
1.409302 0.7778672 -1.090218 -0.0743514 -0.1560697 -0.9849436 9409952 male
1.324378 0.8738898 -0.8458559 -0.7007539 0.1623924 0.6946745 3947845 male
1.634175 0.3153347 -0.9460198 -0.1896336 0.4621559 0.8662858 526600 male
1.632437 0.5838803 -0.9573079 -0.8141233 0.4121749 -0.4090415 526600 male
1.406646 0.8482466 -1.079065 -0.06659055 0.1885561 -0.9798021 7765126 male
1.329489 0.7421491 -0.9759625 0.0139235 -0.7757789 -0.6308511 591113 male
1.66222 0.2788755 -1.015085 0.2505417 0.01293865 -0.9680193 526600 male
1.774753 1.052898 -0.8661299 0.9027426 -0.3748941 0.2109741 8617867 male
1.402989 0.2906416 -0.7420231 0.9283748 0.1840258 -0.3228853 526600 male
1.684872 0.4601249 -0.9277749 0.6531149 -0.3421994 0.6755297 526600 male
1.59658 0.3044052 -1.022648 0.1898623 0.3330534 -0.923595 526600 male
1.41437 0.9214261 -0.6739186 0.4797898 -0.2778797 -0.8322167 9139835 male
1.392362 0.7771988 -0.6006543 0.8422455 0.1761124 0.5095165 14660533 male
1.492827 1.09826 -0.6696616 -0.8038333 0.5821396 0.1223334 8748938 male
1.835664 1.205925 -0.5888287 0.7877833 0.4933591 0.3687739 526600 male
1.672717 0.9951102 -0.8093238 0.6504394 -0.6236129 0.4336306 13486558 male
1.412575 0.834596 -1.082446 -0.03304082 0.1984249 -0.9795589 6580087 male
1.624071 0.5638785 -0.959078 -0.8629247 0.3752853 -0.3384107 526600 male
1.368401 0.8637967 -0.8400124 0.2824415 0.3269396 0.9018521 10595247 male
1.456083 1.010629 -0.6248313 -0.6796774 0.4385341 0.5879851 14132126 male
1.838055 1.133181 -0.5680788 0.7145068 -0.1739196 0.6776665 526600 male
1.429546 0.422383 -0.6896279 0.8304557 -0.3859941 0.4016862 526600 male
1.364361 0.974103 -0.9423049 -0.5718715 0.7429907 -0.3477468 13551066 male
1.368849 0.8660104 -0.599158 -0.1966038 0.1264129 0.9722997 12622231 male
1.498129 1.087539 -0.6328827 -0.6219375 0.6044671 0.4978085 8223366 male
1.41954 0.4149865 -0.6810078 0.580707 -0.3853476 0.7171378 526600 male
1.516634 0.7191414 -0.9321135 0.1245256 0.2483044 0.9606448 6646652 male
1.41342 0.5695997 -0.72947 -0.4543754 0.4573862 -0.7644219 526600 male
1.478538 0.6036688 -0.7288443 0.9718189 -0.2357195 0.002038538 3093302 male
1.849448 1.12727 -0.6301878 0.9347472 -0.2526084 -0.2498735 16436944 male
1.311628 0.9349121 -0.9009998 -0.8692027 0.4933201 0.03349566 7499899 male
1.664979 1.157145 -0.7768551 0.09086118 0.9639049 0.2502627 15789306 male
1.474235 1.04095 -0.6238292 -0.6897565 0.3806854 0.6158853 8024183 male
1.626366 0.6006821 -0.8927389 -0.1679628 -0.2070245 0.9638097 3750719 male
1.761751 0.7145745 -1.02016 0.8530663 0.4601529 0.246043 16441055 male
1.435742 0.8469759 -1.080788 0.1617976 0.1563902 -0.974353 10922932 male
1.619737 0.4227519 -0.9276502 -0.3947075 -0.1454643 0.9072189 526600 male
1.373271 0.6470975 -0.7506091 -0.6713403 0.02894431 0.7405838 4606291 male
1.692701 0.5158505 -0.981779 0.6030896 -0.1036373 -0.7909123 526600 male
1.801507 1.10066 -0.5624868 0.1836819 -0.5192829 0.8346295 14591137 male
1.38941 0.5554024 -0.7104021 -0.8447961 0.4549144 -0.2817312 526600 male
1.459801 0.6394259 -0.9848416 -0.6858671 -0.7169518 0.1247658 7961740 male
1.581319 1.006691 -0.683287 0.5082385 -0.5612389 0.6532261 14538216 male
1.639791 0.5208662 -0.988467 -0.3812938 0.07945795 -0.9210327 526600 male
1.628287 0.3084894 -1.009686 0.3464715 0.1798218 -0.9206637 526600 male
1.496913 1.083179 -0.6298264 -0.6147801 0.5653477 0.5499339 7630972 male
1.434797 0.4364474 -0.730479 0.7681856 -0.3101818 -0.5600696 526600 male
1.664523 0.9041154 -1.009616 -0.9289595 -0.3259823 0.1754133 1249299 male
1.628775 0.9980956 -0.7447213 0.6181132 -0.6937023 0.3697475 14403429 male
1.601208 0.6627636 -0.9352775 0.7444702 0.4139287 0.5238579 8290959 male
1.513573 0.9751732 -1.011028 0.5478638 0.1155109 -0.8285545 5328212 male
1.75155 1.235937 -0.6589497 -0.2336955 0.8708337 -0.4324756 16643837 male
1.544157 1.018062 -0.6349796 0.6416345 -0.7414825 0.1962367 15526140 male
1.764719 1.208976 -0.6903687 0.0552561 0.5259653 -0.8487092 16116461 male
1.784538 1.050717 -0.6188853 -0.1285918 -0.2176766 0.9675127 13079951 male
1.339163 0.6427042 -0.8220844 -0.9334916 -0.3568517 -0.03536186 5462370 male
1.409707 0.5311614 -0.652045 -0.4841292 0.09292309 0.8700483 526600 male
1.411235 0.9767531 -0.789741 -0.7783864 -0.08096212 0.622543 7434361 male
1.441004 1.041691 -0.9134786 -0.5164207 0.7521191 -0.4094221 11905981 male
1.343354 0.7284303 -0.7847183 -0.6243454 0.1674143 0.7629975 3685444 male
1.388491 0.7170295 -1.054911 -0.4324835 -0.7497843 -0.5007808 6250863 male
1.756629 1.229143 -0.5754551 -0.3151003 0.7118558 0.6276727 526344 male
-2.537812 0.4502722 -1.330799 0.9092966 -0.3228675 -0.2625577 5394762 male
-2.603591 -0.08531799 -1.310429 -0.5885279 -0.2826085 -0.7574744 1644826 male
-2.665334 0.05755284 -1.387769 0.9402882 0.04681658 -0.3371446 3684417 male
-2.555155 0.06986148 -1.212764 0.5612538 -0.2212277 0.7975291 2301990 male
-2.566592 0.3535039 -1.303333 0.928268 -0.2239113 -0.2969556 7038307 male
-2.729151 -0.1737296 -1.434505 -0.2561896 -0.04706317 -0.9654804 1776667 male
-2.778625 0.3670427 -1.316519 -0.9861662 0.1312572 -0.1012336 4603965 male
-2.59571 0.4776035 -1.40026 0.4984568 -0.0669615 -0.8643247 15586472 male
-2.557851 0.7677246 -1.519762 0.01199949 -0.08703841 -0.9961329 15784655 male
-2.663104 0.1053634 -1.320966 0.975381 -0.09371976 0.1996218 8619915 male
-2.531932 -0.335339 -1.279469 0.9979037 -0.06192575 0.01880455 2368808 male
-2.533542 0.850435 -1.532089 0.1345574 0.3121548 -0.9404541 5919821 male
-2.775216 0.4615379 -1.321458 -0.9679734 -0.1479338 0.2028387 5065797 male
-2.611232 0.3742712 -1.376039 0.5264103 -0.2960942 -0.7970072 7235428 male
-2.63944 0.3921629 -1.196539 -0.1430642 0.09563573 0.9850821 7104098 male
-2.599033 -0.000770648 -1.21752 -0.04262149 -0.2526538 0.9666178 2499878 male
-2.767921 0.01199455 -1.338146 -0.9260197 -0.3045493 0.223019 2235940 male
-2.457273 0.6457238 -1.361158 -0.1222688 0.148174 -0.981374 10591121 male
-2.505847 -0.4476304 -1.310302 -0.08408114 -0.9906878 -0.1070884 526600 male
-2.487095 0.589204 -1.346266 0.7925034 -0.3333781 -0.5106835 5854289 male
-2.578357 0.6650565 -1.439432 0.1889737 -0.6793427 -0.7090716 16774635 male
-2.560257 0.1569242 -1.317196 0.4697156 0.1644406 -0.8673677 3158585 male
-2.665669 -0.422929 -1.444403 0.7522374 -0.4693319 0.4624573 1907741 male
-2.588843 0.6475469 -1.786746 0.8954251 -0.06794515 0.4399972 16309463 male
-2.70812 -0.296836 -1.410833 0.6163077 -0.02630549 -0.7870662 2302507 male
-2.639903 0.7008882 -1.344591 -0.2444524 0.825646 0.50848 14077901 male
-2.62747 0.6552981 -1.270613 -0.5192124 0.5950748 0.6134368 9472390 male
-2.529778 0.5170085 -1.2536 0.859735 -0.2242319 0.4588858 2894378 male
-2.661246 0.001417673 -1.353166 0.9709306 -0.04159211 0.2357208 2303014 male
-2.410583 0.5931809 -1.314409 0.4961702 -0.3779607 0.78164 8092019 male
-2.659734 0.22133 -1.155235 -0.08480895 -0.102567 0.9911043 3355703 male
-2.550597 0.670736 -1.378398 0.99639 -0.05363669 -0.06580496 4538685 male
-2.562433 -0.1955285 -1.215755 0.1112054 -0.1053681 0.9881959 2565671 male
-2.427541 0.6138067 -1.393656 -0.5202648 0.2563467 -0.8146234 7958384 male
-2.534928 0.6833155 -1.482466 0.1815047 -0.9815381 0.06032508 12235946 male
-2.760935 0.6395125 -1.49367 -0.9571027 -0.2421213 -0.1591606 8682875 male
-2.556819 0.133281 -1.196614 0.6262676 -0.119267 0.7704313 2170913 male
-2.556501 -0.01161089 -1.236021 0.6333636 -0.1454042 0.7600715 1842724 male
-2.697302 -0.03404925 -1.430727 -0.0520153 0.07254998 -0.9960076 3223348 male
-2.680256 0.6864499 -1.339676 -0.2485522 0.758173 0.6028231 14078926 male
-2.676793 0.635891 -1.293808 -0.3555337 0.5504694 0.755367 10262163 male
-2.635247 0.6606206 -1.805016 -0.7114589 0.5204668 -0.4721659 16774121 male
-2.585066 0.8676935 -1.510145 -0.5178456 0.4579251 -0.7225931 3222825 male
-2.752288 0.2626262 -1.203112 -0.5023669 0.08516924 0.8604499 9735562 male
-2.482181 0.8364017 -1.435055 0.9639463 0.04096053 0.262926 5919050 male
-2.657635 -0.03558208 -1.395606 0.9790147 -0.1902852 -0.07295287 2829101 male
-2.666032 0.6738283 -1.552821 0.6481694 0.7613418 -0.01533756 8353392 male
-2.803928 0.1366172 -1.366506 -0.9083076 -0.09790289 -0.4066849 1972767 male
-2.731087 0.3026788 -1.200969 -0.5150263 0.3254216 0.793 9208444 male
-2.732419 0.5246335 -1.426249 -0.5315553 -0.1342532 -0.8363166 3091239 male
-2.712538 0.3368762 -1.206391 -0.4829309 0.462903 0.7433027 12628911 male
-2.678263 -0.1994044 -1.365936 0.9690394 -0.1516211 0.1948693 1841692 male
-2.537331 0.2410228 -1.245922 0.9621719 0.2500539 -0.1081593 2302758 male
-2.654069 0.3361467 -1.384467 0.1576085 -0.3767111 -0.9128245 6511451 male
-2.336594 0.5123456 -1.430529 -0.7506632 -0.3656494 -0.5502777 15716814 male
-2.490912 0.8696821 -1.433962 0.8757982 0.4464865 0.1833783 3354670 male
-2.61901 -0.06673551 -1.270941 -0.9096016 -0.2214949 0.3515187 2696233 male
-2.564555 0.7032265 -1.302356 0.2011654 0.8705153 0.4491499 8683124 male
-2.600903 0.6623607 -1.437819 -0.02476901 -0.4527267 -0.8913054 15851224 male
-2.793307 0.1421502 -1.27363 -0.7384659 -0.4670009 0.4863933 3486524 male
-2.558234 0.2148585 -1.194715 0.7293172 0.07001884 0.6805835 2699056 male
-2.713367 -0.4095131 -1.406825 0.8410531 -0.2043032 0.5008892 789516 male
-2.75 -0.1905435 -1.421074 -0.6636454 -0.1060396 -0.7404934 1973536 male
-2.562324 0.6358536 -1.402897 0.6406089 0.155134 -0.7520332 5853517 male
-2.681754 0.1334139 -1.212526 -0.8015355 -0.4197064 0.4258963 2105893 male
-2.751438 -0.4310193 -1.470957 -0.4946858 -0.8638938 -0.09472902 2237223 male
-2.714499 0.702765 -1.498327 -0.07605016 0.9949023 0.06622557 7433063 male
-2.548562 -0.4386112 -1.289628 -0.1767841 -0.8939509 -0.4118243 789260 male
-2.730878 -0.3257809 -1.413306 -0.4573495 -0.1049074 -0.8830777 1579032 male
-2.782493 -0.4055887 -1.368756 -0.9647613 0.2627599 0.01390177 3356220 male
-2.336265 0.5440815 -1.423613 -0.6498957 0.414927 -0.6367663 16769496 male
-2.228848 0.5204985 -1.589641 -0.987289 -0.0863912 -0.1334065 14664898 male
-2.478808 0.6205028 -1.355691 0.3918036 -0.2066517 -0.8965408 6248530 male
-2.526019 0.8740979 -1.517509 0.2710983 0.6314597 -0.726474 10459279 male
-2.653228 0.5467086 -1.46012 0.3089438 -0.1695739 -0.9358412 9668483 male
-2.762077 0.3656603 -1.358268 -0.7832576 -0.1754846 -0.5964169 2894630 male
-2.765584 -0.2021906 -1.390827 -0.9716256 -0.1421428 -0.1890486 1974561 male
-2.572888 0.290232 -1.295942 0.8220092 -0.04590674 -0.5676211 7433065 male
-2.377877 0.6185725 -1.35054 0.7569683 0.4892205 0.4332003 11509660 male
-2.492466 0.8719637 -1.4744 0.8218579 0.5435414 -0.1706244 4932155 male
-2.535607 -0.2074079 -1.300017 0.4220544 -0.06755067 -0.9040506 2302506 male
-2.669518 0.3052276 -1.164923 -0.2708843 0.3080257 0.911999 9800330 male
-2.250676 0.5384185 -1.44805 0.7971551 0.437697 0.415891 16773095 male
-2.455987 0.6324615 -1.268859 0.3878683 0.01020766 0.9216585 6315352 male
-2.530095 -0.2806186 -1.280304 0.9355627 -0.1438361 -0.3225427 2696233 male
-2.706711 0.1127789 -1.418862 0.3359183 0.1079015 -0.9356903 3948615 male
-2.562953 -0.1385512 -1.218537 0.1322416 0.2230649 0.9657921 2434085 male
-2.55204 -0.02857929 -1.325916 0.5092574 -0.01295137 -0.860517 4014149 male
-2.536793 0.8400287 -1.535071 0.08552495 0.1790748 -0.9801112 8220265 male
-2.610092 0.2659932 -1.168093 0.4292918 0.04442178 0.9020729 6708823 male
-2.658941 0.7024489 -1.41507 -0.2774766 0.5380956 -0.795902 4340793 male
-2.409543 0.6498693 -1.348112 0.570792 0.7960361 -0.2013033 11309698 male
-2.696164 0.08712932 -1.416735 0.4742132 0.06749225 -0.8778194 4212046 male
-2.55364 0.6826188 -1.894907 -0.5040666 0.8531914 -0.1340947 16638420 male
-2.70143 0.3548423 -1.388576 -0.1542059 -0.2079822 -0.9659007 5657678 male
-2.682847 -0.2179774 -1.364172 0.9338359 -0.1984455 0.2976077 1644825 male
-2.535491 -0.06184169 -1.263256 0.9518148 0.02400184 0.3057333 2763825 male
-2.737704 -0.1206309 -1.343932 -0.4434357 0.269338 0.8548813 3224633 male
-2.482679 0.852879 -1.442999 0.9544688 0.2707456 0.1252449 4076854 male
-2.585786 -0.1036814 -1.232538 -0.3849146 0.2890359 0.8765268 2500652 male
-2.700851 0.02857203 -1.296366 0.3595492 -0.2829278 0.8892 2302499 male
-2.49207 0.6810251 -1.313005 0.2216578 0.9679763 0.1178547 7498083 male
-2.688257 -0.09194331 -1.34808 0.3884948 -0.08828161 0.9172123 1777185 male
-2.772307 -0.405252 -1.40608 -0.9601214 0.1028703 -0.2599708 1907745 male
-2.432592 0.6519055 -1.292089 0.6540899 0.4493542 0.6084796 9867918 male
-2.54581 -0.1131369 -1.312991 0.1610432 -0.3828548 -0.9096634 2105120 male
-2.601887 0.676006 -1.794945 0.1162686 0.949769 0.2905523 15649469 male
-2.584999 0.5660129 -1.415812 0.420742 -0.1661976 -0.8918266 12824206 male
-2.68264 -0.2224983 -1.373049 0.9768831 -0.187776 0.102176 2434343 male
-2.777715 0.3828944 -1.335402 -0.9477029 -0.0420998 -0.3163656 4012085 male
-2.616188 0.8859701 -1.447257 -0.8065134 0.5803951 -0.1125959 5327945 male
-2.447466 0.6795568 -1.316566 0.3875186 0.9112024 0.1397844 9472128 male
-2.601317 0.8866543 -1.477125 -0.6182081 0.6362163 -0.4615711 5196100 male
-2.585363 0.7822298 -1.516007 -0.3890604 -0.04793289 -0.9199645 15981514 male
-2.630087 -0.0428197 -1.27165 -0.9460459 -0.2186654 0.2391298 2565673 male
-2.546604 -0.1750413 -1.21914 0.4744371 0.00100478 0.8802891 2631208 male
-2.572251 0.3731481 -1.226488 0.8172842 -0.06696127 0.5723311 3290160 male
-2.66924 0.5707833 -1.249776 -0.6146287 0.2328901 0.7536539 8090221 male
-2.54337 0.02429168 -1.238511 0.7216524 -0.2520439 0.6447417 2434085 male
-2.811449 0.1638787 -1.293487 -0.9305766 -0.3048095 0.2027773 3421242 male
-2.580221 0.8551108 -1.368208 -0.2885839 0.3254116 0.9004593 6313295 male
-2.576311 0.7324703 -1.509339 -0.4795635 -0.3283265 -0.8137695 16310999 male
-2.742131 0.1462039 -1.414617 -0.2285618 0.1545517 -0.9611834 2894386 male
-2.656327 0.2670708 -1.367823 0.1799578 -0.03711849 -0.9829739 7564392 male
-2.779402 -0.4312321 -1.375237 -0.2793551 -0.95545 0.09526762 1052688 male
