# .PCD v0.7 - Point Cloud Data file format
VERSION 0.7
FIELDS x y z normal_x normal_y normal_z rgb label
SIZE 4 4 4 4 4 4 4 4
TYPE F F F F F F U U
COUNT 1 1 1 1 1 1 1 1
WIDTH 247
HEIGHT 1
VIEWPOINT 0 0 0 1 0 0 0
POINTS 247
DATA ascii
1.44518 0.2981757 -1.166972 0.2200517 -0.09024261 0.9713051 12367029 male
1.630826 0.2738334 -1.047961 -0.1679966 0.9811319 0.09569317 7896719 male
1.935567 0.2604767 -1.364164 0.3097605 0.8305068 0.462933 526600 male
1.600826 0.1185923 -1.1221 0.323319 -0.925386 0.1978018 11516110 male
1.471864 0.3102258 -1.164119 0.1763722 -0.3163714 0.9320954 5329234 male
1.85381 0.3792359 -1.49258 0.9606833 0.2414028 -0.1371577 526600 male
1.505656 0.1067292 -1.369397 -0.3445212 -0.5463122 -0.7634449 9015202 male
1.618928 0.4205641 -1.167552 0.8547667 -0.4260545 0.2963973 13215631 male
1.788984 0.5304701 -1.252955 0.3698504 -0.1277875 -0.9202614 14134950 male
1.795877 0.3514855 -1.404344 0.3073242 0.5766 0.7570234 5264216 male
1.809469 0.2256071 -1.016063 0.2170456 -0.8118102 0.5420843 526600 male
1.850638 0.5142851 -1.158748 0.7909135 -0.5813293 0.1910813 15449278 male
1.442212 0.325994 -1.392097 -0.2812475 -0.08457825 -0.9559007 6184038 male
1.515609 0.2759639 -1.266479 0.8737033 -0.4422066 0.2027215 12433102 male
1.357691 0.287752 -1.241962 -0.9588757 -0.276438 0.06433871 9406615 male
1.667856 0.2102565 -1.011914 0.3139952 -0.9477813 -0.05583564 6186351 male
1.722344 0.1722171 -1.386758 0.4171584 -0.8868786 -0.1985581 11055302 male
1.589518 0.4987943 -1.071445 0.4773436 -0.3036933 0.8245687 10525096 male
1.890781 0.1731217 -1.11625 0.5123877 -0.4562109 -0.727551 526600 male
1.589025 0.4348974 -1.124931 0.5458415 -0.5880573 0.5968632 13617625 male
1.690752 0.5258259 -1.284183 0.5044802 -0.3159933 -0.8035222 15844032 male
1.604465 0.227661 -1.168717 0.3604316 0.7851592 -0.5036011 4540492 male
2.060246 0.2026234 -1.288375 0.0921097 0.992694 -0.07793891 526600 male
1.405301 0.5302564 -1.523571 -0.9806728 0.01280401 -0.1952353 13020592 male
1.900162 0.2827673 -1.437686 0.6499919 -0.3697739 -0.6639109 526600 male
1.591303 0.5682393 -1.277941 -0.268737 0.9426061 0.1981769 11841729 male
1.524496 0.5430325 -1.252774 -0.3404395 0.843806 -0.4148401 12037311 male
1.521002 0.3948904 -1.144067 -0.02267388 -0.2421571 0.969972 657931 male
1.705098 0.2750672 -1.34757 0.03255507 0.7192553 0.6939827 5658725 male
1.267293 0.2617211 -1.199826 -0.8834162 -0.3906195 -0.2588284 14791599 male
1.468202 0.1009513 -1.189334 -0.4365926 -0.8055842 0.4005259 4409684 male
1.664855 0.4744517 -1.248608 0.579699 -0.8147663 -0.01024161 12367565 male
1.689993 0.2804828 -0.9316341 -0.7369914 -0.6718063 -0.07429659 526600 male
1.497121 0.4910004 -1.091108 0.01162925 -0.2176045 0.9759678 14592677 male
1.752727 0.4750713 -1.155944 0.1145468 -0.8102305 0.5748092 15382448 male
1.684515 0.537863 -1.411463 0.6079666 0.1917609 -0.7704571 7170937 male
1.509814 0.227739 -1.159282 -0.486955 0.8731543 0.02182405 8358296 male
1.547754 0.5106618 -1.153206 0.2114138 -0.3704102 -0.9044892 657930 male
1.689574 0.2356933 -1.431368 -0.05406484 0.118982 -0.9914234 3882563 male
1.571662 0.5647092 -1.297105 -0.3064835 0.9465656 0.1004061 14011359 male
1.505146 0.5264817 -1.301156 -0.6113868 0.7896907 0.05093914 13288403 male
1.444175 0.5081317 -1.499589 0.3513601 -0.3829577 0.8543357 13939384 male
1.751665 0.596186 -1.252724 -0.185933 0.3836337 -0.904574 11378334 male
1.432666 0.1345179 -1.334587 -0.7514995 -0.5987917 -0.276942 14936567 male
1.772206 0.5722948 -1.108868 -0.3125095 -0.03326999 0.9493318 14207184 male
1.758433 0.2884559 -1.463833 -0.08222249 -0.02628736 -0.9962672 526600 male
1.627595 0.5499023 -1.424241 0.5141464 0.268719 -0.8145204 16043211 male
1.624774 0.1603439 -1.417228 -0.06208748 -0.2515184 -0.9658591 6514035 male
1.431093 0.1546751 -1.360408 -0.675903 -0.4592017 -0.576445 8225947 male
1.606607 0.4306277 -1.381856 0.1697499 -0.5391438 -0.8249295 592137 male
1.387306 0.1782216 -1.261992 -0.8995153 -0.385556 -0.205472 6578804 male
1.910949 0.2863865 -1.370198 0.5316653 0.6820961 0.5020727 526600 male
1.487954 0.131965 -1.126198 -0.4800299 -0.3729248 0.7940392 3223610 male
1.507904 0.2733732 -1.364813 0.536196 0.7108271 -0.4552128 10261150 male
1.385322 0.5203497 -1.189829 0.5897511 -0.6239998 -0.5126578 15387345 male
1.707955 0.598581 -1.165262 -0.8614729 0.2872092 0.4187784 11971502 male
1.63646 0.1858293 -1.017929 -0.1996352 -0.7293867 0.6543247 5263960 male
1.6294 0.554148 -1.176075 0.5708702 0.4479976 0.6880445 12494500 male
1.674667 0.5254766 -1.321691 0.9982104 0.05954524 0.005488694 10196383 male
1.610374 0.08094225 -1.336496 0.5434349 -0.7965977 -0.2647843 5395554 male
1.480015 0.1584512 -1.126084 -0.580601 -0.04641068 0.8128644 3026995 male
1.967397 0.208147 -1.340211 -0.09910426 0.6184837 0.7795231 526600 male
1.844903 0.349974 -1.506906 0.4439143 -0.2488846 -0.8608115 526600 male
1.494022 0.1368216 -1.381212 -0.275284 -0.3806225 -0.8828053 5133671 male
1.508044 0.08177642 -1.201123 0.04696201 -0.9517486 0.3032642 4673111 male
1.978891 0.1342823 -1.345534 0.3068027 -0.7637762 0.5679067 526600 male
1.633463 0.4920793 -1.378459 -0.3357227 -0.9067558 0.255116 526598 male
1.891157 0.2176829 -1.072868 0.391777 0.7993264 0.4556182 526600 male
1.92509 0.2323621 -1.386936 0.2892328 -0.7098482 -0.6422304 526600 male
1.965239 0.1611807 -1.368213 -0.3650554 -0.6665314 -0.6499772 526600 male
1.39803 0.5196176 -1.166332 0.7052928 -0.7026359 -0.09415373 13544883 male
1.246106 0.3591332 -1.177827 -0.694431 0.3280872 -0.6404096 15971757 male
1.582831 0.5472225 -1.094492 0.3618446 0.8084115 0.4642622 7170933 male
1.86447 0.6028051 -1.170995 0.9540647 0.2990205 0.0186317 526600 male
1.607673 0.3532897 -1.309038 0.7211607 -0.6927034 -0.009446144 16248814 male
1.462783 0.2959989 -1.39073 0.3593203 -0.02503685 -0.9328784 7366772 male
1.783945 0.3496605 -1.458164 -0.9009873 -0.185837 0.3920287 526600 male
1.434378 0.2216982 -1.150585 -0.3970751 0.06604563 0.9154067 3749694 male
1.539238 0.540087 -1.147294 -0.2055225 0.7229068 -0.6596712 8286069 male
1.851692 0.5392412 -1.132675 0.7521869 -0.2522123 0.6087724 789516 male
1.783264 0.268811 -0.9513885 0.8298786 -0.3201899 0.4569244 526600 male
1.358271 0.2981917 -1.253097 -0.976891 -0.2125351 -0.02264577 12235458 male
1.345177 0.4848913 -1.132847 0.3026405 -0.192684 0.9334246 15777986 male
1.559132 0.5580855 -1.112807 -0.286655 0.9576229 -0.02805722 7565692 male
1.776959 0.2804483 -0.9313965 0.8693452 -0.2395315 0.4322772 526600 male
1.757545 0.2800129 -1.35873 0.2085533 0.3107258 0.9273375 4605766 male
1.674593 0.2895156 -0.8901979 -0.6393262 -0.6856949 0.3479722 526600 male
1.696815 0.3104199 -0.9192538 0.02210125 0.452743 0.8913671 592137 male
1.832474 0.5157682 -1.216059 0.67562 -0.462474 -0.5741563 15190989 male
1.429205 0.1322061 -1.190038 -0.6367689 -0.5548189 0.535445 5000279 male
1.632642 0.5760837 -1.290738 0.01580867 0.9979288 0.06235593 12564937 male
1.551716 0.4771165 -1.098253 0.1175787 -0.8331546 0.5403968 9931413 male
1.820328 0.3853386 -1.442538 0.5363641 0.6015071 0.5920329 526344 male
1.363948 0.3631217 -1.560056 0.7621045 -0.1266792 0.6349404 15839162 male
1.447181 0.2409432 -1.400616 -0.3274134 0.0858055 -0.9409771 4342090 male
1.917337 0.2724447 -1.362203 0.4082384 0.7111601 0.5723571 526600 male
1.612416 0.1746961 -1.035816 -0.2386118 -0.5838292 0.7760205 3421500 male
1.817036 0.3291797 -1.507291 -0.1129046 -0.5467185 -0.8296694 526600 male
1.789528 0.5027291 -1.126119 -0.05523401 -0.5088557 0.859078 14398126 male
1.671585 0.2792784 -0.9101571 -0.6324912 -0.7412673 0.2246725 526600 male
1.685089 0.1791764 -1.30126 0.4973831 -0.01024562 0.8674705 3289653 male
1.605975 0.546095 -1.137671 0.5244971 0.6364321 0.565559 7104623 male
1.890091 0.31372 -1.464134 0.7722662 -0.1558369 -0.6158893 526600 male
1.99798 0.2094514 -1.373647 0.2365071 0.4810158 -0.8442085 526600 male
1.561279 0.5423604 -1.080045 -0.3323523 0.6468166 0.6864184 7564667 male
1.765649 0.3160748 -0.9114205 0.9206136 0.2880194 0.2636577 526600 male
1.40806 0.5518784 -1.491773 -0.9012712 -0.1465361 0.4077221 1052944 male
1.571042 0.3508441 -1.370867 0.6553185 -0.3484299 -0.6701897 9538458 male
1.955433 0.2515467 -1.371508 0.5251048 0.851031 -0.003347948 526600 male
1.387251 0.3306214 -1.297182 -0.9448282 0.2730237 -0.1809909 9999265 male
1.778091 0.6324311 -1.235122 -0.0009438694 0.648572 -0.7611527 4802377 male
1.576809 0.5485395 -1.076394 -0.0147976 0.7937621 0.6080483 6973040 male
1.800452 0.6074042 -1.245893 0.2195969 0.3882739 -0.8949975 14933987 male
1.794651 0.5174314 -1.247259 0.4564716 -0.2799286 -0.8445552 15580339 male
1.712298 0.3207961 -0.9462156 0.3686045 0.3299387 -0.8690634 526600 male
1.685208 0.2869998 -0.9030631 -0.6319341 -0.7379629 0.2367911 526600 male
1.436202 0.3598116 -1.162486 -0.4956344 -0.06544308 0.8660622 5657692 male
1.425492 0.4200398 -1.293944 -0.8734072 0.4154755 -0.2540471 14537446 male
1.578907 0.1355247 -1.078598 -0.1069734 -0.7298045 0.6752349 5394778 male
1.59742 0.07731719 -1.332631 0.5466611 -0.8005381 -0.2455616 5462628 male
1.794491 0.6396354 -1.128277 -0.02576086 0.7166457 0.6969615 526344 male
1.785509 0.4551809 -1.196223 0.7647718 -0.3534611 -0.5386923 12815497 male
1.594059 0.2295084 -1.319694 -0.266973 0.8659056 0.4230045 7239302 male
1.54828 0.2012834 -1.272539 0.2990492 0.9541941 -0.009126648 4213336 male
-2.475717 0.3427627 -1.405533 0.886134 -0.4625152 0.02909452 4406843 male
-2.559024 0.04418571 -1.378006 -0.4071037 0.07808321 -0.9100384 2434859 male
-2.666893 0.02009649 -1.375101 0.9327732 -0.01347172 -0.3602124 2829615 male
-2.521517 0.09246902 -1.224075 0.5280482 -0.3049708 0.7925644 2302507 male
-2.468891 0.3558036 -1.408184 0.9359895 -0.3462014 0.06378531 4012085 male
-2.779955 -0.1798719 -1.437616 -0.8012605 -0.1006029 -0.5897974 1776667 male
-2.723386 0.3334375 -1.37678 -0.9538589 -0.1059479 -0.2809423 3222569 male
-2.61418 0.2981446 -1.47492 -0.02079566 -0.7879763 -0.6153543 6709341 male
-2.582623 0.4790354 -1.794885 -0.9144257 -0.2585945 -0.311376 13285808 male
-2.712501 0.1037352 -1.394205 0.09922197 0.2428201 -0.9649838 4278095 male
-2.489196 -0.3480534 -1.396283 -0.1208422 0.2535063 -0.9597562 2698281 male
-2.560259 0.4882146 -1.838661 -0.6536421 -0.3091189 -0.6907951 5326917 male
-2.718006 0.3724134 -1.382059 -0.9855541 0.1673747 0.02586836 5261637 male
-2.592283 0.2747751 -1.42215 0.1230922 -0.7722697 -0.623256 7235428 male
-2.573303 0.3206041 -1.230564 0.03623185 0.6798912 0.7324175 9472128 male
-2.547671 -0.1365029 -1.347519 -0.9660516 0.02894698 0.2567229 2039071 male
-2.738943 -0.008078499 -1.294527 -0.4044364 -0.3802821 0.8317554 4013120 male
-2.426025 0.447549 -1.552707 0.4222719 -0.9015287 0.09451146 6709342 male
-2.49929 -0.440088 -1.407009 -0.6700626 -0.6880338 -0.2786139 3092783 male
-2.432064 0.4352117 -1.566151 0.3399132 -0.8108442 -0.4764357 9012094 male
-2.522368 0.443455 -1.672817 0.6267635 -0.6648612 0.4063587 12628392 male
-2.527792 0.1229693 -1.36709 0.2314653 0.2617139 -0.9369791 4144968 male
-2.724654 -0.4034175 -1.465425 0.8570458 0.4328761 -0.2794478 3290168 male
-2.713189 0.1192693 -1.589503 0.9832027 -0.07478879 -0.1664918 16309463 male
-2.762531 -0.353733 -1.396602 -0.9918458 0.04706454 -0.1184358 2105635 male
-2.642365 0.5357646 -1.561891 -0.2181717 0.9758762 0.008177668 4342080 male
-2.584508 0.5360004 -1.53548 -0.3230531 0.9425272 0.08531868 6575699 male
-2.451925 0.4965785 -1.451043 0.6660375 0.2601486 0.699083 5854545 male
-2.679438 -0.05486678 -1.404364 0.9065371 -0.1709633 -0.3859562 2631464 male
-2.391369 0.5210814 -1.486491 0.1784541 0.7264477 0.6636475 7697005 male
-2.580951 0.2399703 -1.187156 0.1088732 0.2002771 0.9736713 10458515 male
-2.558088 0.4319178 -1.634905 0.02428519 -0.9959485 -0.08658395 7103584 male
-2.459432 -0.2065257 -1.337493 0.9390957 -0.0617965 0.3380544 2303268 male
-2.403723 0.4520928 -1.525336 -0.3770528 -0.7899235 -0.4835826 8287602 male
-2.502634 0.4173388 -1.712031 0.6385969 -0.752277 0.1620908 14273208 male
-2.740465 0.4039648 -1.646743 -0.8226165 -0.08760725 -0.5618072 9011579 male
-2.584013 0.1747079 -1.349457 -0.01174021 0.02615441 -0.9995891 2895152 male
-2.435713 0.5004936 -1.520854 0.02441987 -0.7325407 0.6802851 526600 male
-2.740649 -0.04346858 -1.437642 -0.506255 0.17446 -0.8445531 3223348 male
-2.648724 0.5340171 -1.554367 -0.2413971 0.9703243 0.01407419 7631212 male
-2.625355 0.5212735 -1.483273 -0.05735199 0.9277679 0.3687241 7039331 male
-2.765133 0.1235008 -1.5801 -0.9834766 -0.1524162 0.09769034 16771814 male
-2.566022 0.522442 -1.843156 -0.6795421 0.01412515 -0.7335007 3222825 male
-2.668311 0.2629524 -1.204482 -0.08564951 0.3499461 0.9328463 9604233 male
-2.446604 0.5199708 -1.788157 0.9940637 -0.1063655 -0.02289057 3947060 male
-2.726831 -0.07991856 -1.462397 0.2086058 -0.368301 -0.9060013 4014147 male
-2.684963 0.3109578 -1.627328 0.7105201 -0.2630784 -0.6526494 16442848 male
-2.779943 0.09277796 -1.347958 -0.9443979 0.09986273 -0.3132734 2368293 male
-2.729482 0.2753637 -1.235377 -0.7016878 0.3654628 0.6116139 7498858 male
-2.672928 0.3624301 -1.55887 -0.7029591 -0.7058853 -0.08703274 5262920 male
-2.560733 0.2343078 -1.19085 0.3673198 0.1753931 0.9134078 9734788 male
-2.700696 -0.2407674 -1.393113 0.9785457 -0.201516 0.04289401 1841436 male
-2.488562 0.2169322 -1.288584 0.9840549 0.1400409 -0.1096579 7105124 male
-2.75289 0.2828158 -1.344086 -0.863824 0.2708322 -0.4248039 3355187 male
-2.364249 0.4483449 -1.41883 -0.8428588 -0.02039183 0.5377485 14468032 male
-2.453712 0.5638892 -1.808842 0.8919576 0.3271054 -0.3121119 4340793 male
-2.518607 -0.02157438 -1.277735 0.5230763 -0.2951981 0.7995309 2499878 male
-2.517596 0.5479155 -1.593307 0.04959579 0.9481744 -0.3138561 10524304 male
-2.660746 0.4913845 -1.645006 -0.2857191 0.1861543 -0.9400593 5393738 male
-2.742447 0.1639419 -1.212089 -0.659497 -0.2535424 0.7076584 3156784 male
-2.48871 0.1998847 -1.289421 0.9794371 0.1493119 -0.1356809 1578520 male
-2.722625 -0.3779079 -1.422998 0.8914165 0.297244 -0.342086 2959663 male
-2.787689 -0.1947732 -1.412453 -0.9793665 -0.1292699 -0.1553403 1973536 male
-2.727448 0.3455508 -1.352899 -0.9993425 0.008748582 -0.03519166 3486767 male
-2.593055 -0.02380014 -1.318497 -0.9744346 -0.2063296 0.0889138 2170657 male
-2.769781 -0.4225443 -1.366766 -0.6488554 -0.6926752 0.3149411 2565671 male
-2.734405 0.4381024 -1.649813 -0.5977345 0.4800224 -0.6420999 9142394 male
-2.450069 -0.4582909 -1.413466 -0.02783184 -0.9995969 0.005600039 526600 male
-2.739372 -0.281702 -1.428996 0.2030881 -0.1444173 -0.9684519 2499886 male
-2.770963 -0.4114134 -1.366693 -0.9239552 0.1916536 0.3310225 2171171 male
-2.343596 0.4405515 -1.403575 -0.9367833 -0.3498625 -0.005786896 16769760 male
-2.33012 0.3187282 -1.39139 -0.2687986 0.3064679 -0.9131402 16441812 male
-2.429264 0.4541702 -1.59274 0.09650171 -0.5222058 -0.8473423 3749937 male
-2.512276 0.5278051 -1.861928 0.07163921 0.09841267 -0.9925639 10786699 male
-2.6202 0.3456587 -1.562941 0.0618498 -0.8147969 -0.576438 9340280 male
-2.726807 0.337877 -1.303496 -0.6724066 0.7246822 0.1506828 5590604 male
-2.780592 -0.2038583 -1.378353 -0.8736016 -0.1123307 0.4735002 1974561 male
-2.509621 0.2272992 -1.317326 0.6392286 0.2152413 -0.7382805 8814718 male
-2.340676 0.4720049 -1.490048 0.9370375 0.2742718 -0.2161847 16576996 male
-2.483458 0.5120093 -1.851953 0.551632 -0.05086623 -0.8325354 6708568 male
-2.466825 -0.2904481 -1.372164 0.9587178 -0.1438253 -0.2453052 1974564 male
-2.543886 0.4193219 -1.321839 0.3463597 0.496163 0.7961516 8157553 male
-2.270948 0.3971791 -1.381829 0.6967385 -0.2149464 -0.6843638 16771552 male
-2.400721 0.5389053 -1.556399 0.5312522 0.8346537 -0.1453425 12300970 male
-2.469306 -0.2685657 -1.385448 0.8196648 -0.1343402 -0.5568684 2630697 male
-2.689377 0.1042957 -1.385371 0.4439248 0.2081293 -0.871558 4013896 male
-2.472332 -0.1100135 -1.361561 0.9826111 0.1856045 0.005150378 2960437 male
-2.493071 -0.02518788 -1.363281 0.8804833 -0.1302258 -0.4558407 3224378 male
-2.563171 0.4813184 -1.832256 -0.6855811 -0.3701756 -0.6268563 5457733 male
-2.548055 0.2149559 -1.193173 0.5299613 0.08657316 0.8435915 9012097 male
-2.799842 -0.4380969 -1.493394 0.2788323 -0.9591057 0.04867045 789516 male
-2.393819 0.4747337 -1.568304 0.2150527 -0.895138 -0.3904871 8090477 male
-2.663758 0.003048446 -1.340589 0.9839172 -0.1756544 0.03244448 1974049 male
-2.766857 -0.08082095 -1.576138 0.1010422 -0.2027955 -0.9739943 3746599 male
-2.680724 0.2956972 -1.409533 -0.5829776 -0.4995138 -0.6407988 5854289 male
-2.697342 -0.197463 -1.417575 0.844473 -0.142556 -0.5162784 2039842 male
-2.48569 -0.01069592 -1.340284 0.9804655 -0.18382 -0.06998551 2696746 male
-2.762207 -0.1477736 -1.360756 -0.4334764 0.1933905 0.8801696 2764082 male
-2.464653 0.4898566 -1.827129 0.8343235 -0.2773287 -0.476438 5195328 male
-2.470165 -0.1249794 -1.344344 0.9153023 0.2605885 0.3071086 2697257 male
-2.689189 -0.008862953 -1.300456 0.5299658 -0.3972423 0.749223 2500141 male
-2.445051 0.5211014 -1.586546 0.3863008 0.561708 -0.7316121 9078143 male
-2.695729 -0.1001595 -1.389457 0.8549733 -0.09885099 0.5091654 1777185 male
-2.764627 -0.3663063 -1.402797 -0.973475 0.1341587 -0.1853325 856084 male
-2.373358 0.5167812 -1.567565 0.9248175 0.2595799 -0.2780849 9998727 male
-2.519899 -0.1264259 -1.402281 -0.473316 -0.3408965 -0.8122572 1973793 male
-2.720628 0.1407675 -1.605519 0.6612272 -0.02498196 -0.7497697 16768206 male
-2.552162 0.3644674 -1.550434 0.07984816 -0.8551895 -0.5121282 16571312 male
-2.715247 0.03846347 -1.40854 0.05939424 0.06697002 -0.9959858 4211789 male
-2.709153 0.3538463 -1.304618 -0.6917285 0.5388545 0.4807782 6380633 male
-2.555567 0.6005483 -1.749577 -0.4894708 0.823375 0.2871794 4932413 male
-2.409824 0.4725029 -1.569051 -0.09678174 -0.9679885 -0.2315852 10261900 male
-2.57914 0.5780758 -1.792509 -0.8584507 0.4922641 -0.1440093 4538941 male
-2.552478 0.45024 -1.794887 0.03053005 -0.9957854 -0.0864828 8154989 male
-2.547046 -0.02722944 -1.273195 -0.1243393 -0.3760159 0.9182331 2960949 male
-2.465981 -0.1315653 -1.370225 0.9689888 0.1839209 -0.1650277 2565672 male
-2.467528 0.3876671 -1.391255 0.929409 -0.04156283 0.366704 4341050 male
-2.587245 0.5043521 -1.433465 -0.3268785 0.7924417 0.5149629 8617083 male
-2.476943 0.07685798 -1.304879 0.9966021 -0.02831576 0.07734805 2170145 male
-2.700542 0.1182656 -1.210546 0.03811792 -0.5921222 0.8049464 4276553 male
-2.468771 0.59398 -1.795676 0.7035463 0.6948879 -0.1488407 7037274 male
-2.574977 0.43896 -1.757891 -0.7010439 -0.6437669 -0.3067603 16772577 male
-2.766091 0.1351331 -1.354568 -0.8074911 0.2305263 -0.5429696 2697257 male
