# .PCD v0.7 - Point Cloud Data file format
VERSION 0.7
FIELDS x y z normal_x normal_y normal_z rgb label
SIZE 4 4 4 4 4 4 4 4
TYPE F F F F F F U U
COUNT 1 1 1 1 1 1 1 1
WIDTH 247
HEIGHT 1
VIEWPOINT 0 0 0 1 0 0 0
POINTS 247
DATA ascii
1.414901 0.9732973 -0.7938816 -0.1813434 -0.6017455 0.7778283 6578022 male
1.479952 0.5851687 -0.7599183 0.7966381 -0.342552 -0.498022 591113 male
1.571902 0.6844758 -0.9369132 0.5716839 0.3677535 0.7334404 8553617 male
1.308143 0.7308533 -0.8226214 -0.8182167 -0.1311368 0.559754 4672083 male
1.419519 0.9491072 -0.8207007 0.02413368 -0.7247791 0.6885585 7236214 male
1.687122 0.5319741 -0.943046 0.8073521 -0.2604896 0.5294597 526600 male
1.334141 0.8308178 -1.07634 -0.5998359 -0.08630531 -0.7954546 6843767 male
1.575094 1.089433 -0.7362579 0.6560738 -0.4423846 0.6114434 11776201 male
1.756069 1.155804 -0.6591122 0.996482 -0.06046427 0.05803028 14464433 male
1.48941 0.7023715 -0.9392707 -0.1397151 -0.02903254 0.9897661 4211528 male
1.374289 0.4959651 -0.7324331 -0.9958572 0.08186711 -0.03957483 526600 male
1.753415 1.263413 -0.7197046 0.6488411 0.04391646 -0.7596556 8352886 male
1.479976 1.075963 -1.003352 -0.09850034 0.2816016 -0.9544622 7039347 male
1.438702 0.8803706 -0.8892819 0.610298 -0.1957729 0.7675997 13222610 male
1.283545 0.9444076 -0.9512774 -0.7760808 0.5219765 -0.3538914 9868199 male
1.349021 0.6346394 -0.8322256 -0.8439288 -0.463492 -0.27011 5856618 male
1.483839 0.6480813 -1.030807 -0.4118388 -0.6093162 -0.6775858 9673133 male
1.492751 1.093247 -0.6966855 -0.2018351 -0.9659883 -0.1616452 526598 male
1.391706 0.2684291 -0.7834122 0.2208526 -0.9579547 -0.1831582 526600 male
1.535812 1.110025 -0.6783569 0.8969398 -0.07292572 0.4360974 11512759 male
1.630048 1.125189 -0.7294952 0.05831544 -0.868648 0.4919857 16245216 male
1.41001 0.8019487 -0.8435189 0.803018 0.4375433 0.4046205 8687008 male
1.671051 0.2999181 -0.9518516 0.5531328 0.8232412 -0.1277426 526600 male
1.648786 0.905803 -1.043918 -0.763328 -0.5197524 -0.3836506 13480626 male
1.655633 0.5188586 -0.9247537 0.4231548 -0.2491742 0.8711213 526600 male
1.601647 1.226283 -0.8670486 0.1461385 0.9545273 -0.2598486 11117235 male
1.442901 1.162189 -0.8538607 -0.5005925 0.7435253 -0.4433705 15918842 male
1.463405 1.014653 -0.7540568 -0.199268 -0.6558642 0.7281032 7433848 male
1.508566 0.7185841 -0.9386765 0.07108793 0.1535357 0.9855827 5790567 male
1.424546 1.110432 -0.7019919 -0.7481342 0.4020697 -0.527859 7565698 male
1.287684 0.8966524 -0.9976634 -0.7890288 0.2573645 -0.5578504 7567491 male
1.609554 1.128502 -0.724044 -0.05536249 -0.7579948 0.6499069 15455701 male
1.452326 0.5018755 -0.6854029 0.6634945 -0.2924047 0.688676 526600 male
1.455306 1.066299 -0.6434973 0.2666077 -0.2369803 0.9342166 13674928 male
1.658928 1.145435 -0.6579177 -0.544356 -0.6260577 0.5583262 12427676 male
1.685171 1.168105 -0.9419655 0.4320577 0.5310634 -0.7289017 6775661 male
1.294293 0.808619 -0.8431392 -0.6927881 0.1259782 0.7100523 3553606 male
1.383533 0.6165653 -0.7551591 -0.9780893 -0.01577668 0.2075869 1512727 male
1.582752 0.6899614 -0.964351 0.8851902 0.3749021 0.2754753 7238015 male
1.593221 1.222721 -0.8769475 0.04904448 0.9414667 -0.3335191 10329006 male
1.527138 1.205468 -0.8564638 -0.4479222 0.894024 0.009321958 14934258 male
1.620391 0.9822717 -0.9989867 -0.8033653 -0.2912701 0.5193898 6451325 male
1.777419 1.281151 -0.6796271 0.884802 0.3560678 -0.3005682 3223601 male
1.314806 0.945888 -1.000782 -0.7084348 0.5411285 -0.4531006 8749454 male
1.673557 1.259838 -0.5986573 -0.4830216 -0.05215448 0.8740538 9735055 male
1.6764 0.6193442 -0.963593 0.8102329 0.0410451 -0.584669 526600 male
1.699265 1.091499 -0.9286412 0.9838281 -0.08364823 0.1583833 16772071 male
1.504218 0.7405332 -1.067317 0.5080405 0.03028503 -0.8608006 6514035 male
1.331414 0.944979 -1.026893 -0.6908374 0.5341715 -0.4872419 8618641 male
1.569922 1.062357 -0.9672489 0.6623746 -0.2846168 -0.6930029 4999500 male
1.255838 0.8419717 -0.9436277 -0.994961 -0.04928225 -0.08731478 2698289 male
1.55544 0.6995572 -0.9402147 0.5027013 0.3356876 0.7966211 986896 male
1.277867 0.7449957 -0.8842228 -0.9167916 -0.3727742 0.1432927 9277597 male
1.480279 0.9389262 -1.003752 0.9869847 0.1140063 -0.1134183 7762046 male
1.325764 0.9523979 -0.7168427 -0.4325737 -0.04810737 -0.9003142 10455432 male
1.620055 1.247882 -0.6704387 -0.974863 -0.07570054 0.2095507 11971502 male
1.410192 0.6090118 -0.82073 -0.2542435 -0.4474193 -0.8574243 5461339 male
1.537703 1.214309 -0.7360173 -0.05702371 0.9631613 0.2628088 11644345 male
1.623363 1.213221 -0.8900155 0.3212321 0.8917094 -0.3188485 11708858 male
1.38577 0.8073415 -1.099767 -0.0872784 -0.08339708 -0.992687 5001052 male
1.285165 0.8899373 -0.8664708 -0.7997044 0.05204162 0.5981342 5790561 male
1.620591 0.3394149 -0.9690863 -0.1741244 0.2979476 0.9385669 526600 male
1.677487 0.535691 -0.9929529 0.6881755 -0.08703423 -0.7203052 526600 male
1.348435 0.8197595 -1.085949 -0.4561825 -0.09372918 -0.8849365 8883363 male
1.309818 0.7587759 -0.9829958 0.03287253 -0.7540426 -0.6560023 591113 male
1.655017 0.2945303 -1.035398 0.240277 0.03385765 -0.9701138 526600 male
1.681925 1.116893 -0.8815891 0.2722718 -0.7997134 0.5350947 14406628 male
1.403592 0.2999154 -0.7873458 0.8749734 0.2141742 -0.4342244 526600 male
1.585989 0.3833524 -1.007976 -0.4997869 -0.01397626 -0.8660356 526600 male
1.576632 0.3585232 -1.01786 -0.2175957 0.2698783 -0.9379861 526600 male
1.362334 0.9491111 -0.7040697 0.8852785 -0.2629576 -0.3835821 16310759 male
1.327157 0.8034163 -0.6484004 0.2899894 0.2094245 0.9338348 15907260 male
1.47308 1.166358 -0.6825514 -0.3045849 0.673115 0.6739023 11183024 male
1.753042 1.317031 -0.6394162 0.6545593 0.7060674 0.2702237 526600 male
1.625064 1.048013 -0.8614168 0.7623914 -0.6041629 0.2318329 10063771 male
1.372215 0.8369343 -1.093666 -0.1985247 0.1195676 -0.9727752 7171966 male
1.643765 0.5205803 -1.00841 0.1494856 -0.05070101 -0.9874631 526600 male
1.34565 0.8823256 -0.8445255 0.292334 0.3436649 0.8924323 10595247 male
1.405544 1.05864 -0.6557238 -0.6692768 0.3442476 0.6584545 14921643 male
1.765532 1.256077 -0.605488 0.6193198 0.1317785 0.7740008 789516 male
1.446124 0.4484214 -0.7351799 0.9375925 -0.3476628 0.007136256 526600 male
1.367812 1.078579 -0.8234041 -0.93333 0.3227565 0.1572366 10591145 male
1.336699 0.8955184 -0.6456714 0.2620162 -0.04925299 0.9638058 16704221 male
1.473071 1.11608 -0.6295745 -0.2244018 0.07252654 0.971794 6972786 male
1.436529 0.4279791 -0.7296151 0.9114586 -0.3673512 0.1851928 526600 male
1.467369 0.7106162 -0.9413903 -0.1529412 -0.104495 0.9826952 4736848 male
1.383372 0.5453578 -0.724858 -0.944519 0.3282428 0.01184925 526600 male
1.380733 0.6822152 -0.7621812 -0.2278188 0.06232833 0.9717066 5263450 male
1.785125 1.243716 -0.6734074 0.9619865 0.0008573285 -0.2730958 15447735 male
1.29575 0.9772241 -0.9185016 -0.739845 0.6625524 -0.1168483 11775164 male
1.624493 1.219848 -0.8084364 0.2060991 0.9647918 0.1634009 6710382 male
1.485756 1.089797 -0.636519 0.3010473 -0.5774695 0.7588804 11775682 male
1.553788 0.6414531 -0.9205856 -0.2612512 -0.1240839 0.9572622 4407879 male
1.74106 0.7677435 -0.9922998 0.5654714 0.7282901 0.3870862 16173531 male
1.408371 0.8885128 -1.088216 0.1294215 0.1156417 -0.9848233 5857386 male
1.557799 0.7160337 -0.9578879 0.7409596 0.3781448 0.5549643 8358038 male
1.428298 0.5946344 -0.6962399 -0.4434825 0.1090467 0.8896246 526600 male
1.635834 0.5670017 -1.005148 -0.1171125 0.2095486 -0.9707595 526600 male
1.750713 1.235673 -0.596589 0.379149 -0.09709275 0.9202277 527368 male
1.422174 0.5670704 -0.6812794 -0.4835234 0.1521041 0.8620148 526600 male
1.444664 0.6656783 -0.9738854 -0.6348076 -0.6021865 0.4841391 1381401 male
1.542675 1.102294 -0.6998743 0.8006275 -0.2031479 0.5636722 11775425 male
1.615793 0.5111337 -1.004044 -0.4013814 0.009926983 -0.9158572 526600 male
1.613822 0.3599517 -1.016636 0.3660738 0.0182093 -0.9304077 526600 male
1.459637 1.145939 -0.6505067 -0.4996185 0.567794 0.6542104 7367029 male
1.45336 0.4778384 -0.7560458 0.8459324 -0.2828209 -0.4521179 526600 male
1.61946 0.9535226 -1.020543 -0.8844702 -0.4452303 0.1395791 1117969 male
1.564628 0.9945667 -0.8727193 0.6187634 -0.7420602 0.2578342 13878982 male
1.589082 0.6610224 -0.9230515 0.3216546 0.1724815 0.9310148 723979 male
1.406377 1.086346 -0.9351419 -0.7387781 0.6265599 -0.2482528 10920628 male
1.65949 1.318844 -0.7036773 -0.4805575 0.7459225 -0.4611552 16643837 male
1.505171 1.088723 -0.6545579 0.538782 -0.8056496 0.2462576 10064033 male
1.677333 1.294112 -0.7344307 -0.1399198 0.4551734 -0.8793404 16116461 male
1.742395 1.152223 -0.6557792 -0.001597643 -0.1673322 0.9858992 13079951 male
1.444551 0.607564 -0.817346 0.4055227 -0.2990256 -0.8637911 329733 male
1.409074 0.4987465 -0.6820254 -0.4142599 -0.1192592 0.9023114 526600 male
1.411585 1.013305 -0.769653 -0.3929093 -0.3673599 0.8430118 920846 male
1.38625 1.067134 -0.9355498 -0.6380599 0.6317673 -0.4401699 11905981 male
1.363539 0.6782805 -0.7694711 -0.5359024 -0.03989104 0.843337 3487805 male
1.375598 0.7394746 -1.069968 -0.3453082 -0.7161044 -0.6065943 5462628 male
1.671719 1.320216 -0.6206726 -0.4456899 0.6554036 0.6097594 526344 male
-2.458965 0.401688 -1.381705 0.9478005 -0.08854794 -0.3063229 3619383 male
-2.411482 0.03070039 -1.346077 0.8179984 -0.1912835 -0.5424845 3487293 male
-2.623745 -0.2675242 -1.380273 0.9418812 -0.3164517 0.1127767 1644825 male
-2.453613 0.1007365 -1.200905 0.1884884 -0.428139 0.8838378 2632496 male
-2.459736 0.3963855 -1.38208 0.9276676 -0.1230898 -0.3525367 3487797 male
-2.670448 -0.1142792 -1.381663 -0.9156089 0.3539427 0.190749 2235682 male
-2.624339 0.3426493 -1.411909 -0.3165803 -0.5798268 -0.7507184 8484723 male
-2.57827 0.4928052 -1.536457 -0.3245302 -0.3494479 -0.8789576 8221808 male
-2.794006 0.5667324 -1.548374 -0.6935824 -0.5951911 0.4058217 5064517 male
-2.565264 0.05650549 -1.346614 0.8041589 0.1011054 -0.585753 2434604 male
-2.505693 -0.2974606 -1.355304 -0.6260497 0.03631989 -0.778937 1841180 male
-2.810752 0.5184342 -1.601544 -0.8474774 -0.3962408 0.3532358 14074805 male
-2.645402 0.3667316 -1.226955 -0.6026421 0.1566352 0.7824885 4406586 male
-2.495483 0.3548554 -1.402992 0.5528847 -0.4670593 -0.6900539 6313810 male
-2.484632 0.3030163 -1.177384 0.1738617 0.4665117 0.8672596 9142397 male
-2.500408 -0.1521708 -1.309117 -0.8215485 0.3187284 0.4727268 2302500 male
-2.665596 0.008028227 -1.316637 -0.9591407 -0.2661206 0.0960682 2499880 male
-2.535057 0.5994584 -1.559382 0.2696386 0.9537559 -0.1328331 4208437 male
-2.505386 -0.4507926 -1.357488 -0.09722451 -0.990079 -0.1014438 526600 male
-2.52297 0.4468163 -1.492316 0.7080908 -0.4584358 -0.5370701 4340278 male
-2.74814 0.5294646 -1.487113 -0.8345342 -0.5080652 0.2131259 12626079 male
-2.497573 0.1238739 -1.340337 -0.5783178 0.1325553 -0.8049707 3223601 male
-2.6415 -0.443987 -1.445607 0.7832687 -0.5686529 0.2512451 1907741 male
-3.017775 0.3132477 -1.54644 0.5626682 -0.6994238 -0.4406938 14205372 male
-2.710821 -0.3404213 -1.364745 -0.7756535 -0.0966372 0.6237171 3158578 male
-2.626676 0.5350847 -1.31797 0.2213218 0.7251886 0.6520109 7498858 male
-2.612479 0.5988941 -1.415443 -0.2201786 0.853872 0.4716185 9472390 male
-2.471511 0.4522656 -1.422612 0.8693384 0.0001001479 -0.4942176 3354411 male
-2.6283 0.05273669 -1.377337 -0.2211029 0.184807 -0.9575803 3949129 male
-2.510699 0.5463761 -1.570022 0.9658786 -0.157848 0.2053359 7434089 male
-2.483386 0.2606015 -1.16163 0.2060775 0.2549299 0.9447449 9011581 male
-2.632967 0.5993167 -1.512086 -0.201985 0.5746125 -0.7931095 3748913 male
-2.420718 -0.1878479 -1.324264 0.977393 -0.1400074 0.1584332 2303011 male
-2.57295 0.5486256 -1.676145 -0.6399609 0.7265617 -0.2501164 6908001 male
-2.722653 0.4378694 -1.602302 -0.05623645 -0.8056676 -0.5896926 13614006 male
-2.820364 0.4396303 -1.405323 -0.215845 -0.5658042 0.7957869 3815730 male
-2.398329 0.1373974 -1.330545 0.8070834 0.089079 -0.5836794 3487806 male
-2.526018 0.4952454 -1.648617 0.3082388 -0.9318922 0.191222 1579032 male
-2.656796 -0.07258719 -1.376718 -0.9809161 0.1633818 0.1054046 1908768 male
-2.629516 0.523113 -1.307812 0.1742275 0.6766296 0.7154141 7958897 male
-2.640733 0.3355106 -1.217767 -0.5975558 0.4079065 0.6903185 5985874 male
-3.076116 0.3441216 -1.54017 -0.9967932 0.07834708 0.01629019 16770783 male
-2.75316 0.5360634 -1.522785 -0.7689985 -0.1858191 0.6116476 12166046 male
-2.60316 0.1685319 -1.150285 -0.2153418 -0.2447683 0.9453659 4539725 male
-2.704841 0.5856982 -1.673314 0.7013283 0.08442328 -0.7078218 4472636 male
-2.60573 -0.02305051 -1.407846 -0.04313469 0.2766781 -0.9599943 3818051 male
-2.890973 0.4346008 -1.53566 0.2977841 0.372668 -0.8788877 10262929 male
-2.806019 0.4335328 -1.40274 -0.2160199 -0.9359906 0.2779514 591113 male
-2.59173 0.1894965 -1.148246 -0.09860834 -0.1235843 0.9874227 3553598 male
-2.749736 0.4147018 -1.405212 -0.4250123 -0.8666781 0.2612157 5197127 male
-2.548998 0.3558903 -1.208158 -0.05730958 0.6231363 0.7800108 14010820 male
-2.61082 -0.2344704 -1.393896 0.9101027 -0.329064 -0.2518535 2434599 male
-2.387393 0.2019236 -1.265036 0.9967626 0.07855187 0.01715457 2632238 male
-2.619259 0.224947 -1.299113 -0.2901501 0.3010833 -0.9083842 6775135 male
-2.546884 0.4939378 -1.65667 -0.1213012 -0.9648705 0.233047 6447193 male
-2.726341 0.6288016 -1.673596 0.4040636 0.5276915 -0.7471777 4340793 male
-2.466219 -0.06962271 -1.287149 -0.1184594 -0.1497527 0.9816017 2566447 male
-2.515124 -0.4325847 -1.421753 0.05312171 0.9985809 0.003781334 2566439 male
-2.751541 0.5431889 -1.459939 -0.7400069 -0.08572773 -0.6671138 4867138 male
-2.66659 0.1618534 -1.201548 -0.901162 -0.06297221 0.4288843 2631469 male
-2.390772 0.1400621 -1.247737 0.9518629 -0.1223254 0.2810583 2829359 male
-2.68826 -0.397731 -1.429535 0.8598987 0.5027359 0.08849326 2961461 male
-2.666767 -0.1930571 -1.434609 -0.5685945 -0.04454052 -0.8214114 1842205 male
-2.6161 0.342088 -1.41399 -0.2427121 -0.5731086 -0.7827117 8025714 male
-2.483589 0.1040487 -1.198413 -0.1967213 -0.4416778 0.8753408 3224378 male
-2.771445 -0.4361525 -1.426457 -0.5122565 -0.8488668 0.1304547 526344 male
-2.83215 0.5058879 -1.409361 -0.4791032 0.7495461 0.4567724 9801093 male
-2.553868 -0.4003669 -1.329586 -0.9560696 0.2115934 -0.2028782 2039585 male
-2.614933 -0.2000508 -1.418316 0.7481211 -0.2137663 -0.6281872 2500137 male
-2.769509 -0.4058438 -1.375175 -0.9611923 0.2694914 0.05902559 3027254 male
-2.554688 0.4943477 -1.660302 -0.1432706 -0.9593359 0.2432038 6775647 male
-2.579454 0.4573162 -1.90564 -0.1903486 -0.9723799 -0.1350736 10916757 male
-2.518667 0.4843416 -1.502734 0.9369269 -0.1871224 -0.2952177 4604222 male
-2.815813 0.6235759 -1.635715 -0.8399709 0.5089417 -0.1882214 3485741 male
-2.702108 0.3966584 -1.42901 -0.4325909 -0.7465903 -0.5054386 6905950 male
-2.577581 0.4427483 -1.506251 -0.1392571 -0.544003 -0.8274469 9143418 male
-2.688894 -0.1900242 -1.390225 -0.9991555 0.03085435 -0.02713859 1777185 male
-2.40365 0.2713362 -1.295131 0.8778675 0.2411444 -0.4137611 5458757 male
-2.514201 0.5362353 -1.65143 0.9240867 0.3591323 -0.1307216 7893616 male
-2.682324 0.5867383 -1.54632 0.7191826 0.694787 0.006903887 8221292 male
-2.439884 -0.2538067 -1.343211 0.9217024 -0.347134 -0.173098 2697001 male
-2.487814 0.4713846 -1.316292 0.6671944 0.4347376 0.6048597 5460555 male
-2.481941 0.4724431 -1.782256 0.9782083 -0.1518356 -0.1416151 14730429 male
-2.534125 0.5747631 -1.623886 0.4468411 0.8667296 -0.2216144 9669508 male
-2.439826 -0.246542 -1.355932 0.8624037 -0.3263593 -0.3869752 2697257 male
-2.555451 0.04174813 -1.329486 0.9208581 -0.04742403 -0.3870035 2632236 male
-2.439524 -0.07317587 -1.297782 0.6173305 -0.106189 0.7795045 2368036 male
-2.451629 -0.0658631 -1.384546 0.4624462 0.005241218 -0.886632 3750978 male
-2.784808 0.5065751 -1.672439 -0.4602395 -0.6813807 -0.5691223 13021861 male
-2.461358 0.3424976 -1.211186 0.4295278 0.6721671 0.6030734 6510423 male
-2.721296 0.591891 -1.45793 -0.1883781 0.9630302 -0.1925788 4803395 male
-2.589121 0.529825 -1.629941 -0.9613231 -0.2006388 -0.188685 8946304 male
-2.572525 -0.100435 -1.376187 0.9004979 -0.3681367 0.2314719 2039843 male
-3.050258 0.5210676 -1.695395 -0.3170415 0.9478658 -0.03217503 14004902 male
-2.554693 0.321882 -1.399994 0.005724639 -0.5991412 -0.8006231 7235686 male
-2.617888 -0.2523732 -1.387703 0.9399093 -0.3306667 -0.08503121 2236194 male
-2.391606 0.07912221 -1.280468 0.9619076 -0.2275856 0.1514556 2500136 male
-2.617733 -0.1129927 -1.347713 0.1997868 0.2284996 0.9528238 2369324 male
-2.701263 0.5093801 -1.656637 0.6330014 -0.2577758 -0.7299733 16441556 male
-2.423725 -0.05116716 -1.31483 0.9767421 -0.1562642 0.1468221 2565935 male
-2.543625 0.06128101 -1.245989 0.8782358 -0.3292255 0.3468612 2170913 male
-2.525799 0.466186 -1.509514 0.7283182 -0.3590072 -0.5836666 4669758 male
-2.67691 -0.1849271 -1.357519 -0.7495549 0.0182774 0.6616901 2894640 male
-2.69505 -0.3709994 -1.423171 0.8603914 0.4489847 -0.2411215 2565418 male
-2.514161 0.5587168 -1.603692 0.9062158 0.4212286 -0.03659964 8484208 male
-2.462035 -0.1550562 -1.38286 -0.2766457 -0.1458522 -0.9498393 2500651 male
-3.070233 0.3864759 -1.587076 -0.9456673 0.3235273 -0.03230733 16706278 male
-2.632006 0.365446 -1.424376 -0.2150534 -0.5760896 -0.7885893 16768949 male
-2.604006 -0.004136659 -1.396151 0.04250896 0.2280087 -0.9727308 3949386 male
-2.57127 0.3380298 -1.196891 -0.07896297 0.5961879 0.7989525 12299435 male
-2.806051 0.6317976 -1.586896 -0.7294614 0.5234299 0.4403492 4933187 male
-2.506434 0.5755606 -1.537597 0.8552064 0.5175357 -0.02791035 5065544 male
-2.826937 0.5872561 -1.609938 -0.9752102 0.1080948 0.1930823 4866106 male
-2.800414 0.5544297 -1.566838 -0.7591705 -0.261994 0.5958352 5131339 male
-2.465899 -0.04121148 -1.266949 0.02781969 -0.2837948 0.9584815 2960173 male
-2.419533 -0.1370361 -1.326894 0.9793282 0.04572442 0.197043 2697257 male
-2.457463 0.4183474 -1.337437 0.9802398 0.146282 0.1331611 6183253 male
-2.640922 0.5750212 -1.385583 -0.105772 0.873263 0.4756302 9210500 male
-2.403289 0.04059805 -1.283235 0.9115381 -0.3221846 0.2555297 2631208 male
-2.631173 0.09522045 -1.189951 -0.4527496 -0.5416143 0.708288 2959664 male
-2.714158 0.6467586 -1.582022 0.4156855 0.8166793 0.4003006 6313295 male
-2.749021 0.4467322 -1.615994 -0.3198138 -0.9322872 -0.1689962 15717334 male
-2.555621 0.1304226 -1.314463 0.7126529 0.181807 -0.6775486 3092015 male
-2.512924 0.2294662 -1.346762 0.3325402 0.07750844 -0.9398988 8749181 male
-2.756965 -0.4215421 -1.351695 0.3240337 -0.4883634 0.810249 1052696 male
-2.957149 0.4199342 -1.492104 -0.6485097 0.4800243 0.5907725 16705752 male
