# .PCD v0.7 - Point Cloud Data file format
VERSION 0.7
FIELDS x y z normal_x normal_y normal_z rgb label
SIZE 4 4 4 4 4 4 4 4
TYPE F F F F F F U U
COUNT 1 1 1 1 1 1 1 1
WIDTH 249
HEIGHT 1
VIEWPOINT 0 0 0 1 0 0 0
POINTS 249
DATA ascii
1.225284 0.1875834 -1.235075 -0.2401811 0.154688 0.9583238 5394258 male
1.427712 0.1919622 -1.07927 -0.5159421 0.7177587 0.4675749 7172991 male
1.786002 0.2565683 -1.305928 0.3283295 0.7905099 0.5170046 526600 male
1.4777 0.05972666 -1.147503 0.6189793 -0.7800719 0.09139168 8357015 male
1.247671 0.1844645 -1.232623 0.02434567 0.3108167 0.9501579 10853540 male
1.682674 0.3134638 -1.393987 0.2276212 0.7646099 0.6029596 723211 male
1.407914 -0.01137208 -1.373325 0.01321465 -0.8025816 -0.5963959 8818595 male
1.284686 0.388501 -1.323257 0.845642 0.4480786 0.2900262 15724736 male
1.267249 0.6020554 -1.423953 0.7421883 0.06129323 -0.6673827 15711157 male
1.604703 0.2153907 -1.319676 -0.1677107 0.5830749 0.7949194 3948100 male
1.769613 0.2099312 -0.9811912 0.4832109 0.7471803 0.4563209 526600 male
1.236781 0.7007452 -1.386892 0.5556875 0.815136 -0.1635991 1051664 male
1.240617 0.2402146 -1.495865 -0.269541 -0.4725732 -0.8390603 8419977 male
1.313281 0.2314991 -1.274887 0.583463 0.2997268 0.7548078 13486045 male
1.192289 0.1130438 -1.316275 -0.688927 -0.7233263 -0.04667625 9406615 male
1.502159 0.2022568 -1.018597 0.301674 -0.9293243 -0.212953 526344 male
1.600214 0.1312481 -1.398095 0.3946072 -0.3963532 -0.8289688 5001303 male
1.162012 0.3849702 -1.263362 0.4201719 -0.6139122 0.6682569 526600 male
1.811295 0.2037906 -0.9780326 0.3808033 0.9065885 0.181896 526600 male
1.133764 0.4621387 -1.255871 -0.1443055 0.9534639 0.2647312 9209492 male
1.270636 0.4941423 -1.382929 0.9930645 -0.09633513 0.06739938 16768477 male
1.409199 0.1655599 -1.189836 -0.06236541 0.8923758 -0.4469631 2304556 male
1.951426 0.209526 -1.188733 -0.1939173 0.5707849 -0.7978725 526600 male
1.357387 0.1936264 -1.689812 0.1804817 -0.9047925 0.385716 1249810 male
1.82864 0.220034 -1.317658 0.9021119 0.06719063 -0.4262389 526600 male
1.170547 0.3653106 -1.495116 -0.8292989 0.02166606 -0.5583853 13749469 male
1.161273 0.2623871 -1.412751 -0.780147 -0.4641457 -0.4194513 13156824 male
1.169768 0.3291925 -1.256206 -0.06854323 0.02032632 0.9974411 657418 male
1.740234 0.2769473 -1.319079 -0.1208625 0.57808 0.8069794 526600 male
1.079873 0.3749115 -1.181129 -0.83455 0.4778105 0.2742688 15908277 male
1.342464 -0.008266867 -1.301649 -0.09964487 -0.9949794 -0.009318396 6713989 male
1.15253 0.4731385 -1.383746 -0.7686427 0.541363 -0.3407558 10851737 male
1.573665 0.2809695 -0.9263712 0.5257985 0.06748992 0.8479274 526600 male
1.094285 0.4034355 -1.201025 -0.5189642 0.6837433 0.5130022 12953770 male
1.281724 0.5542681 -1.34215 0.5905153 -0.05884865 0.8048779 13017748 male
1.233465 0.4049566 -1.565012 -0.7672625 -0.113968 -0.6311255 9407127 male
1.361191 0.08958904 -1.105373 -0.5904658 -0.1253599 0.7972673 4474698 male
1.1175 0.3392666 -1.230641 0.4009802 -0.8241565 -0.3999761 4603457 male
1.653078 0.1850591 -1.414802 0.1777947 -0.6966279 -0.6950529 3948612 male
1.174789 0.3611753 -1.501167 -0.778567 -0.006185676 -0.6275311 13748953 male
1.154034 0.3662655 -1.450078 -0.9672754 0.001215863 -0.2537256 14736112 male
1.400342 0.2550932 -1.691572 0.6532757 0.4885111 -0.5784355 13085614 male
1.217926 0.6776696 -1.438586 0.4565638 0.5138109 -0.7263249 6184030 male
1.357977 0.005156346 -1.390314 -0.1177812 -0.742767 -0.6591091 12633812 male
1.157764 0.6398411 -1.321523 -0.3380637 -0.01732915 0.9409637 14207184 male
1.57191 0.1990044 -1.385267 -0.1136317 0.7866147 -0.606898 7040892 male
1.333663 0.3740163 -1.558431 0.8764336 0.3627536 0.3166606 16775158 male
1.25311 0.375562 -1.531258 0.03325447 -0.9584579 -0.283289 526600 male
1.290526 0.02684605 -1.358699 -0.628076 -0.7155273 -0.3058451 7370624 male
1.3118 0.2819088 -1.486258 0.7657973 -0.1232048 -0.6311697 2106144 male
1.292276 0.0109729 -1.315528 -0.5111108 -0.8218498 -0.2516516 8685972 male
1.829059 0.2192164 -1.282262 -0.132218 0.8288883 0.5435647 526600 male
1.316735 0.05707343 -1.154856 -0.5526682 -0.2758701 0.7864181 2894900 male
1.355829 0.1849985 -1.340364 0.7982225 0.6019168 -0.02317217 12301771 male
1.10664 0.2984654 -1.161296 0.6098727 -0.7245854 -0.3209848 1051664 male
1.138061 0.5645976 -1.368644 -0.590538 -0.6606365 0.4634912 11971502 male
1.528349 0.315085 -0.9920146 -0.06513786 0.7231756 -0.6875858 526600 male
1.865927 0.1917996 -1.049618 -0.3826857 0.1890301 0.9043337 526600 male
1.235217 0.4795533 -1.457176 0.4821728 0.7814165 -0.3961031 15056058 male
1.503145 0.005653914 -1.363613 0.5751764 -0.6612338 -0.4816037 3553607 male
1.329729 0.05463607 -1.148421 -0.5299646 -0.2820208 0.7997511 3289915 male
1.885403 0.1759788 -1.266512 -0.5661128 0.5595748 0.6053035 526600 male
1.727781 0.2728968 -1.448216 0.4110265 -0.4004647 -0.8189538 526600 male
1.345831 0.1979171 -1.416477 0.9180418 0.0860403 -0.3870353 9143443 male
1.432182 0.008967575 -1.210627 0.7690059 -0.6307185 0.104039 4738131 male
1.92973 0.1272248 -1.255605 -0.03275535 -0.272187 0.9616867 526600 male
1.317968 0.4295433 -1.536055 0.991874 0.1270133 0.007312626 13419992 male
1.783847 0.1961569 -0.9995862 -0.3586149 0.8070216 -0.4691604 526600 male
1.829854 0.2077041 -1.317954 0.7763746 -0.3486652 -0.5250477 526600 male
1.921649 0.1332525 -1.288592 0.05439697 -0.7794424 -0.6241077 526600 male
1.111999 0.3002253 -1.150332 0.7934666 -0.5647889 -0.2267694 15200255 male
1.211469 0.2949362 -1.015424 0.344063 -0.7212611 0.6011682 15971757 male
1.175213 0.452961 -1.268143 0.4944669 0.8433895 0.21023 11578296 male
1.219917 0.7090839 -1.382294 0.3531047 0.9338508 -0.05691881 526600 male
1.260677 0.4655049 -1.370943 0.9267454 -0.01797667 0.3752598 12433861 male
1.380423 0.04316344 -1.416622 0.1597856 -0.4663299 -0.8700602 5791593 male
1.685985 0.2503634 -1.427052 -0.4731084 -0.7636844 -0.439266 526600 male
1.261489 0.1042408 -1.197571 -0.5974306 0.04335262 0.8007479 3749694 male
1.09219 0.3440791 -1.129025 0.1606282 0.849298 0.5028832 16764874 male
1.194769 0.7052637 -1.347332 0.006308645 0.8425733 0.5385448 2960173 male
1.620072 0.2749946 -0.9754546 0.6998472 0.6387333 0.3197401 526600 male
1.168478 0.1592774 -1.330426 -0.8321151 -0.5534154 0.03627807 10657199 male
1.046894 0.2374681 -1.030908 -0.1463064 0.06930406 0.9868087 15184047 male
1.122865 0.4519058 -1.227086 -0.09962918 0.6936934 0.7133467 9209751 male
1.622714 0.2622157 -0.9631939 0.7286259 0.3127272 0.6093488 526600 male
1.644705 0.2647216 -1.345166 -0.07553449 0.644092 0.7612096 4342082 male
1.486605 0.2547889 -0.9641534 -0.5883094 -0.808213 -0.02614948 526600 male
1.517104 0.3022949 -0.9643955 0.4985345 0.8602208 0.1071612 657418 male
1.244766 0.6917227 -1.3654 0.6694291 0.7173542 0.193048 14401736 male
1.2188 0.06926994 -1.280564 -0.866685 -0.4885683 -0.1007871 10196646 male
1.170249 0.4552448 -1.438405 -0.8564761 0.421362 -0.2981658 13618399 male
1.091036 0.4284594 -1.239341 -0.8122027 0.5010413 0.298805 6973042 male
1.693596 0.3145623 -1.37674 -0.2328529 0.6427156 0.7298604 657930 male
1.514544 0.3093933 -1.553637 -0.4054516 0.8785216 -0.2526038 11433587 male
1.342216 0.121191 -1.443874 -0.006126404 0.1954583 -0.9806928 4210505 male
1.816476 0.2303627 -1.289094 0.06847554 0.8408327 0.5369464 526600 male
1.414558 0.04872479 -1.116607 0.006748497 -0.6677412 0.7443628 8884123 male
1.732343 0.265318 -1.442357 0.3918325 -0.4433757 -0.8061546 526600 male
1.167342 0.6627713 -1.320472 -0.2292749 0.2907285 0.9289296 11972276 male
1.486361 0.2477095 -0.9592238 -0.5224388 -0.8384846 0.1549231 526600 male
1.518409 0.08130805 -1.263436 0.1668876 -0.007056177 0.9859506 3815999 male
1.133093 0.4645728 -1.32707 -0.5099072 0.8380343 0.1941472 6183263 male
1.763232 0.2370098 -1.401553 0.5085863 -0.5859088 -0.6309126 526600 male
1.938556 0.1619767 -1.291035 0.3055659 -0.2386606 -0.9217759 526600 male
1.101224 0.4496269 -1.26571 -0.7174245 0.696636 0.0007570386 6973037 male
1.567899 0.2967019 -0.9309539 0.6267234 0.4789651 0.6146626 526600 male
1.416495 0.2719639 -1.653185 0.2736107 0.8107679 -0.5174868 12162712 male
1.346901 0.2962219 -1.425642 0.9408956 0.1524936 -0.3024257 10130338 male
1.840801 0.227677 -1.300644 0.5028161 0.8624724 0.0575958 526600 male
1.30209 0.1498649 -1.452959 0.332817 -0.09535111 -0.9381583 5328212 male
1.144213 0.6528991 -1.460092 -0.3280497 0.1780178 -0.9277354 5591125 male
1.16215 0.4072977 -1.235674 0.9206239 -0.02318436 0.3897616 5723746 male
1.166587 0.6802224 -1.453125 -0.04489014 0.5638618 -0.8246483 4276805 male
1.270984 0.6121178 -1.415052 0.8534662 0.308401 -0.4201004 15315883 male
1.48998 0.1273947 -1.056942 0.163615 -0.8282581 0.5359278 7765126 male
1.534776 0.2448364 -0.9400573 -0.185227 -0.7901136 0.5843043 526600 male
1.14819 0.2429033 -1.291062 -0.8173562 -0.395043 0.4193683 9144212 male
1.256384 0.04923106 -1.336108 -0.7119328 -0.6103284 -0.3473483 10525873 male
1.463556 0.09858471 -1.074234 0.01274088 -0.6780786 0.7348791 5988460 male
1.482219 0.003184774 -1.373826 0.4798667 -0.6573315 -0.5810707 7698822 male
1.101134 0.6563126 -1.379642 -0.956434 0.1963624 0.2160457 526344 male
1.29208 0.5758641 -1.382763 0.9574059 -0.1622225 -0.2388679 13018780 male
1.470747 0.1571582 -1.350337 -0.4916078 0.8696712 -0.04465121 11121098 male
1.397137 0.1340865 -1.310778 0.2701064 0.8297498 -0.4884239 4934491 male
1.965441 0.1543116 -1.240797 0.1271048 -0.1227626 0.9842631 526600 male
1.327399 0.2484618 -1.714817 0.1065896 0.2541708 -0.9612678 13802384 male
-2.495216 0.2513993 -1.378927 0.8675046 -0.4886737 0.09291899 4867394 male
-2.573813 -0.04708298 -1.391797 -0.7985402 0.01151461 -0.6018316 2368039 male
-2.721047 -0.02771581 -1.436436 -0.08364168 0.275884 -0.957545 3553342 male
-2.546596 0.04089933 -1.207764 0.2835362 -0.533031 0.7971734 1777444 male
-2.485779 0.2591575 -1.428467 0.8500983 -0.5242701 0.04973888 4998979 male
-2.784154 -0.1345332 -1.466701 -0.9641061 0.2012961 0.1731467 2105377 male
-2.741617 0.1572968 -1.205511 -0.706765 0.1914292 0.6810567 3553081 male
-2.510099 0.2695724 -1.571705 0.4007428 -0.7657278 -0.5030568 13155220 male
-2.572745 0.2617767 -1.807947 -0.3483434 -0.9243029 -0.1559519 9933974 male
-2.669217 0.03806642 -1.371756 0.7916523 0.1842658 -0.582523 3026222 male
-2.503953 -0.3399694 -1.423977 -0.7417246 0.05082558 -0.6687762 1578780 male
-2.571489 0.2908715 -1.861849 -0.6972689 -0.3798232 -0.6079068 5326917 male
-2.719627 0.3066291 -1.374351 -0.9652758 0.2530777 0.06476617 3288362 male
-2.594919 0.175701 -1.377938 0.327093 -0.4959018 -0.8044202 8682615 male
-2.54664 0.346827 -1.318402 0.4083654 0.6967913 0.5896777 6907233 male
-2.516185 -0.0850838 -1.336411 0.3757199 -0.3321228 0.865176 2500652 male
-2.773522 -0.02954854 -1.365972 -0.9866742 -0.1624885 0.008476019 1908771 male
-2.389834 0.3903831 -1.613205 0.8602723 -0.2653367 -0.4353485 7433315 male
-2.490914 -0.4616864 -1.438574 -0.1637922 -0.9863953 -0.01401439 723467 male
-2.424434 0.4167815 -1.614402 0.3320915 0.7031257 -0.6287524 6315864 male
-2.551577 0.2794872 -1.664531 0.4169188 -0.8489683 0.3247024 16706530 male
-2.485608 0.06156006 -1.331737 0.9122634 0.2267498 -0.3411164 2829363 male
-2.737168 -0.440903 -1.517607 0.3127847 -0.9496481 -0.01827809 592137 male
-2.65976 -0.07489103 -1.672818 0.8788986 0.1234392 -0.4607603 16704984 male
-2.723793 -0.2464224 -1.488733 0.4482346 -0.2931691 -0.8444749 2500910 male
-2.631173 0.3888887 -1.634368 -0.1357132 0.8885859 -0.4381748 14932430 male
-2.592963 0.4172648 -1.586004 -0.5380591 0.8064889 -0.2450881 10065037 male
-2.491136 0.2509932 -1.464805 0.7515246 -0.6585144 -0.03961766 5789010 male
-2.696908 0.02521064 -1.406815 0.3750143 0.3064227 -0.8749112 4409679 male
-2.401738 0.2191324 -1.398041 -0.5122103 0.7266731 0.4578067 4931648 male
-2.634231 0.2673785 -1.227516 -0.1264354 0.7161019 0.6864491 11247517 male
-2.628675 0.2548569 -1.628213 0.5237393 -0.5340691 -0.6636772 5327945 male
-2.451307 -0.1894748 -1.430944 0.9623727 0.02500566 -0.2705807 2698289 male
-2.37056 0.3843019 -1.559938 0.8795633 -0.1149251 -0.4616935 11052184 male
-2.531239 0.2644071 -1.699499 0.3804255 -0.3044766 0.873253 11379348 male
-2.717231 0.2087679 -1.677901 -0.6505775 -0.1255017 -0.7489984 9011579 male
-2.497788 0.1228053 -1.30993 0.8120076 0.3579222 -0.4610159 3552826 male
-2.397732 0.3886679 -1.483378 -0.5563478 0.3246835 0.7648908 7498085 male
-2.747433 -0.04700257 -1.442837 -0.6133341 0.2033006 -0.7632106 3355190 male
-2.660342 0.3872111 -1.62215 -0.3419443 0.8766561 -0.3384498 13354171 male
-2.636162 0.4019571 -1.565116 -0.1423997 0.9854489 -0.09280507 7695977 male
-2.718394 -0.02659573 -1.656972 -0.9743444 -0.05888753 -0.2172221 16772068 male
-2.576306 0.3262118 -1.871159 -0.7173272 -0.0451576 -0.6952717 3551278 male
-2.646636 0.2605856 -1.223624 -0.128721 0.6835219 0.7184907 9077378 male
-2.452661 0.3368782 -1.819019 0.9983286 -0.05372338 0.02130932 3881270 male
-2.730559 -0.07063857 -1.484781 -0.2131349 0.2588184 -0.9421183 3553087 male
-2.65778 0.1227595 -1.669382 0.6646138 0.007172544 -0.7471528 16507091 male
-2.723408 0.255717 -1.584215 -0.3977699 -0.7220783 0.5660233 657162 male
-2.708252 0.2316864 -1.215355 -0.3744977 0.5424425 0.7520026 8880254 male
-2.679945 0.236634 -1.539415 -0.7004141 -0.7087947 -0.08384842 4538429 male
-2.626211 0.2813824 -1.241317 -0.1175466 0.7702712 0.6267896 12628911 male
-2.719034 0.003898911 -1.418917 -0.008434057 0.257073 -0.9663554 4212040 male
-2.492543 0.1724012 -1.254161 0.9783149 0.1356222 0.1565456 5590860 male
-2.580516 0.1985833 -1.414075 0.1766201 -0.9180329 -0.3549943 7038563 male
-2.419591 0.3791551 -1.512126 -0.8760426 -0.1263995 0.4653738 1578008 male
-2.490767 0.3725099 -1.74361 0.6490204 0.3468124 0.6771219 5261639 male
-2.518707 -0.07820091 -1.323104 0.3935302 -0.3917364 0.8316711 2302502 male
-2.562325 0.4011764 -1.645658 -0.2328957 0.758164 -0.6090543 7958633 male
-2.650521 0.3330363 -1.68085 -0.1435077 -0.126351 -0.9815503 4539196 male
-2.723473 0.07231671 -1.199315 -0.3054068 -0.6528533 0.6931879 4342085 male
-2.493375 0.1387029 -1.238936 0.9601153 0.100224 0.2610252 2699056 male
-2.711598 -0.3850031 -1.44849 0.8728365 0.2296338 -0.4306102 2959663 male
-2.777086 -0.1906575 -1.501818 -0.7793362 -0.1738418 -0.6020086 1711394 male
-2.684138 0.2201096 -1.414613 -0.5637317 -0.7712111 -0.2957027 6380376 male
-2.599415 0.05653011 -1.195414 -0.3842722 -0.6610574 0.6444674 5724511 male
-2.764695 -0.4172825 -1.398716 -0.8999156 0.09921966 0.4246264 2697257 male
-2.733949 0.2690214 -1.659675 -0.7561787 0.2744944 -0.5940092 10063753 male
-2.504546 -0.4547966 -1.405035 -0.3263296 -0.9175789 -0.2270636 789260 male
-2.738377 -0.2473207 -1.496332 0.2073621 -0.3379228 -0.9180466 2566703 male
-2.727246 -0.3664356 -1.384541 -0.6352777 0.2700939 0.7235135 3420980 male
-2.431674 0.3947338 -1.52943 -0.8819857 -0.1563336 0.4445912 5524300 male
-2.361946 0.2520759 -1.381539 -0.8908892 0.3998051 0.2155749 15652045 male
-2.442992 0.3852876 -1.630022 0.1951814 0.2550332 -0.9470283 5855057 male
-2.531985 0.3264895 -1.892264 -0.1222761 -0.0495499 -0.9912587 4932930 male
-2.626439 0.2121904 -1.5401 0.03265335 -0.9921216 -0.1209475 5130566 male
-2.756016 0.2066686 -1.253693 -0.9190779 0.2277772 0.3215799 5460299 male
-2.768689 -0.1536651 -1.432709 -0.6215417 0.2558371 0.740428 2499113 male
-2.508568 0.1923773 -1.307457 0.6853155 0.05778636 -0.7259501 6446169 male
-2.404505 0.4419305 -1.56366 0.5208085 0.8161894 0.250187 8155243 male
-2.493778 0.3046823 -1.880703 0.5155948 -0.2595819 -0.8165656 6708568 male
-2.463352 -0.2489496 -1.443599 0.7296652 -0.197239 -0.6547409 2500395 male
-2.595154 0.2977649 -1.254577 -0.05238384 0.8079658 0.5868964 10064523 male
-2.299573 0.380839 -1.41129 0.870562 0.4135115 0.266703 16441817 male
-2.379557 0.4143787 -1.574682 0.9245315 0.3095819 -0.2222632 10655633 male
-2.452893 -0.2446094 -1.403366 0.9844559 -0.1210334 0.1272704 2039327 male
-2.659709 -0.01509976 -1.345704 0.9789448 -0.174771 -0.1054627 1711394 male
-2.484178 -0.09365474 -1.375205 0.783313 0.008747233 0.6215662 2170660 male
-2.505735 -0.0794073 -1.441643 0.5040181 0.217504 -0.8358577 3750978 male
-2.574715 0.2856235 -1.85425 -0.7314846 -0.4240246 -0.5339792 5457733 male
-2.550684 0.1509462 -1.179483 0.5145395 0.03144997 0.85689 4278606 male
-2.803923 -0.4457683 -1.516205 -0.9092393 -0.1912447 0.3697429 854538 male
-2.403495 0.3408978 -1.535969 -0.3184905 -0.866985 -0.3832766 11509916 male
-2.66873 -0.05234776 -1.396814 0.9833192 -0.09658845 -0.1541248 2698289 male
-2.684634 -0.2409145 -1.654639 -0.8197771 -0.006716386 -0.5726437 13610146 male
-2.583223 0.2064017 -1.459304 0.2321799 -0.8838959 -0.4059812 9143165 male
-2.700388 -0.2367457 -1.473617 0.8149182 -0.2807103 -0.5070605 2368550 male
-2.49367 0.05395023 -1.249477 0.8848757 -0.190637 0.4250328 2631982 male
-2.788107 -0.1908352 -1.473075 -0.9923917 -0.09068438 -0.08327931 1907998 male
-2.476053 0.2861499 -1.852644 0.7920672 -0.4332223 -0.4300562 5195328 male
-2.48524 -0.07236556 -1.363379 0.9789963 -0.002179004 0.2038671 2565935 male
-2.664187 -0.00961324 -1.286319 0.7726238 -0.4905549 0.4029993 2302243 male
-2.485455 0.3939574 -1.635854 0.3996513 0.149317 -0.9044243 4933700 male
-2.772345 -0.1972222 -1.43067 -0.7349349 0.01220256 0.678028 2499878 male
-2.755674 -0.3814035 -1.42351 -0.9644188 0.2593676 0.05123496 3157296 male
-2.404799 0.3717992 -1.604137 0.371401 -0.8874266 -0.2730118 8485489 male
-2.498472 -0.1635338 -1.464245 -0.268757 -0.2472105 -0.9309441 2500651 male
-2.705522 -0.09455165 -1.657582 -0.9614993 -0.2701161 0.05056334 16770786 male
-2.558927 0.2434333 -1.531071 0.305599 -0.9371401 -0.1684569 16772029 male
-2.710667 -0.03249205 -1.439483 0.1143843 0.3015687 -0.9465584 3949386 male
-2.635137 0.3606382 -1.358575 0.06672449 0.8400552 0.5383819 7959920 male
-2.568277 0.4073291 -1.793845 -0.6439413 0.7521375 0.1401034 4208440 male
-2.437104 0.4401084 -1.559904 0.2434493 0.853789 0.4601921 6314840 male
-2.580161 0.3946643 -1.816857 -0.8017287 0.5956284 -0.04957908 4801601 male
-2.556946 0.2363283 -1.788772 -0.8446823 -0.1881465 -0.5011117 15583937 male
-2.546248 -0.101355 -1.365037 -0.4979149 -0.3415636 0.7971295 2960430 male
-2.497937 -0.1314133 -1.376013 0.08670631 0.359839 0.928977 2895156 male
-2.474236 0.3279238 -1.414458 0.9340913 0.1304083 0.3323665 4407099 male
-2.599333 0.4220036 -1.536944 -0.5786744 0.8140923 -0.04888344 8747893 male
-2.485808 0.007046763 -1.295828 0.9334445 -0.2135703 0.2882178 2631208 male
-2.757099 0.09714148 -1.214499 -0.7874398 -0.2760387 0.5511276 2500910 male
-2.470821 0.3942875 -1.841537 0.7516194 0.5944699 -0.2857867 7037274 male
-2.600573 0.3026819 -1.746725 -0.9843722 -0.003452388 0.1760675 13549237 male
-2.652879 0.08762415 -1.327757 0.7948965 0.1957825 -0.57429 3092015 male
