# .PCD v0.7 - Point Cloud Data file format
VERSION 0.7
FIELDS x y z normal_x normal_y normal_z rgb label
SIZE 4 4 4 4 4 4 4 4
TYPE F F F F F F U U
COUNT 1 1 1 1 1 1 1 1
WIDTH 255
HEIGHT 1
VIEWPOINT 0 0 0 1 0 0 0
POINTS 255
DATA ascii
1.346428 0.2058511 -1.30302 0.343527 0.9332404 0.1051263 15656700 male
1.342972 0.318143 -1.082486 -0.4197412 0.8893754 -0.1811867 7042435 male
1.749308 0.2607853 -1.088033 0.9668888 -0.2473581 -0.0627701 526600 male
1.395014 0.2222803 -1.052945 0.6763648 -0.6051891 0.4198532 3884115 male
1.329774 0.1853322 -1.254004 -0.2228548 0.9525918 -0.2071345 6777981 male
1.68255 0.3255009 -1.262423 0.420013 -0.6586905 -0.6242724 526600 male
1.348709 0.04442354 -1.396468 -0.09154072 -0.7460701 -0.6595451 6184039 male
1.297929 0.02523846 -1.290984 -0.3932307 -0.914696 -0.09327804 5395811 male
1.316767 0.5629446 -1.516969 0.5031456 -0.3081554 -0.8073938 15317428 male
1.543225 0.2689792 -1.228254 -0.4614989 0.8752904 -0.144518 1052688 male
1.463784 0.3696128 -0.9099751 0.721558 0.6486342 0.2421316 526600 male
1.321277 0.6545017 -1.515758 0.6528898 0.4436706 -0.6139148 15190998 male
1.351571 0.31088 -1.382951 0.4879504 0.4323964 0.7582466 12492448 male
1.41112 0.1174757 -1.339982 0.3518673 0.7553234 -0.5528798 9212572 male
1.252556 0.07362927 -1.189692 -0.7718866 -0.4216853 0.4757863 4277065 male
1.346355 0.4003744 -1.017019 -0.455519 -0.7075549 -0.5402486 526600 male
1.544188 0.1034612 -1.273233 0.7269716 -0.448662 -0.5198218 3224374 male
1.203155 0.4276294 -1.308384 0.7800259 0.5306663 0.3315913 7827315 male
1.616264 0.2753206 -0.7577112 -0.4933655 0.8299315 0.2603925 526600 male
1.280715 0.3982469 -1.352198 0.5722835 0.604931 0.5536696 15784836 male
1.346641 0.5143156 -1.430923 0.5864518 0.02164771 0.8096949 12163479 male
1.394305 0.2359134 -1.147547 0.7062447 0.4741578 -0.5257308 3026230 male
1.75514 0.1859122 -0.8877493 0.392098 0.5798565 -0.7141607 526600 male
1.535523 0.2763093 -1.426376 0.8373612 -0.2628787 -0.4792922 14327705 male
1.738793 0.226186 -1.060039 -0.7937189 0.4934441 0.355701 526600 male
1.279651 0.1390473 -1.477157 -0.2464629 -0.7392403 -0.6267216 8289414 male
1.194001 0.4286767 -1.495294 -0.6203995 0.3487045 -0.7025024 16118270 male
1.138569 0.4278217 -1.402919 -0.8480807 0.5029019 -0.1668794 11643836 male
1.786421 0.2487483 -1.028522 -0.1325234 0.935598 0.3272521 526600 male
1.290732 0.4576694 -1.161553 0.8106297 -0.573632 -0.1175838 1118481 male
1.256161 0.07176331 -1.361981 -0.5680977 -0.6869709 -0.4531401 14473192 male
1.608426 0.2538936 -0.7197329 0.6093436 -0.7923667 -0.02924564 526600 male
1.339816 0.3875405 -0.9955946 -0.7368906 -0.6134723 -0.283979 526600 male
1.127874 0.3996401 -1.355033 -0.8856213 -0.4199621 -0.1982591 7236473 male
1.379074 0.6165891 -1.43279 0.9432459 0.1433831 0.2995467 13671070 male
1.495026 0.3557128 -1.477248 0.7978168 0.3612436 -0.4826919 15249574 male
1.308726 0.2146587 -1.209022 -0.248483 0.7051654 -0.6640767 8358296 male
1.16523 0.2435394 -1.120449 0.6141317 -0.6494651 0.4483719 16369090 male
1.604421 0.3308551 -1.187615 -0.6173415 0.226674 0.7533315 526600 male
1.273954 0.1799166 -1.503594 -0.4313781 -0.5697502 -0.6994981 8617099 male
1.258835 0.2344754 -1.529789 -0.5621614 -0.4483962 -0.6949211 11316413 male
1.545627 0.2539438 -1.40455 -0.6087533 -0.01213658 -0.7932667 16434118 male
1.299867 0.4978473 -1.510084 -0.05870596 -0.1305017 -0.9897085 16702164 male
1.219844 0.2813045 -1.509509 -0.7088262 -0.327377 -0.6248116 10592433 male
1.217164 0.6347717 -1.426407 -0.48118 0.2966903 0.8248883 9933206 male
1.620047 0.2420142 -1.207808 0.3144097 -0.9146176 0.254207 657932 male
1.478964 0.4245362 -1.38027 -0.8238834 -0.01133269 0.566646 12756905 male
1.571642 0.2334569 -1.357959 0.3709326 -0.05961396 0.9267445 16438466 male
1.232009 0.2935891 -1.529865 -0.7694681 -0.2277081 -0.5967144 11907523 male
1.385575 0.2480207 -1.502785 0.9166478 -0.1687931 -0.3623061 198147 male
1.214353 0.2435799 -1.482243 -0.5890435 -0.4990219 -0.6356137 12103874 male
1.720471 0.3227117 -1.122716 0.4552757 0.6600417 0.5975525 526600 male
1.252831 0.1641171 -1.16526 -0.9273868 0.2693056 0.2596695 3685184 male
1.317395 0.2886096 -1.326008 0.5450374 0.434959 0.71676 11983802 male
1.193187 0.3517398 -1.209301 0.7780185 0.5627742 0.2792355 15054776 male
1.192058 0.6489584 -1.456753 -0.7398833 0.4999585 0.4501267 526600 male
1.42434 0.3610008 -0.9889724 0.4068428 -0.49454 -0.7680554 526088 male
1.526631 0.301213 -0.8041043 0.2568673 0.2730757 -0.9270645 526600 male
1.327476 0.4548624 -1.534815 0.5523205 0.8314382 -0.06043699 7762042 male
1.408743 0.1202992 -1.294981 -0.3894732 0.5761734 -0.7185644 6976131 male
1.25529 0.1687683 -1.150928 -0.926062 0.2083543 0.314639 4802899 male
1.817001 0.1982501 -0.9611277 -0.7089448 0.272438 0.6505188 526600 male
1.682328 0.3586795 -1.249165 0.8308678 0.0640969 -0.5527661 986895 male
1.263996 0.07175022 -1.372202 -0.5538082 -0.6629533 -0.5037751 14736109 male
1.33712 0.08742376 -1.120379 0.0922398 -0.5554558 0.8264143 7106423 male
1.870473 0.1489681 -0.9945719 0.382222 -0.736268 -0.5584046 526600 male
1.503356 0.3342433 -1.429224 0.2261069 0.9287404 0.2937973 15910602 male
1.606534 0.2576596 -0.7423404 -0.6599891 0.7248821 0.1973836 526600 male
1.702797 0.2539762 -1.078582 -0.7391188 0.4191692 0.5272577 526600 male
1.76163 0.2125252 -1.048247 -0.828355 0.4890135 0.2733018 526600 male
1.21348 0.3843898 -1.266852 0.9944865 0.1036637 -0.0158253 13282996 male
1.201328 0.3352248 -1.153042 -0.7269927 0.491798 -0.479183 16371920 male
1.387241 0.1973304 -1.39044 0.9844041 0.04380538 0.1703804 9275542 male
1.271893 0.66569 -1.538962 0.1353239 0.5730048 -0.8083025 1051656 male
1.663594 0.2670079 -0.778944 0.8584821 -0.1599742 -0.4872541 526600 male
1.304864 0.0522745 -1.381889 -0.4692481 -0.7188915 -0.5128364 10459818 male
1.698541 0.3992249 -1.230561 0.6229724 0.5368942 0.5689023 526600 male
1.190349 0.1241859 -1.301296 -0.9906893 -0.1345215 -0.02094549 5854564 male
1.309946 0.4230908 -1.173892 0.8434477 -0.5366707 -0.02409524 1052688 male
1.243439 0.4760025 -1.470464 -0.918011 0.2567767 -0.3021947 15644328 male
1.386354 0.4116026 -0.9179562 -0.2959161 0.2865648 0.9112158 526600 male
1.24666 0.05954735 -1.21446 -0.7423517 -0.5455322 0.3889842 6844281 male
1.127651 0.2848186 -1.136104 -0.7250549 0.6845167 0.07571137 16040631 male
1.177281 0.4075742 -1.253906 0.00914453 0.8925318 0.4508917 14919335 male
1.360918 0.3762436 -0.9380473 -0.724867 -0.3553255 0.5901794 526600 male
1.507988 0.2385443 -1.219972 -0.6281146 0.7543671 0.1907943 5921892 male
1.172234 0.3528941 -1.305533 0.2701322 -0.8800613 -0.390539 9536129 male
1.428558 0.4024885 -0.9992591 0.7529317 0.1748942 -0.6344336 526600 male
1.311178 0.6866399 -1.478037 0.4688334 0.8786013 -0.09085736 13212564 male
1.192712 0.1138264 -1.287485 -0.9740176 -0.2245454 0.02948001 6183520 male
1.255983 0.4471033 -1.520443 -0.703475 0.4432807 -0.5555404 13683681 male
1.140595 0.3846928 -1.270633 -0.955074 0.1181225 0.2718102 15185589 male
1.591352 0.3244517 -1.213954 -0.4487558 0.8373963 0.3120669 591881 male
1.547382 0.5015888 -1.372845 0.7942238 0.5885357 -0.1511104 16761789 male
1.133561 0.3433406 -1.39743 -0.9345348 -0.340494 0.1034822 9867422 male
1.727997 0.3184717 -1.126718 0.7123334 0.5123861 0.4796264 526600 male
1.3456 0.1411545 -1.077943 -0.05051598 -0.6548631 0.7540573 7436676 male
1.682646 0.3700162 -1.243982 0.8685578 0.33317 -0.3668858 526344 male
1.297755 0.6432145 -1.408726 -0.0424048 0.6023479 0.7971066 14988720 male
1.181952 0.3314702 -1.259365 0.4184853 -0.8240433 -0.3818673 8418676 male
1.52314 0.0618423 -1.225938 0.7480106 -0.6609777 0.05990559 11251899 male
1.368917 0.05466067 -1.405592 0.1524535 -0.6051553 -0.7813737 7499898 male
1.678713 0.4097563 -1.214501 -0.0188061 0.62981 0.7765216 526600 male
1.818157 0.1583827 -1.046163 0.3865739 -0.4556999 -0.8018094 526600 male
1.189765 0.3775299 -1.221479 0.4136372 0.8204162 0.3947423 16638944 male
1.302864 0.264066 -1.072806 -0.8428376 0.3010581 0.4460816 3224642 male
1.57092 0.2562479 -1.416144 0.8472807 0.1662538 -0.5044552 13741736 male
1.276814 0.4630326 -1.420107 -0.06261349 0.3777878 0.9237727 14730956 male
1.738754 0.2422921 -1.091354 0.7030277 -0.6235161 -0.3420229 526600 male
1.328523 0.3694611 -1.589431 -0.05647838 0.008274389 -0.9983696 13418964 male
1.231062 0.5458516 -1.526062 -0.2176501 -0.7264505 -0.6518421 4802377 male
1.197738 0.4168126 -1.277753 0.4716778 0.7929835 0.3856127 16774390 male
1.247725 0.625004 -1.557031 -0.007769346 0.1812635 -0.9834039 2828843 male
1.302558 0.5611832 -1.527399 0.5908186 -0.3967058 -0.7025368 13341585 male
1.35279 0.3829451 -1.018328 -0.201511 -0.9351484 -0.2913603 526600 male
1.173272 0.378729 -1.360042 0.2357645 -0.525416 0.8175287 526600 male
1.303731 0.2439523 -1.306236 0.2742384 0.3475621 0.896657 8684172 male
1.195312 0.3853678 -1.505993 -0.4783512 0.07646678 -0.8748332 15789308 male
1.348643 0.1511934 -1.070681 -0.04551679 -0.6638647 0.7464663 10331578 male
1.465621 0.1150137 -1.315717 0.1823948 0.1097117 -0.9770851 6514025 male
1.189328 0.5577831 -1.481377 -0.8115379 -0.5840874 -0.01575309 9735828 male
1.382861 0.568397 -1.449689 0.8697882 -0.2469078 -0.4272061 11901844 male
1.529527 0.2491297 -1.192408 -0.6278812 0.6211013 0.46904 4539463 male
1.373175 0.1887255 -1.364556 0.9485378 0.2812885 0.1454401 12893652 male
1.827387 0.1667725 -0.9979995 -0.566051 -0.218461 0.7948968 526600 male
1.503955 0.2950066 -1.410122 -0.47864 0.7389992 0.4741137 14330541 male
1.415738 0.219027 -1.096737 0.9883897 -0.139965 -0.05912226 3223859 male
1.429099 0.3948466 -0.9074622 0.3088976 0.5720517 0.7598283 526600 male
1.367869 0.1911263 -1.498314 0.6643696 -0.4480237 -0.5982373 3091247 male
-2.549648 0.4147447 -1.498734 0.3390832 -0.393568 -0.8544748 6379602 male
-2.590327 0.005990308 -1.397655 -0.9375371 -0.123244 -0.3253237 2171430 male
-2.649353 -0.2173585 -1.359576 0.885676 -0.1949833 -0.4213783 1907997 male
-2.485885 0.02968771 -1.360009 0.8997131 -0.1753345 0.3997181 2696747 male
-2.576881 0.3592051 -1.488061 0.3280766 -0.2389713 -0.9139249 6247246 male
-2.73223 -0.2023076 -1.380777 -0.784355 -0.08887343 -0.6139129 1973534 male
-2.723743 0.3886631 -1.395012 -0.987101 0.02013809 -0.1588285 3223601 male
-2.666555 0.4552796 -1.500935 -0.4123255 -0.1183423 -0.9033177 8353135 male
-2.611288 0.8331711 -1.585931 -0.7164553 0.4781167 -0.5080318 16244178 male
-2.665612 0.1128795 -1.431022 0.4290926 -0.04414897 -0.902181 3223604 male
-2.506478 -0.3808756 -1.391545 0.5450354 0.3515312 -0.7611587 2367268 male
-2.591728 0.8926762 -1.564685 -0.716518 0.6429745 -0.270529 5195076 male
-2.72667 0.4494747 -1.384905 -0.9780346 -0.05221714 0.201797 3223085 male
-2.622424 0.2817757 -1.471784 -0.1563356 -0.1627989 -0.9741951 7893357 male
-2.516938 0.3608884 -1.338788 0.5676844 0.4886949 0.6625043 10064010 male
-2.566698 -0.1387342 -1.344243 -0.9735592 0.07934653 0.2142124 2039071 male
-2.727928 0.07769118 -1.312596 -0.6070875 -0.1748203 0.7751664 2235938 male
-2.471817 0.5951471 -1.529357 -0.5413392 -0.7781409 -0.3185101 6051924 male
-2.5066 -0.4605368 -1.425733 -0.1225038 -0.9916546 -0.04017577 592137 male
-2.496292 0.6150311 -1.561515 -0.6375207 0.2489583 -0.7291005 7761256 male
-2.576509 0.7253794 -1.587617 0.1541655 -0.6328523 -0.7587694 12496806 male
-2.542149 0.133737 -1.466734 -0.1426464 -0.04090359 -0.9889283 3158585 male
-2.694443 -0.4151555 -1.436962 0.8496785 0.4912229 -0.1916943 3290168 male
-2.629303 0.4626987 -1.676861 0.7445433 -0.4110915 0.5259842 16703965 male
-2.703629 -0.345428 -1.387403 0.3660319 0.3513645 -0.8617215 2368812 male
-2.668459 0.6799698 -1.385413 -0.2191233 0.6803948 0.6993198 10656403 male
-2.508275 0.6381371 -1.397297 0.3296216 0.4992623 0.8013034 9078146 male
-2.492384 0.5074869 -1.500843 0.7625268 -0.3283918 -0.5574155 2960429 male
-2.632547 -0.02475498 -1.373105 0.9722309 -0.04332807 -0.2299787 1973022 male
-2.447818 0.5484751 -1.547027 0.6527699 -0.7535398 -0.07790637 7959665 male
-2.584805 0.3196 -1.288143 0.1831887 0.4460673 0.8760514 11247517 male
-2.53506 0.6689885 -1.526508 0.6504465 -0.03687173 -0.7586567 5131078 male
-2.487787 -0.193803 -1.380636 0.78629 0.005131013 -0.6178365 2434861 male
-2.482797 0.5885487 -1.586851 -0.1459278 0.4362213 -0.8879281 8682099 male
-2.571778 0.7555279 -1.635851 0.3915199 -0.2047853 -0.8970928 13023149 male
-2.766899 0.6748882 -1.477756 -0.9564202 -0.2071886 0.2057513 8814202 male
-2.539909 0.197293 -1.462191 0.05626094 0.187671 -0.9806196 2829617 male
-2.503222 -0.02959024 -1.341992 0.7499877 -0.03819716 0.6603482 2764082 male
-2.731868 -0.09965052 -1.347762 -0.9783884 0.1360676 0.1556985 2170913 male
-2.677073 0.6789963 -1.387357 -0.2732335 0.6852518 0.67511 9472383 male
-2.624283 0.6423783 -1.360831 0.2864164 0.4506087 0.845528 8420216 male
-2.646837 0.4857295 -1.719458 -0.2966508 0.6140623 -0.7313864 16044485 male
-2.593019 0.764614 -1.484927 -0.6066608 -0.07651993 0.7912695 4473410 male
-2.613349 0.3158252 -1.279358 0.1782183 0.4274952 0.8862767 8681844 male
-2.473532 0.805367 -1.515369 0.9425679 -0.3328521 -0.0278511 3814449 male
-2.668739 -0.103138 -1.397329 0.5572354 -0.3787698 -0.7389333 2631724 male
-2.66769 0.6523405 -1.537738 0.8670449 0.4610554 -0.1888419 6840925 male
-2.766153 0.1286397 -1.371249 -0.9988012 -0.03433399 -0.03489351 1842979 male
-2.659075 0.2974168 -1.266641 -0.07439843 0.3335855 0.9397796 8617080 male
-2.727959 0.537904 -1.431784 -0.9806906 0.01526887 -0.1949693 3486253 male
-2.576807 0.3549132 -1.30896 0.2126419 0.5040798 0.8370706 7826791 male
-2.645647 -0.1789967 -1.358054 0.9137809 0.01636957 -0.4058778 1973534 male
-2.471272 0.2128661 -1.418019 0.9322944 0.0712252 -0.3546187 2434597 male
-2.737247 0.3153677 -1.392051 -0.8209901 0.3047852 -0.482785 3881015 male
-2.607845 0.4376485 -1.570135 -0.6637431 0.3100572 0.6806687 15849944 male
-2.497503 0.77886 -1.479677 0.6701849 -0.5949329 0.4437422 8090222 male
-2.499436 -0.003135613 -1.343884 0.8053369 -0.109272 0.5826598 3157808 male
-2.497781 0.68235 -1.447408 0.4878921 0.7494529 0.4475285 11642528 male
-2.631794 0.695797 -1.510809 -0.8952777 0.1877574 -0.4040113 5327680 male
-2.67936 0.1789221 -1.266474 -0.1230396 -0.4486488 0.8851982 2828843 male
-2.468854 0.1920259 -1.368134 0.9805294 0.04483558 0.1911861 2631465 male
-2.702387 -0.4262589 -1.402578 0.9377226 -0.3473205 0.006722212 526600 male
-2.737303 -0.2314211 -1.361185 -0.9613432 -0.1660823 -0.2196274 1908256 male
-2.723264 0.3883553 -1.372357 -0.9898255 0.01830889 0.1411052 3157032 male
-2.567762 0.1533988 -1.306337 -0.2953584 -0.344837 0.8909832 5724511 male
-2.741758 -0.4465787 -1.401333 0.1641113 -0.9836164 0.07460728 526344 male
-2.690519 0.6916686 -1.521092 0.6089906 0.1530828 -0.7782649 9341062 male
-2.53622 -0.4428642 -1.383956 -0.8814895 -0.3397572 -0.3279353 2303523 male
-2.677577 -0.2770211 -1.372076 0.6108608 -0.1501593 -0.7773683 2170913 male
-2.726528 -0.4017682 -1.313743 -0.112411 0.3054721 0.9455426 3092018 male
-2.582073 0.4657062 -1.573391 -0.5628954 0.764698 0.3136654 16775661 male
-2.689423 0.4049935 -1.683779 0.4245426 0.5576115 -0.7133255 15717317 male
-2.474935 0.6406882 -1.568519 -0.03167525 0.8371581 -0.546043 6907745 male
-2.561151 0.918552 -1.5429 -0.3121295 0.9477241 -0.06628866 5525067 male
-2.647031 0.6223547 -1.516921 -0.2331261 0.2508273 -0.9395415 8484727 male
-2.721972 0.316029 -1.306074 -0.732366 0.214243 0.6463283 6314840 male
-2.664664 -0.1292298 -1.311792 0.5613682 0.254566 0.7874402 2960690 male
-2.476799 0.321384 -1.379563 0.9610067 0.2749152 0.02980065 4603453 male
-2.468791 0.5590386 -1.587983 0.4661683 -0.230008 -0.8542738 9340029 male
-2.546801 0.7086955 -1.473516 0.4450116 0.329797 0.8325856 14991799 male
-2.497202 -0.3053389 -1.373621 0.8046329 -0.1520196 -0.5739828 2827819 male
-2.506888 0.2630842 -1.297554 0.7012265 0.1037299 0.7053522 7695205 male
-2.614734 0.4221165 -1.650797 0.4446389 0.04763717 -0.8944424 16768982 male
-2.458543 0.6240001 -1.588014 -0.3341587 0.3250889 -0.8846782 5460555 male
-2.495035 -0.2713972 -1.3774 0.736997 -0.1577103 -0.6572391 2499625 male
-2.626187 0.1152878 -1.398677 0.8344358 -0.1121131 -0.5395811 2367783 male
-2.526682 -0.1122554 -1.314044 0.04597384 0.3221138 0.9455841 3091503 male
-2.557991 -0.06596604 -1.418634 -0.6310641 -0.2943482 -0.7177168 2434605 male
-2.528359 0.9107793 -1.576851 0.2603092 0.8386558 -0.4784304 7168860 male
-2.489434 0.3289926 -1.341774 0.818023 0.3596577 0.4488708 6314584 male
-2.631577 0.7212992 -1.459268 -0.3856139 0.905449 -0.1773808 3881784 male
-2.466809 0.6141621 -1.583945 -0.4299259 0.3211457 -0.8438183 6775388 male
-2.629078 0.0469518 -1.375265 0.9533026 -0.1465649 -0.264071 2698289 male
-2.587434 0.4280375 -1.774469 -0.1049642 0.8275924 -0.5514287 14467251 male
-2.737222 0.3323468 -1.370616 -0.869036 0.4746885 -0.1394539 2697767 male
-2.643577 -0.1788659 -1.351166 0.9667946 0.02027981 -0.2547497 2170657 male
-2.491404 -0.06412221 -1.375694 0.9780352 -0.03346523 -0.2057366 2697265 male
-2.736616 -0.2429475 -1.351576 -0.984195 -0.1761143 -0.01855344 2105377 male
-2.492281 0.8562517 -1.582718 0.7625439 0.1235246 -0.6350343 6314583 male
-2.490201 -0.1050353 -1.363177 0.9935333 0.1008435 -0.05217916 2697257 male
-2.642024 -0.01180462 -1.334344 0.7361377 -0.08617652 0.6713234 2303274 male
-2.442406 0.6316504 -1.520465 0.7729747 0.5681869 -0.2822659 6972767 male
-2.64425 -0.1567919 -1.337527 0.985761 0.1320699 0.1040815 2105635 male
-2.75382 -0.4158655 -1.359675 -0.9513445 0.130469 0.2791444 1907745 male
-2.444164 0.6156334 -1.589503 0.14125 0.1150627 -0.9832646 7631979 male
-2.557726 -0.225214 -1.374425 -0.6083538 -0.07939939 -0.7896845 2303013 male
-2.678178 0.4976248 -1.592862 0.2307018 -0.7576019 0.6105868 13351349 male
-2.587544 0.598954 -1.537355 -0.2478795 0.1604966 -0.9554039 8748152 male
-2.663331 0.03451376 -1.424831 0.5583425 -0.06847384 -0.8267801 3683896 male
-2.598735 0.5227484 -1.338883 0.4550484 0.06709125 0.8879358 7695979 male
-2.557474 0.8866113 -1.452882 -0.3025978 0.5707494 0.7633346 3814706 male
-2.471349 0.6200972 -1.537371 -0.9704748 0.2307967 0.07008362 6249042 male
-2.592295 0.8574687 -1.46733 -0.767114 0.185537 0.6140949 3945779 male
-2.615292 0.8365878 -1.575094 -0.7818125 0.5124341 -0.3552192 15784135 male
-2.529987 0.001077857 -1.321704 0.1843663 -0.0782106 0.979741 2895667 male
-2.487661 -0.1827752 -1.317783 0.838272 0.06685676 0.5411382 2631464 male
-2.510153 0.4130758 -1.471566 0.7004714 -0.3732278 -0.60831 4472379 male
-2.520815 0.6019413 -1.373598 0.1570978 0.3128258 0.9367286 10458512 male
-2.48049 0.02070714 -1.383597 0.9633068 -0.2189141 0.1552956 2630952 male
-2.723113 0.2007589 -1.282979 -0.6475322 -0.05000528 0.7603959 2170913 male
-2.507699 0.7965552 -1.454493 0.4281233 -0.4264637 0.796768 9340029 male
-2.623532 0.7716644 -1.577885 -0.9613215 -0.2633996 -0.08051041 13550517 male
-2.680292 0.1902606 -1.435792 0.01941842 0.1059613 -0.9941808 3552569 male
-2.69892 0.2451871 -1.424449 -0.36399 0.1539468 -0.9185923 7169125 male
-2.738603 -0.4417189 -1.33758 0.03222146 -0.9889157 0.1449401 789004 male
-2.716043 0.5285364 -1.586795 -0.7279577 -0.5916427 0.3464628 14599093 male
