# .PCD v0.7 - Point Cloud Data file format
VERSION 0.7
FIELDS x y z normal_x normal_y normal_z rgb label
SIZE 4 4 4 4 4 4 4 4
TYPE F F F F F F U U
COUNT 1 1 1 1 1 1 1 1
WIDTH 249
HEIGHT 1
VIEWPOINT 0 0 0 1 0 0 0
POINTS 249
DATA ascii
1.197965 0.1770587 -1.267378 -0.5564545 0.08624834 0.8263896 6381417 male
1.426421 0.2346938 -1.109107 -0.1882582 0.9371045 -0.2939288 6777463 male
1.779614 0.2493942 -1.258246 0.162872 0.8067577 0.5679919 526600 male
1.445664 0.1131951 -1.080978 0.1582469 -0.7581168 0.6326269 5528418 male
1.220881 0.1936892 -1.259079 -0.2634034 0.2037658 0.94292 7828345 male
1.673478 0.3173323 -1.368256 0.09939189 0.7940306 0.5996972 723211 male
1.387995 -0.006382061 -1.382248 0.04522315 -0.7899773 -0.6114661 3685961 male
1.249256 0.4376263 -1.314447 0.4014586 0.7762395 0.4860897 12696782 male
1.298183 0.6152707 -1.446605 0.6021109 0.1131433 -0.7903549 15712955 male
1.61513 0.250491 -1.316758 -0.2228501 0.6549013 0.7221096 1447447 male
1.725486 0.2348092 -0.9551971 0.382133 0.8938437 0.2345588 526600 male
1.28712 0.7015015 -1.39829 0.622373 0.7694536 -0.1435025 1051664 male
1.260655 0.2338252 -1.511653 -0.2339284 -0.4727552 -0.8495765 7762814 male
1.31205 0.2256126 -1.291294 0.537014 0.2439174 0.8075397 13486045 male
1.222982 0.07657931 -1.341807 -0.7526484 -0.5527067 -0.3578209 10130598 male
1.455318 0.2144398 -1.020654 0.03912595 -0.946246 0.3210726 723467 male
1.59995 0.1065461 -1.358567 0.6057808 -0.600888 -0.521501 5857385 male
1.190329 0.394906 -1.276146 0.3187089 -0.6887959 0.6511413 526344 male
1.756627 0.2278956 -0.9454532 0.3757242 0.9182786 0.124883 526600 male
1.174953 0.4695114 -1.285367 0.08626711 0.9763808 0.1980873 14933995 male
1.302368 0.4883423 -1.391208 0.9320739 -0.2441956 0.2675945 16574948 male
1.373468 0.1880198 -1.172547 -0.2498057 0.905187 -0.3438511 6448758 male
1.919623 0.2310988 -1.105558 0.04258177 -0.2114051 -0.9764705 526600 male
1.44781 0.2152565 -1.626754 -0.2583626 -0.6049162 0.7532099 1644825 male
1.783765 0.2503806 -1.325687 0.9152833 -0.1962529 -0.3517685 526600 male
1.204141 0.3288096 -1.510583 -0.7642638 -0.2420224 -0.5977675 12631505 male
1.177649 0.2539189 -1.429047 -0.7350779 -0.4047785 -0.5438887 12827085 male
1.228084 0.3328421 -1.270236 -0.1749345 0.0125664 0.9844999 6513515 male
1.728417 0.2826491 -1.285194 -0.240908 0.5495409 0.79998 526600 male
1.109546 0.3879816 -1.190569 -0.79114 0.5379647 0.2910182 15908277 male
1.332304 -0.006270298 -1.293369 -0.08213637 -0.9957672 -0.04124683 11382978 male
1.192622 0.4791709 -1.416508 -0.7241431 0.5202307 -0.4527434 8419721 male
1.488624 0.3063447 -0.9220955 0.02677783 -0.333162 0.9424893 526600 male
1.124098 0.4144873 -1.213066 -0.4513405 0.7408326 0.4974524 12953770 male
1.302359 0.5620924 -1.341079 0.4102478 -0.2149756 0.8862743 13346978 male
1.305886 0.4311776 -1.584382 -0.2420092 0.3817877 -0.8920033 6775661 male
1.327654 0.1525922 -1.188524 -0.7005824 0.7072417 -0.09483385 9213604 male
1.140939 0.3270149 -1.191644 0.5252948 -0.8008795 -0.2875021 3289394 male
1.612455 0.1770554 -1.389884 0.3918526 -0.09131455 -0.9154852 855309 male
1.20697 0.3579874 -1.524379 -0.7483597 -0.07233674 -0.6593369 12236746 male
1.181027 0.4193837 -1.45231 -0.8073246 0.23995 -0.5391205 14340839 male
1.464721 0.2646465 -1.65567 0.2291626 0.8544108 -0.4663332 15975619 male
1.267282 0.6808566 -1.450562 0.5074856 0.4866243 -0.7110944 6184030 male
1.265091 0.04047265 -1.357959 -0.6656985 -0.6535206 -0.3602172 8749454 male
1.202563 0.6463708 -1.334922 -0.3511892 -0.004515611 0.9362937 14207184 male
1.563522 0.2004312 -1.372853 -0.0902321 0.7703652 -0.6311859 5989232 male
1.377768 0.3643933 -1.542819 0.6108676 -0.02191845 0.7914294 13278106 male
1.315689 0.3880584 -1.527222 0.3619131 -0.875581 0.3199638 526600 male
1.320982 0.02466499 -1.408093 -0.3713596 -0.7113078 -0.5967689 12436173 male
1.347163 0.2940534 -1.482216 0.8689964 -0.04343372 -0.4929084 3750721 male
1.29139 0.002830065 -1.296025 -0.3826901 -0.9109088 -0.1542512 8752798 male
1.78793 0.2354791 -1.246503 -0.07907331 0.7967468 0.5991176 526600 male
1.305526 0.114598 -1.208013 -0.5889044 0.8015404 0.1035591 6449015 male
1.36212 0.1670054 -1.38377 0.6573421 0.7104517 -0.2513158 8946064 male
1.102185 0.2656311 -1.119504 0.7670749 -0.4647704 -0.4422494 9929606 male
1.177667 0.5737047 -1.384215 -0.6498623 -0.6207075 0.4386356 11971502 male
1.451502 0.1813249 -1.033968 -0.04803056 -0.7860966 0.6162347 723723 male
1.834191 0.2237059 -0.9926732 -0.311205 0.9022639 0.2984483 526600 male
1.247799 0.4277529 -1.539156 -0.484876 0.4353486 -0.7585294 10723758 male
1.503809 0.007076709 -1.352737 0.6459669 -0.6561921 -0.3900496 3553607 male
1.334116 0.06689009 -1.131931 -0.4800977 -0.4120031 0.7744415 3420989 male
1.848388 0.1593949 -1.217942 -0.6235018 0.650309 0.4339857 526600 male
1.736297 0.3226799 -1.34563 0.4638825 0.8065487 0.3664589 526600 male
1.390463 0.015583 -1.402298 0.136527 -0.6155728 -0.7761639 12435149 male
1.415477 0.01672972 -1.20628 0.7533416 -0.6123391 0.2398276 4738131 male
1.890672 0.1323074 -1.200538 -0.07017994 -0.4446526 0.8929496 526600 male
1.355314 0.4088427 -1.523026 0.8230959 -0.03536158 0.5668004 14208992 male
1.699783 0.2229716 -0.9838972 -0.2504402 0.6677197 -0.7010207 526600 male
1.80372 0.2055016 -1.267129 0.6586772 -0.6160682 -0.4319772 526600 male
1.863264 0.1630478 -1.24378 0.4480751 -0.663529 -0.5991311 526600 male
1.108366 0.2782746 -1.123604 0.8828772 -0.3230589 -0.3408236 10651278 male
1.218384 0.3179401 -1.030968 0.4625831 -0.3474836 0.8156421 15841978 male
1.181588 0.4687 -1.297617 0.1874209 0.9764545 0.1068172 14604008 male
1.270953 0.7110844 -1.393782 0.429127 0.9024547 -0.03775647 526600 male
1.296573 0.4517287 -1.395387 0.8032196 0.4144011 0.4279135 15723519 male
1.428303 -0.01069663 -1.370625 0.1828175 -0.7928929 -0.5812904 6778747 male
1.753474 0.280703 -1.398476 0.7065023 -0.3204716 -0.6309932 526600 male
1.221316 0.1008381 -1.237324 -0.7684971 -0.08595528 0.6340535 6578796 male
1.123805 0.4048981 -1.196386 -0.4094319 0.7924931 0.4520178 14986154 male
1.245124 0.7088941 -1.359177 0.0687632 0.8312469 0.5516343 2960173 male
1.566133 0.29699 -0.9569746 0.6749694 0.4529102 0.5824848 526600 male
1.200622 0.1106244 -1.358792 -0.6735837 -0.6934016 -0.255889 12959445 male
1.074252 0.2722036 -1.034474 -0.3251736 0.4249867 0.8447771 13345436 male
1.129856 0.4589353 -1.281404 -0.6530511 0.7561125 0.04264039 7104366 male
1.550318 0.3046603 -0.9476241 0.6304433 0.394388 0.6685799 526600 male
1.614888 0.2449856 -1.312765 -0.2296915 0.603247 0.7637635 4540236 male
1.437896 0.2776012 -0.9715411 -0.5358978 -0.8266588 0.1716068 526600 male
1.485712 0.349753 -0.9944659 0.2420666 0.7562078 -0.6079091 526600 male
1.294028 0.6914776 -1.376959 0.7228048 0.6578206 0.21172 14401736 male
1.215223 0.06964964 -1.309134 -0.817286 -0.5255135 -0.2363879 9341342 male
1.222838 0.4801328 -1.46837 -0.7534041 0.5684173 -0.3305814 8814478 male
1.107615 0.4151896 -1.251287 -0.9477843 0.3023461 0.1014475 6511976 male
1.696654 0.3417318 -1.373823 0.2316665 0.6973367 0.6782715 657162 male
1.544218 0.2942552 -1.497436 -0.7780378 0.5502326 -0.303152 16764118 male
1.336102 0.09493802 -1.456138 -0.04743639 -0.1212003 -0.9914939 4933711 male
1.829885 0.2166129 -1.229963 -0.3419507 0.8737581 0.345856 526600 male
1.398534 0.08861456 -1.098063 -0.1355224 -0.5744901 0.8072141 5394778 male
1.752876 0.3100944 -1.402405 0.8870226 0.09837736 -0.4511238 526600 male
1.235971 0.6581129 -1.328344 -0.05707312 0.1750787 0.9828988 11051944 male
1.43917 0.2662212 -0.9758248 -0.4552718 -0.8501232 0.2646093 526600 male
1.516086 0.1048313 -1.259125 0.01550826 0.1560967 0.98762 3618878 male
1.210884 0.4517201 -1.290959 0.6549051 0.7303512 0.19413 9867165 male
1.771291 0.2958612 -1.354821 0.9025775 0.4293002 -0.03248134 526600 male
1.901305 0.1567012 -1.235081 0.3243127 -0.4486061 -0.8328108 526600 male
1.121727 0.4489819 -1.291145 -0.8126063 0.5799519 -0.05767781 7171445 male
1.455241 0.3159668 -0.9300827 -0.2479477 -0.4113515 0.8771043 526600 male
1.43423 0.244792 -1.63125 -0.845594 0.1572753 0.5101324 14661566 male
1.283263 0.4401532 -1.356514 0.7370402 0.5160604 0.4364096 16512764 male
1.865815 0.2045634 -1.244019 0.8536643 0.3023152 -0.4241023 526600 male
1.194567 0.224876 -1.441445 -0.9128779 -0.3354574 -0.2326421 11447230 male
1.192183 0.6624474 -1.473394 -0.2982067 0.2159579 -0.9297498 5591125 male
1.200423 0.4270031 -1.256331 0.6765503 0.01046964 0.7363219 10394536 male
1.216535 0.687755 -1.465691 0.01268935 0.5779209 -0.8159941 4276805 male
1.314664 0.6083632 -1.42819 0.8805001 0.1833098 -0.4371693 15381936 male
1.448697 0.1588641 -1.047166 -0.03980759 -0.7225832 0.6901368 3487556 male
1.461805 0.2740385 -0.9782941 -0.6041663 -0.7936036 -0.07194644 526600 male
1.168148 0.222947 -1.301256 -0.7844745 -0.3215948 0.530261 7763070 male
1.247709 0.035955 -1.314575 -0.6479467 -0.7021545 -0.2952016 5987948 male
1.409621 0.03390953 -1.162537 0.40768 -0.7430605 0.5307146 5395034 male
1.480519 0.008714845 -1.375548 0.4981749 -0.62188 -0.6042244 9409439 male
1.148291 0.6681998 -1.393471 -0.9409026 0.2685322 0.20638 526344 male
1.331885 0.5827748 -1.389027 0.8910938 0.3843268 -0.2413394 11374220 male
1.465418 0.1574604 -1.349006 -0.5180927 0.8449523 -0.132799 11121098 male
1.401813 0.136763 -1.302578 0.5250505 0.7710309 -0.3603239 6645620 male
1.923387 0.1645341 -1.154543 0.1081128 -0.4280061 0.8972862 526600 male
1.40041 0.2446869 -1.681323 -0.06934717 -0.1290342 -0.9892123 15973297 male
-2.469302 0.3111631 -1.332403 0.9885145 0.07282039 0.1324258 3683120 male
-2.522802 0.0346192 -1.371487 -0.2248884 0.1968157 -0.9543004 3223601 male
-2.629586 -0.006136281 -1.366768 0.937264 0.02562963 -0.3476774 2829615 male
-2.472924 0.03800455 -1.241566 0.7365116 -0.3469881 0.5806465 2434085 male
-2.467713 0.2959014 -1.350446 0.987779 -0.1554907 0.01074672 4340793 male
-2.742096 -0.1552162 -1.414963 -0.939267 0.2110048 0.2706562 1776929 male
-2.515929 0.3684995 -1.622805 0.4720331 -0.3076182 -0.8261696 5657162 male
-2.519297 0.2604814 -1.475828 0.3506838 -0.8156968 -0.4600651 16767920 male
-2.581307 0.344317 -1.80918 -0.1025987 -0.7047208 -0.7020272 11706009 male
-2.609003 0.04872079 -1.3064 0.9653757 -0.1249318 -0.2290028 8619915 male
-2.479802 -0.3330546 -1.398545 0.7781513 -0.2302233 -0.5843611 2434090 male
-2.603984 0.3899967 -1.853955 -0.7629305 -0.3015465 -0.5718452 5194560 male
-2.682642 0.3355047 -1.306912 -0.7227333 0.3493254 0.5963461 6972255 male
-2.538138 0.2136275 -1.364449 0.5243545 -0.4919569 -0.6950045 8221809 male
-2.518493 0.3798557 -1.330621 0.4594015 0.6495267 0.6058593 9735047 male
-2.51339 -0.06614701 -1.291829 0.008638769 -0.405391 0.9141026 2960173 male
-2.746141 0.041949 -1.299313 -0.9859717 -0.135095 0.0980283 1974566 male
-2.450945 0.4300382 -1.587406 -0.6429749 -0.7651534 0.03351849 7170147 male
-2.555041 -0.4654651 -1.466057 -0.4509665 -0.8845038 -0.1195088 2499878 male
-2.438475 0.3735119 -1.565727 0.7671763 -0.6386163 -0.06008321 5854289 male
-2.531001 0.3502202 -1.704373 0.6915486 -0.5462759 0.4725923 13021869 male
-2.499771 0.1039115 -1.350927 0.1973883 0.3439705 -0.9179992 4144968 male
-2.701375 -0.4512808 -1.493707 -0.02894938 -0.9842713 0.1742753 592137 male
-2.698548 0.05430199 -1.577384 -0.009022057 -0.06659065 0.9977398 6379604 male
-2.695883 -0.3046744 -1.421597 0.2548278 -0.277287 -0.9263773 2500142 male
-2.665694 0.4420948 -1.544052 -0.3019714 0.9523731 0.04241019 8091251 male
-2.59276 0.4639109 -1.522502 -0.5870647 0.805741 0.0783366 6510930 male
-2.451091 0.3976344 -1.455679 0.96617 0.1070962 0.2346193 2894636 male
-2.629932 -0.04535711 -1.37522 0.9758086 -0.09784625 -0.1955099 2303014 male
-2.410483 0.4628413 -1.526293 0.231636 0.6721261 0.7032719 7697005 male
-2.56282 0.2007986 -1.16777 -0.05801791 0.1508047 0.9868597 11905966 male
-2.606184 0.3158399 -1.616114 0.2916815 -0.6559182 -0.6961992 8025201 male
-2.451882 -0.2168246 -1.353769 0.8821964 -0.1224095 0.4546931 2368292 male
-2.415634 0.3968607 -1.573794 -0.03504662 -0.6905206 -0.7224633 10261132 male
-2.527103 0.3243146 -1.722321 0.5997332 -0.4464193 0.6641009 12167320 male
-2.743909 0.3185368 -1.605957 -0.8993276 0.09230936 0.4274213 8682875 male
-2.453633 0.08093111 -1.250161 0.9392661 -0.1417458 0.3125503 2170913 male
-2.442502 0.4646167 -1.551852 -0.797313 -0.04345835 0.6019996 3815735 male
-2.733146 -0.09969876 -1.429453 -0.9909354 0.08232197 -0.1061618 2499878 male
-2.670845 0.4397781 -1.533086 -0.335981 0.9330382 0.128672 9209218 male
-2.61692 0.422971 -1.42447 -0.1139548 0.8489064 0.5161127 8089971 male
-2.694541 0.01082984 -1.642143 0.2467397 -0.07579401 -0.9661134 16701382 male
-2.609607 0.426651 -1.856851 -0.788695 0.04796672 -0.6129108 3551278 male
-2.634038 0.1912212 -1.17624 0.003547698 0.04693912 0.9988916 2170913 male
-2.481856 0.4375083 -1.815223 0.9944701 0.05681835 -0.08832479 3881270 male
-2.69534 -0.1127722 -1.482892 -0.0868378 -0.4412668 -0.8931646 3947583 male
-2.692333 0.2325536 -1.659809 0.1125125 -0.1537594 -0.9816819 5459523 male
-2.747538 0.05249534 -1.312541 -0.9959637 -0.02565595 -0.08601338 2697257 male
-2.667724 0.2311264 -1.192864 -0.2927489 0.3904837 0.8728235 10063496 male
-2.671839 0.2794538 -1.530131 -0.7030614 -0.704875 -0.09410685 4538429 male
-2.59466 0.2882812 -1.2208 -0.1229592 0.7086604 0.694753 10457744 male
-2.653833 -0.2211875 -1.428142 0.8612655 -0.2807123 -0.4235829 1841692 male
-2.454235 0.194251 -1.24889 0.9735919 0.1017533 0.204366 4013626 male
-2.600019 0.2170833 -1.381151 -0.149297 -0.7965723 -0.5858184 7433321 male
-2.407508 0.388943 -1.484802 -0.8602627 -0.05863453 0.5064685 15257807 male
-2.493387 0.4677925 -1.837188 0.8338594 0.3762152 -0.4039068 4340793 male
-2.479321 -0.04603488 -1.295863 0.7893977 -0.323873 0.5214958 3157808 male
-2.512115 0.4115087 -1.631477 0.6696138 -0.1348436 -0.7303662 5196102 male
-2.651182 0.3889087 -1.660367 -0.1678677 -0.2001593 -0.9652756 4669759 male
-2.695767 0.1350907 -1.183758 -0.5151423 -0.2684572 0.8139775 2499878 male
-2.457531 0.1837416 -1.285387 0.8675065 0.2282287 -0.4419777 2105891 male
-2.680256 -0.4003041 -1.353486 0.996356 -0.04344344 0.07339984 2302243 male
-2.731023 -0.2252209 -1.450838 -0.6969278 -0.3078223 -0.647717 1776155 male
-2.695732 0.2792552 -1.359754 -0.9346548 -0.2724515 -0.2284533 3025449 male
-2.565372 -0.06029997 -1.331932 -0.9747344 -0.1339658 0.1787351 2301475 male
-2.728303 -0.4243619 -1.325805 -0.6090671 -0.6948632 0.3823644 1973534 male
-2.700816 0.3074768 -1.680029 -0.02227464 0.2326652 -0.972302 7433058 male
-2.510267 -0.473143 -1.437418 0.03154212 -0.9879135 -0.1517629 526600 male
-2.719162 -0.3430153 -1.397218 -0.9185075 -0.1152926 -0.3782222 1644569 male
-2.718161 -0.3915661 -1.328844 -0.8145982 0.3160539 0.4863536 3028022 male
-2.420314 0.406442 -1.505102 -0.8572776 -0.0785407 0.5088288 13351610 male
-2.359951 0.2288079 -1.416363 -0.03496182 -0.6425952 0.7654078 14271933 male
-2.437505 0.3863089 -1.571637 0.6727337 -0.7339895 0.09321412 4802112 male
-2.568293 0.4368973 -1.881155 -0.2340262 0.1850518 -0.9544568 4932930 male
-2.586981 0.2593288 -1.519655 0.4006441 -0.8856171 -0.2348759 7037791 male
-2.504115 0.3630518 -1.613173 0.4740404 -0.4360822 -0.7649302 9077885 male
-2.739205 -0.2188796 -1.395076 -0.9155463 -0.03120749 0.4010006 1777185 male
-2.468711 0.2699209 -1.257551 0.8948857 0.3451735 0.2829045 5195589 male
-2.368038 0.4126659 -1.541537 0.9547828 0.1431024 -0.2605989 16772062 male
-2.527232 0.4174192 -1.879135 0.4355138 0.01131075 -0.9001112 6708568 male
-2.473805 -0.2876542 -1.406383 0.6225574 -0.2386336 -0.745303 2367780 male
-2.521972 0.4019066 -1.364028 0.3103354 0.6958631 0.6476624 6840669 male
-2.293851 0.3344059 -1.370836 0.7089671 -0.4632062 0.5317949 12626335 male
-2.418958 0.4850266 -1.585277 0.4485524 0.8884687 -0.09707752 10460310 male
-2.47049 -0.2553966 -1.416296 0.511003 -0.2363083 -0.8264591 2566703 male
-2.686169 0.07759924 -1.376335 -0.05974719 0.3350369 -0.9403089 3948615 male
-2.453918 -0.1456202 -1.360063 0.875184 0.2085981 0.4365089 2170403 male
-2.491477 -0.06869578 -1.408555 0.5160123 0.1601941 -0.8414686 3554629 male
-2.600662 0.3836629 -1.85457 -0.7300997 -0.355898 -0.5833449 4932162 male
-2.517474 0.2257341 -1.186221 0.5150108 0.2714162 0.8130789 7958377 male
-2.757569 -0.4512686 -1.457484 -0.9492816 -0.1171146 0.2918028 854538 male
-2.391417 0.4277727 -1.590748 0.6963966 -0.4763993 -0.5367269 13218467 male
-2.626119 -0.02622354 -1.335166 0.9854407 -0.1681082 0.02542949 1974049 male
-2.704283 -0.1459655 -1.607521 -0.8693731 -0.02489264 -0.4935293 14071469 male
-2.717985 0.2709264 -1.32658 -0.8273658 0.4535928 -0.3312396 2698023 male
-2.656069 -0.2380299 -1.41951 0.8987843 -0.3059081 -0.314018 1644825 male
-2.458121 1.603737E-05 -1.308436 0.9531291 -0.2701924 0.1361669 2433829 male
-2.732887 -0.1769536 -1.389278 -0.7481467 0.164343 0.6428596 2697257 male
-2.499827 0.3953802 -1.851598 0.8088891 -0.2423498 -0.5356915 6116946 male
-2.472991 -0.1361555 -1.344867 0.4629335 0.3136444 0.8290477 2697005 male
-2.64114 -0.03006933 -1.292885 0.677705 -0.4554458 0.5773086 2302499 male
-2.435624 0.4796631 -1.581653 0.3822324 0.8974973 -0.2199934 11118239 male
-2.657808 -0.1336179 -1.410844 0.8728488 0.2263819 0.4323037 2499878 male
-2.71942 -0.3712985 -1.387313 -0.8844401 0.19589 -0.4235481 2697257 male
-2.410084 0.4872047 -1.588026 0.5507879 0.8336787 -0.04015887 11183003 male
-2.5165 -0.143656 -1.415395 -0.6824749 -0.2551176 -0.6849403 2697257 male
-2.6765 0.005901533 -1.624048 0.9492863 -0.05289917 -0.3099314 16706017 male
-2.569938 0.2523625 -1.486918 0.300244 -0.784122 -0.5431449 16374448 male
-2.678052 0.01494777 -1.397567 0.06448722 0.1586922 -0.98522 4211789 male
-2.622135 0.3299295 -1.272047 -0.1843343 0.7612377 0.6217219 5788488 male
-2.599135 0.4866291 -1.762217 -0.6829773 0.6175608 0.3900781 4208440 male
-2.420756 0.4210532 -1.616774 0.04842164 -0.9256944 -0.3751603 9275261 male
-2.61099 0.4841704 -1.808343 -0.825071 0.5620962 -0.05749699 6511192 male
-2.572433 0.3420652 -1.810664 -0.7971681 -0.2993252 -0.5243356 13086630 male
-2.490047 -0.03323985 -1.271952 0.5983762 -0.3961375 0.6964347 2499878 male
-2.446241 -0.1621032 -1.37696 0.9895708 0.1103497 0.09259003 1711394 male
-2.476134 0.3837515 -1.385747 0.7131894 0.4705558 0.519556 3224625 male
-2.595984 0.399039 -1.380359 -0.2325787 0.8259695 0.5134994 9143683 male
-2.45173 0.05509523 -1.268348 0.9442915 -0.1913433 0.2677718 2237222 male
-2.681952 0.1033555 -1.184708 -0.2308073 -0.6084965 0.7592498 4407879 male
-2.507349 0.4963672 -1.820426 0.6585743 0.726865 -0.1948002 7037274 male
-2.61248 0.3467156 -1.765504 -0.8818186 -0.4715871 -0.001347423 16771038 male
-2.713727 0.1067312 -1.348459 -0.5858528 0.3551278 -0.7284648 2894386 male
