# .PCD v0.7 - Point Cloud Data file format
VERSION 0.7
FIELDS x y z normal_x normal_y normal_z rgb label
SIZE 4 4 4 4 4 4 4 4
TYPE F F F F F F U U
COUNT 1 1 1 1 1 1 1 1
WIDTH 247
HEIGHT 1
VIEWPOINT 0 0 0 1 0 0 0
POINTS 247
DATA ascii
1.381349 1.12795 -0.6384727 -0.4928968 -0.4361798 0.7528612 4867915 male
1.39115 0.7370222 -0.7576715 0.9594445 -0.180285 -0.2167108 3026738 male
1.508404 0.7512907 -0.7896497 -0.08325368 -0.1700312 0.9819155 3620165 male
1.281165 0.8371085 -0.7254772 -0.9416343 -0.0884435 0.3248116 4212560 male
1.385265 1.110819 -0.6471821 -0.3701837 -0.4416953 0.8172327 5000276 male
1.527528 0.643012 -0.8936365 -0.3285308 0.5304294 -0.7814807 526600 male
1.540883 1.110622 -0.7480734 0.9199877 -0.3835031 0.08091962 9604250 male
1.461962 1.228036 -0.5492775 0.262615 -0.4753397 0.8396937 9670044 male
1.628879 1.478208 -0.4851441 0.9917161 0.05290661 -0.1170469 14597820 male
1.513664 0.87866 -0.7914957 0.4242131 0.04273107 0.9045535 10462911 male
1.263392 0.4546317 -0.7339517 -0.8957388 -0.1343022 0.4238098 526600 male
1.627967 1.498402 -0.4487766 0.9661925 0.08419215 0.2436877 13150894 male
1.463378 1.157093 -0.8532444 -0.09294549 0.2779276 -0.9560949 6972787 male
1.454449 1.086455 -0.6560479 0.1426291 -0.500152 0.8541107 14999789 male
1.335773 1.088879 -0.8207932 -0.5112749 0.6530365 -0.5586962 11117233 male
1.34671 0.6509346 -0.7836155 0.3372278 -0.2330321 -0.9121257 526600 male
1.474731 0.8266061 -0.920512 -0.03515154 -0.09967743 -0.9943986 9869997 male
1.394517 1.257231 -0.5518774 0.9110615 0.02351627 -0.411599 13679808 male
1.366558 0.296375 -0.6859176 0.1308905 0.9392782 0.3172128 526600 male
1.343915 1.298989 -0.5990319 -0.8389474 -0.5123297 -0.1835358 6907755 male
1.544107 1.371761 -0.5126951 -0.5106229 -0.8545314 -0.09508118 9797756 male
1.397478 0.8870853 -0.6940612 0.7213907 -0.01092884 0.6924419 8687008 male
1.620847 0.3020041 -0.8450714 -0.0707854 -0.9850904 -0.1568004 526600 male
1.573977 1.038812 -0.7575629 -0.905925 0.02235962 0.4228473 14601174 male
1.542013 0.4133015 -0.9020519 -0.1688717 0.03737704 0.984929 526600 male
1.479781 1.371869 -0.7059498 -0.5606281 0.7436382 -0.364278 15525106 male
1.427574 1.333578 -0.7139794 -0.328005 0.6095463 -0.7217105 12302024 male
1.370995 1.209639 -0.6108348 -0.6768337 -0.2938918 0.674925 526344 male
1.45762 0.7649178 -0.8135241 -0.65581 -0.2507924 0.7120509 4342342 male
1.355886 1.27707 -0.5032595 -0.1119566 -0.2189645 0.9692886 15711166 male
1.277074 0.9511042 -0.8213457 -0.9076031 -0.1167556 -0.4032677 4146511 male
1.600596 1.250602 -0.6387752 0.6954505 -0.3373535 0.6344614 10656168 male
1.275272 0.5127658 -0.712136 -0.5892659 -0.09502134 0.8023319 526600 male
1.331292 1.322218 -0.5079945 -0.8250766 -0.1146646 0.5532638 6709612 male
1.545559 1.366846 -0.501227 -0.5443324 -0.790149 -0.2817209 9731703 male
1.679278 1.36405 -0.7190427 0.7744493 0.1729016 -0.60855 6775661 male
1.279905 0.8817992 -0.7207289 -0.8970547 -0.02028614 0.4414535 3355964 male
1.285101 0.6810347 -0.7336511 -0.9475532 0.1309295 0.2915485 526600 male
1.59296 0.6556048 -0.8416927 0.9405972 0.006431849 -0.3394637 526600 male
1.488828 1.351546 -0.7483808 -0.5204471 0.5989982 -0.6085522 15855097 male
1.414279 1.216267 -0.7850363 -0.7345281 0.3860488 -0.5580634 9734812 male
1.617928 1.057674 -0.7571786 0.9149206 -0.2127295 0.3430253 15055547 male
1.591662 1.51163 -0.5547301 0.5798762 0.2651293 -0.7703571 12168624 male
1.432689 1.0247 -0.9214637 0.1030278 0.2424795 -0.9646704 11974599 male
1.496038 1.492302 -0.4389673 -0.8595628 -0.1609415 0.4850253 11314087 male
1.566197 0.6254496 -0.8062932 0.1881539 -0.5897505 0.7853613 526600 male
1.651071 1.295919 -0.6808191 0.6256644 -0.2830799 0.726918 16313061 male
1.550068 0.8548364 -0.8718485 0.9173126 0.1269969 -0.3773715 6711414 male
1.351435 0.9627216 -0.8916846 -0.6517803 -0.6263365 -0.4276506 7700109 male
1.595227 1.240923 -0.7330887 0.9497818 -0.2126286 -0.2295725 1184275 male
1.300832 1.0126 -0.8438467 -0.7117216 0.1949463 -0.6748689 9870255 male
1.543654 0.6421765 -0.7975988 -0.1113088 -0.5826038 0.8050982 591881 male
1.301839 0.9931942 -0.7035971 -0.7650684 0.1144556 0.6336956 7435905 male
1.511546 1.0305 -0.7799822 0.8935303 -0.2255018 0.3882685 10459819 male
1.295169 1.108781 -0.5844399 0.05185798 0.599101 -0.7989923 14336712 male
1.50081 1.525876 -0.4329937 -0.7422819 0.2181344 0.633589 723723 male
1.285843 0.7617401 -0.7498336 -0.9880486 -0.1042544 0.1135387 6052708 male
1.589325 1.3342 -0.6146854 0.6663174 0.07669866 0.7417132 13484758 male
1.585079 1.363548 -0.6050088 0.9355352 -0.06306528 0.3475581 9933212 male
1.355002 0.9567501 -0.895609 -0.7325742 -0.606998 -0.3080398 8488854 male
1.348438 0.9897254 -0.6850377 0.130673 0.1334839 0.9823984 11317693 male
1.535214 0.3563407 -0.9318325 -0.689825 -0.4407768 0.574332 526600 male
1.527241 0.6136332 -0.9076809 -0.2406244 0.3532324 -0.9040613 526600 male
1.542902 1.114778 -0.7356075 0.8939092 -0.437379 0.09811187 9340566 male
1.36927 0.7412159 -0.7963323 0.603256 -0.1472609 -0.7838343 3487804 male
1.613363 0.3399237 -0.9571551 0.03697452 -0.7154204 -0.6977153 526600 male
1.634267 1.318371 -0.6687756 0.2009646 -0.9685815 0.1465029 9013395 male
1.388181 0.2758205 -0.6849927 0.1791528 -0.9834728 -0.02618404 526600 male
1.526254 0.483193 -0.8724864 -0.1366418 -0.4489126 0.8830665 526600 male
1.497645 0.3880717 -0.9891406 -0.8470178 0.2342575 -0.4771627 526600 male
1.290148 1.074984 -0.5901344 -0.3886312 -0.3993798 -0.8303382 16247277 male
1.418315 0.9958881 -0.5978472 0.009107023 -0.7594408 0.6505127 14263980 male
1.394923 1.28306 -0.5584615 -0.4334523 -0.8879149 0.1540334 526600 male
1.593286 1.522583 -0.4077771 0.488897 0.3856305 0.7824761 526600 male
1.554953 1.305516 -0.5859895 0.5273163 -0.2145539 0.8221338 13749735 male
1.54867 1.126779 -0.7090907 0.8432915 -0.4980986 0.2018839 11972801 male
1.509225 0.6375037 -0.8195785 -0.8077335 -0.1544534 0.5689559 3289910 male
1.351332 1.021709 -0.6784701 0.04680586 -0.004565775 0.9988935 9601409 male
1.391853 1.236374 -0.5350927 0.9624326 -0.06194132 0.2643613 14987700 male
1.519728 1.438196 -0.5893895 -0.4459723 0.6391271 -0.6265981 16771544 male
1.327999 0.5198199 -0.7204741 0.8691884 -0.1362382 0.4753425 526600 male
1.356538 1.155167 -0.7770624 -0.7306499 0.2900549 -0.6180766 12235458 male
1.330798 1.104109 -0.5811653 0.2945986 0.777691 -0.5553452 15647429 male
1.396905 1.314073 -0.5388643 0.1208583 -0.9737396 -0.1929369 526344 male
1.299469 0.4474279 -0.7115887 0.1167163 -0.133127 0.9842024 526600 male
1.525012 0.8883036 -0.7974052 0.5965153 0.101945 0.796101 9805747 male
1.263111 0.590979 -0.7289639 -0.8477556 0.2026702 0.490138 526600 male
1.350241 0.7251331 -0.6947054 0.0763357 -0.2034903 0.9760965 8423316 male
1.62837 1.49208 -0.4484625 0.9693258 0.03646692 0.2430588 14464188 male
1.323606 1.111884 -0.7737367 -0.6336857 0.7200457 -0.2828014 11775164 male
1.556991 1.420459 -0.6721696 0.04563809 0.9339229 -0.3545493 11446716 male
1.364097 1.337047 -0.482406 -0.3358092 -0.1016206 0.9364322 6511979 male
1.440167 0.8125171 -0.8093262 -0.5697644 -0.3468603 0.745021 3092017 male
1.600526 0.9309456 -0.808534 0.958858 -0.02909125 -0.2823918 14394018 male
1.507179 1.141892 -0.6418609 0.571784 -0.4251056 0.7016753 13560262 male
1.506516 0.7173451 -0.7920692 -0.3397042 -0.3358448 0.8785267 527376 male
1.314063 0.587327 -0.7005044 0.1917761 0.01661437 0.981298 526600 male
1.553443 0.5468306 -0.9192485 0.4220327 0.08315725 -0.9027587 526600 male
1.536613 1.464769 -0.4070862 -0.5150114 -0.293027 0.8055423 12623003 male
1.271713 0.5964993 -0.7863133 -0.6381454 0.2376983 -0.7323045 526600 male
1.456573 0.7295412 -0.8358783 -0.9625382 -0.2020155 0.1808588 527117 male
1.440466 1.311133 -0.5068257 0.7199611 -0.07832317 0.6895807 14670049 male
1.491682 0.5810556 -0.8812751 -0.9490241 0.0650472 -0.3084187 526600 male
1.540704 0.4003774 -0.9722888 0.3027008 0.2409737 -0.9221193 526600 male
1.407176 1.305849 -0.5272851 0.2647079 -0.9495032 0.1684445 1184277 male
1.316415 0.4649147 -0.7724476 0.6828719 -0.2225201 -0.6958238 526600 male
1.570016 1.163424 -0.7743813 -0.8630544 0.06883196 -0.500399 1051664 male
1.551994 1.157357 -0.6736333 0.7498995 -0.4145262 0.5155762 11776199 male
1.513733 0.5363528 -0.8454593 -0.393889 -0.4504196 0.8012326 526600 male
1.396422 1.11666 -0.8428919 -0.4363202 0.6844197 -0.5841185 11642553 male
1.588088 1.567872 -0.5220069 0.523303 0.6807866 -0.5125267 4933195 male
1.386978 1.22623 -0.5325382 0.9300108 -0.08225497 0.3582095 15380401 male
1.603822 1.56666 -0.4901671 0.7244954 0.6837769 -0.08692253 4276805 male
1.618728 1.446675 -0.4583707 0.9216955 -0.2957241 0.251047 11178386 male
1.319697 0.7471771 -0.8037733 -0.3143756 -0.1638824 -0.9350457 7107453 male
1.283072 0.5647766 -0.7048053 -0.468639 0.05791414 0.8814893 526600 male
1.356969 1.170492 -0.6442712 -0.8627766 -0.2291833 0.4506569 5526364 male
1.381845 1.1657 -0.7925757 -0.4756072 0.3932576 -0.7868584 11380923 male
1.30285 0.7284184 -0.7151481 -0.7665 -0.1062141 0.6334005 4014149 male
1.365121 0.9463082 -0.9055451 -0.6973734 -0.5753611 -0.4273523 3619647 male
1.502096 1.569061 -0.4911048 -0.7025694 0.7068599 -0.0821299 526344 male
1.619135 1.414988 -0.5109437 0.934581 -0.3017445 -0.1884375 14201519 male
1.534071 0.9367924 -0.8312118 0.9227163 0.2983627 0.2440786 2829619 male
-2.485263 0.3621511 -1.392042 0.8484324 -0.3057747 -0.4320471 5393995 male
-2.565575 -0.08564274 -1.354183 -0.7959362 -0.2670908 -0.5432754 1776930 male
-2.679634 -0.1801386 -1.373937 0.9489092 -0.06291464 -0.3092142 2039071 male
-2.499909 0.1185142 -1.272266 0.5397417 -0.2143699 0.8140791 2303531 male
-2.45789 0.4227051 -1.408903 0.8550512 -0.4187008 -0.3059043 4603195 male
-2.756784 -0.2025532 -1.410566 -0.5320535 -0.1352403 -0.8358406 1776155 male
-2.649006 0.3995845 -1.454437 -0.5143333 -0.3163114 -0.7971252 6576731 male
-2.459312 0.5781673 -1.510486 0.355094 0.005971194 -0.9348117 5920338 male
-2.512969 0.693742 -1.659086 0.001708686 -0.5675403 -0.8233439 12954273 male
-2.698113 0.1372686 -1.435963 -0.004989713 0.07526211 -0.9971515 5132374 male
-2.484267 -0.3432921 -1.343699 0.9711344 -0.1577347 -0.1789362 1974307 male
-2.505389 0.7646027 -1.703176 -0.3533174 0.0368374 -0.9347781 6709083 male
-2.679248 0.4463187 -1.330195 -0.7916474 0.222201 0.5691409 6576467 male
-2.52363 0.3775872 -1.450023 0.5320733 -0.4261625 -0.7316309 6116948 male
-2.541815 0.3030519 -1.24018 0.2364985 0.3222615 0.9166331 9077117 male
-2.541814 -0.02148015 -1.286621 -0.2482761 -0.1709667 0.953483 3223347 male
-2.710337 0.07110592 -1.293763 -0.2948445 -0.1641076 0.9413478 4540498 male
-2.363704 0.556066 -1.365172 -0.6332205 -0.7374173 -0.2350481 16770788 male
-2.52247 -0.4594851 -1.485433 0.3524816 -0.931039 -0.09446213 1315861 male
-2.424932 0.5345883 -1.397446 0.9164748 -0.3993364 -0.02459025 3354923 male
-2.504624 0.6432413 -1.557629 0.557655 -0.8297859 -0.02182761 14469307 male
-2.55093 0.1466286 -1.410552 -0.2438396 -0.04034876 -0.968976 2829107 male
-2.722303 -0.4105695 -1.466158 0.9935495 0.09076159 -0.06798619 1841948 male
-2.767753 0.3742319 -1.392351 0.6321185 -0.4736854 0.613228 10524047 male
-2.727521 -0.3472439 -1.398915 0.8851877 0.2899518 -0.3638283 2632495 male
-2.603186 0.6404645 -1.385651 0.05955771 0.6603339 0.748607 6906977 male
-2.546792 0.6031199 -1.34965 -0.3005485 0.5203919 0.7992891 8091507 male
-2.496022 0.4516412 -1.476598 0.3372082 -0.4930581 -0.8019879 7827300 male
-2.643288 0.02490894 -1.371682 0.9809521 -0.1472361 -0.1267071 2697257 male
-2.326863 0.5918872 -1.386666 0.787006 0.08572993 -0.61096 15848129 male
-2.572957 0.2128108 -1.226406 -0.0808925 -0.1738174 0.98145 3419956 male
-2.486632 0.6227936 -1.51335 0.5844325 0.1081673 -0.8042008 5656910 male
-2.468766 -0.2387188 -1.311568 0.9571329 -0.1573001 0.2432148 1973534 male
-2.355921 0.6552284 -1.410058 0.8217232 0.5698388 0.007408321 10393233 male
-2.503625 0.6273592 -1.584502 -0.04476991 -0.8380353 0.5437764 11710113 male
-2.711964 0.6680782 -1.475423 -0.5893621 0.6862279 0.4263144 8881279 male
-2.468573 0.1289246 -1.303946 0.9027376 -0.08963693 0.4207501 2170913 male
-2.50055 -0.08934044 -1.295576 0.4785263 0.1840818 0.8585609 2169889 male
-2.711627 -0.0795737 -1.436573 0.1661555 -0.4332165 -0.885842 3882047 male
-2.614136 0.629769 -1.377367 -0.03957537 0.5942444 0.8033104 7037791 male
-2.644606 0.4225735 -1.298829 -0.2765044 0.07914077 0.9577486 3748913 male
-2.722687 0.4766359 -1.381233 0.7918682 -0.277013 0.5442507 13615553 male
-2.527097 0.7869308 -1.688949 -0.5827836 0.2210484 -0.7819855 3222825 male
-2.718698 0.2501465 -1.266465 -0.7474815 0.1364914 0.6501089 8024174 male
-2.416574 0.7660546 -1.621859 0.9919261 -0.08909347 0.09025216 5919050 male
-2.69095 -0.1360537 -1.391589 0.8052181 -0.1212466 -0.580451 2698032 male
-2.690516 0.5717283 -1.509327 0.3092493 -0.4681936 -0.8277439 6840925 male
-2.728739 0.1249482 -1.429579 -0.5111275 0.07877599 -0.8558874 3289915 male
-2.724479 0.2912609 -1.285312 -0.8482976 0.1678998 0.5021963 6709084 male
-2.66562 0.5585089 -1.523643 -0.5408329 -0.7008863 -0.4650359 5591117 male
-2.603132 0.3067898 -1.243842 -0.1031842 0.3930452 0.9137115 10130578 male
-2.68503 -0.1177283 -1.387665 0.8912762 -0.2297287 -0.3909624 1645600 male
-2.470366 0.2299633 -1.366342 0.8201656 0.1750893 -0.5446764 2302758 male
-2.700183 0.2988068 -1.408887 -0.3750238 0.06054016 -0.9250364 5789264 male
-2.281514 0.5608565 -1.265915 -0.4527907 0.1539768 -0.878221 15518907 male
-2.425247 0.8195442 -1.624024 0.8913828 0.4528264 -0.01962656 4340793 male
-2.499295 0.01966196 -1.293873 0.6667457 -0.1776042 0.7238145 2301987 male
-2.584309 0.6241404 -1.538786 -0.05301648 0.1575239 -0.9860912 4670532 male
-2.650829 0.6825465 -1.464402 -0.3936849 0.9074808 0.1465975 7565161 male
-2.672215 0.1894842 -1.243956 0.009034187 -0.5591372 0.8290262 2435374 male
-2.467859 0.2085672 -1.310607 0.9580929 0.06827036 0.2782039 2699056 male
-2.731755 -0.3886435 -1.431591 0.8541751 0.4869234 -0.1824573 2961461 male
-2.767298 -0.1825107 -1.338501 -0.8177692 -0.05111019 0.5732727 2697257 male
-2.50038 0.5401921 -1.520106 0.148025 -0.1900273 -0.9705557 15258535 male
-2.582468 0.147899 -1.259297 -0.4663927 -0.4046713 0.7865871 5724511 male
-2.76393 -0.4293248 -1.376661 0.03916157 -0.9992307 -0.00210255 526600 male
-2.670691 0.6022602 -1.520136 -0.1642998 -0.9853839 -0.04499044 3684661 male
-2.468761 -0.4616486 -1.394688 -0.1228726 -0.9874023 -0.09969509 526600 male
-2.723903 -0.3150444 -1.390894 0.8779157 0.09175772 -0.4699413 2630697 male
-2.772833 -0.3841596 -1.35595 -0.8401777 0.07931001 0.5364809 3159864 male
-2.293931 0.5709906 -1.267497 -0.6980246 -0.03257299 -0.7153328 16772322 male
-2.253562 0.4457095 -1.247157 0.9395402 -0.272112 0.2078932 15125701 male
-2.424351 0.6027805 -1.370659 0.4499964 0.05004045 0.8916274 4606020 male
-2.470927 0.7747152 -1.705899 0.1943084 0.1775428 -0.9647399 10459279 male
-2.64497 0.4801097 -1.490275 -0.566111 -0.3697313 -0.7367615 5460299 male
-2.509419 0.5275648 -1.518173 0.0535388 -0.2702005 -0.9613144 16638124 male
-2.69129 -0.1279055 -1.338094 0.7552387 0.1943161 0.6259842 2500904 male
-2.516152 0.250052 -1.391413 0.4107553 0.1317899 -0.9021707 9407880 male
-2.352028 0.5674286 -1.397116 0.1844461 -0.5743186 -0.7975825 12037543 male
-2.442432 0.7857399 -1.687111 0.6666204 0.2791454 -0.6911551 6708568 male
-2.517336 -0.2377624 -1.361448 -0.3667151 -0.03336261 -0.929735 2697257 male
-2.508271 0.4578278 -1.304655 0.3779019 -0.02922683 0.9253843 9077116 male
-2.264663 0.47066 -1.274433 0.5163561 0.1357501 -0.8455464 14533299 male
-2.403709 0.5861643 -1.460501 0.3307727 -0.9384615 -0.09939602 5196359 male
-2.498903 -0.294704 -1.362609 0.163986 -0.04897607 -0.9852463 2434085 male
-2.653376 0.1335647 -1.418201 0.597404 -0.02054297 -0.8016775 3223607 male
-2.473163 -0.1217385 -1.337229 0.9779351 0.1400655 -0.1549998 1776420 male
-2.476988 -0.0003238805 -1.367482 0.9107309 -0.2922326 -0.2918383 3158840 male
-2.505722 0.7430441 -1.701585 -0.3593917 -0.1993667 -0.9116417 7431009 male
-2.529648 0.2033654 -1.235947 0.4087267 -0.07640973 0.9094527 3225149 male
-2.582931 0.7052496 -1.497969 -0.08735771 0.9909225 0.1021822 4603197 male
-2.35634 0.6308188 -1.457502 0.8366283 -0.2183519 -0.5023702 5657164 male
-2.631542 0.07539485 -1.370847 0.9403713 -0.2525457 -0.2278658 2763051 male
-2.81983 0.2935295 -1.44417 -0.8031918 0.1923676 -0.5638067 14467251 male
-2.564958 0.4082605 -1.476521 0.1376165 -0.334617 -0.9322517 7169376 male
-2.684724 -0.1041247 -1.398024 0.7921596 -0.3419884 -0.505497 2697257 male
-2.479812 -0.1521973 -1.358468 0.6869129 0.07701936 -0.7226473 2304300 male
-2.763526 -0.2251818 -1.341342 -0.7873609 -0.1467783 0.5987648 2171945 male
-2.421181 0.7900567 -1.650576 0.9255191 0.1929137 -0.3258817 3749169 male
-2.467787 -0.1621298 -1.30324 0.9362531 0.1304003 0.32623 2499622 male
-2.683887 -0.04058861 -1.33476 0.3565034 -0.1512383 0.9219722 2630697 male
-2.421908 0.5596484 -1.487986 0.5487223 -0.3262324 -0.769725 7828335 male
-2.680174 -0.1605564 -1.353205 0.9833821 0.0308673 0.1789053 2171171 male
-2.771431 -0.3595112 -1.382915 -0.9838979 0.05649594 -0.1695679 2697257 male
-2.404953 0.5977666 -1.454541 0.003549375 -0.9934455 -0.1142514 5327945 male
-2.546377 -0.2307221 -1.343197 -0.7699149 -0.09846255 -0.630505 1710362 male
-2.766291 0.3775656 -1.424378 0.849139 -0.2022038 -0.4879312 16509667 male
-2.543586 0.4729606 -1.489298 0.0969286 -0.3140534 -0.9444445 13810851 male
-2.694479 -0.2445438 -1.363666 0.973909 -0.226798 0.008007169 1710362 male
-2.66417 0.3530702 -1.276576 -0.1969531 0.5922667 0.7813 6511707 male
-2.540008 0.837227 -1.638358 -0.7033806 0.6573727 -0.2704017 5327945 male
-2.405492 0.5994008 -1.414153 -0.7287936 -0.6784172 0.09279138 7104099 male
-2.532139 0.8213261 -1.666701 -0.5914994 0.5133754 -0.6217511 5196100 male
-2.551468 0.7223123 -1.651096 -0.8363 -0.1642635 -0.5230873 14929083 male
-2.574853 -0.04621412 -1.317767 -0.8472385 -0.1473787 0.5103593 2500141 male
-2.469667 -0.1414085 -1.341278 0.9483954 0.1286155 -0.2898353 2764082 male
-2.446624 0.4562532 -1.367757 0.9326385 -0.236672 0.2723454 4604222 male
-2.591715 0.443467 -1.302899 -0.1773251 0.2257527 0.9579101 7893358 male
-2.483289 -0.02789507 -1.338448 0.9855028 -0.1442927 0.08924258 2368300 male
-2.680887 0.1734149 -1.254333 -0.04962792 -0.5618632 0.8257403 4671314 male
-2.45486 0.8466175 -1.595366 0.4983869 0.8039128 0.3245532 4406587 male
-2.546945 0.6646781 -1.611671 -0.8114781 -0.5219848 -0.262746 15390921 male
-2.723444 0.1880139 -1.420224 -0.4883028 0.2416132 -0.8385605 2961461 male
-2.610923 0.2376315 -1.432053 -0.2106032 0.03424635 -0.9769717 7103076 male
