# .PCD v0.7 - Point Cloud Data file format
VERSION 0.7
FIELDS x y z normal_x normal_y normal_z rgb label
SIZE 4 4 4 4 4 4 4 4
TYPE F F F F F F U U
COUNT 1 1 1 1 1 1 1 1
WIDTH 249
HEIGHT 1
VIEWPOINT 0 0 0 1 0 0 0
POINTS 249
DATA ascii
1.299838 0.2702229 -1.294826 0.6752381 0.6938657 0.2502075 11183290 male
1.315357 0.3094229 -1.088707 0.2670715 0.9013157 -0.341032 6777463 male
1.6669 0.3450324 -1.137215 0.3660979 0.6919318 0.6222562 526600 male
1.280115 0.192055 -1.054498 -0.3541404 -0.6761905 0.6460271 5528418 male
1.327067 0.2344197 -1.27998 0.7341151 0.6371785 -0.2346881 7368320 male
1.6947 0.3149549 -1.219707 0.8143097 -0.4545722 -0.3609207 526600 male
1.251496 0.1938199 -1.43485 -0.3512367 -0.2831543 -0.8924441 8749712 male
1.22975 0.1313957 -1.377018 -0.53509 -0.6264209 -0.5668117 9343134 male
1.219145 0.6226791 -1.090715 0.8597795 0.3265392 0.392621 10588817 male
1.632786 0.3438507 -1.137355 -0.4451471 0.7493386 0.4902405 526600 male
1.454046 0.2800774 -0.8496123 0.7967561 0.5356327 -0.2797805 526600 male
1.168984 0.6268195 -1.040239 0.3482344 0.1920171 0.9175305 15190998 male
1.342066 0.3337705 -1.361116 0.9786595 -0.1241202 0.1637672 9670043 male
1.312109 0.2724634 -1.352824 0.9487845 0.2486057 0.1949442 9670560 male
1.159461 0.1474253 -1.235916 -0.8965206 -0.2912693 0.3337858 4343122 male
1.383387 0.3199618 -0.960867 0.5359907 -0.2408406 -0.8091413 526600 male
1.504758 0.1730115 -1.283372 0.6950731 -0.295087 -0.6555891 3685446 male
1.022277 0.4337132 -1.225683 -0.720255 -0.1575413 0.6755838 12759733 male
1.528379 0.2121626 -0.6623789 -0.4691865 -0.7846361 0.4052286 920846 male
1.162809 0.4957371 -1.204512 -0.1873192 0.1171651 0.9752865 9933991 male
1.238213 0.5303051 -1.170111 0.7697519 -0.4526952 0.4500545 16372176 male
1.304392 0.2494753 -1.180275 0.5575904 0.6871167 -0.4657935 3751751 male
1.619593 0.1915524 -0.8428583 0.6564505 0.4175452 -0.6282743 526600 male
1.422909 0.5666384 -1.553942 0.7042295 0.4321075 -0.5633328 15387081 male
1.619679 0.2443556 -1.11869 -0.617703 -0.6546809 -0.4357016 526600 male
1.277623 0.4647216 -1.445817 0.06817377 0.2627045 -0.9624649 8552078 male
1.110255 0.5415179 -1.284452 -0.6483549 0.7249907 -0.2324314 13881059 male
1.148608 0.4224812 -1.194887 0.0871734 -0.1903895 0.9778305 13421281 male
1.561854 0.3036579 -1.196436 -0.266892 0.8617493 0.431459 855565 male
1.069594 0.1007027 -1.186721 0.4092413 0.9122368 0.01858871 4930881 male
1.17496 0.2187413 -1.396826 -0.6125322 -0.3501782 -0.7086463 9998752 male
1.635309 0.2224858 -0.7512305 0.4448095 -0.799241 0.4041763 526600 male
1.307147 0.3157165 -0.9353728 -0.7688166 -0.6393538 -0.01215252 526600 male
1.027489 0.4588 -1.275272 -0.7408195 0.3444268 -0.5766773 9077906 male
1.141756 0.5367814 -1.064307 -0.4062644 -0.3530635 0.8427902 15711157 male
1.382773 0.5854854 -1.382902 0.8763973 0.2843813 0.3886579 16300982 male
1.190579 0.2210635 -1.13441 -0.8796796 0.2295878 0.4164771 4474698 male
0.9733754 0.3025024 -1.375725 0.3113087 -0.190655 -0.9309875 13345956 male
1.604892 0.2688288 -1.207549 -0.6155419 -0.7344271 0.2858756 526600 male
1.25981 0.4450798 -1.452689 -0.1070848 0.1904048 -0.9758477 10196388 male
1.248081 0.4710442 -1.44174 -0.2119857 0.2565847 -0.942988 8552074 male
1.345541 0.6020737 -1.504171 -0.3795156 0.6239049 -0.683162 16305859 male
1.240361 0.5904291 -1.151232 0.9089046 0.3251057 0.2611489 13281704 male
1.195393 0.5162079 -1.393854 -0.6336914 0.3902355 -0.6679456 12630989 male
1.080937 0.6177045 -1.143137 -0.9203877 -0.2691641 -0.2836143 9735055 male
1.623717 0.2501297 -1.229066 0.1694856 -0.8819934 -0.43973 592137 male
1.329366 0.621897 -1.371293 -0.03621244 0.9373675 -0.3464547 13870753 male
1.321196 0.5588712 -1.398941 -0.6411973 -0.7141814 -0.280733 6708572 male
1.197983 0.5372362 -1.382586 -0.6507492 0.4438317 -0.6160673 11380405 male
1.342916 0.4656919 -1.375147 0.9899303 0.1292851 -0.05764836 526600 male
1.171826 0.4067084 -1.414624 -0.4520719 0.07117652 -0.8891373 12300999 male
1.666319 0.2269427 -1.045058 0.8972304 -0.3666335 0.2460839 526600 male
1.200157 0.2377731 -1.213938 -0.4003021 0.8986109 -0.179601 4869467 male
1.081491 0.4186979 -1.330156 -0.8377303 -0.2148527 -0.5020422 9276053 male
1.075224 0.4086334 -1.260366 0.9077811 -0.2132025 -0.3612178 526857 male
1.074509 0.6408769 -1.126998 -0.9964929 0.07358207 -0.03984341 723723 male
1.306077 0.3309462 -0.9907364 -0.3335981 -0.9020473 -0.273903 526600 male
1.534599 0.2614937 -0.7361078 0.5254711 0.611445 -0.5916207 526600 male
1.269952 0.6149731 -1.276579 0.1650862 0.9124485 0.374412 6644069 male
1.364681 0.1607984 -1.346864 0.3369409 0.465518 -0.8183911 6117988 male
1.187629 0.174866 -1.147547 -0.8243257 -0.1712948 0.5395786 3420989 male
1.681879 0.1332015 -0.9012853 -0.6779442 0.06354892 0.7323613 526600 male
1.699361 0.3363155 -1.202873 0.8707641 0.1197037 0.4769075 526600 male
1.250332 0.1841322 -1.429733 -0.3952491 -0.3350309 -0.8552967 10262436 male
1.270349 0.09776665 -1.180685 0.4048826 -0.779716 0.4776119 4738131 male
1.656536 0.1323166 -0.8720515 -0.1647991 -0.9863232 -0.002792411 526602 male
1.365674 0.582966 -1.326051 0.9330477 0.01163299 0.3595647 14204354 male
1.637454 0.2293919 -0.7439281 0.7186607 -0.587429 0.3720939 526600 male
1.634229 0.2400279 -1.123025 -0.1616843 -0.8988476 -0.4073465 526600 male
1.666789 0.2002652 -0.9889893 -0.1960012 0.958348 0.2077323 526600 male
1.0751 0.3938037 -1.251264 0.9500263 -0.3088881 -0.04514411 1185045 male
1.027066 0.217767 -1.307033 0.8349524 0.5235618 -0.1695212 14726841 male
1.180066 0.4948187 -1.203649 -0.1331472 0.09367858 0.986659 14076903 male
1.163795 0.710833 -1.131178 0.2502114 0.9681137 0.01225585 9275789 male
1.164655 0.5824727 -1.252285 -0.524983 0.8405676 -0.1335618 8285811 male
1.218043 0.2005824 -1.417854 -0.5242273 -0.3787037 -0.762738 12498630 male
1.670747 0.3466064 -1.143041 0.374025 0.6895538 0.620178 526600 male
1.127223 0.2558912 -1.305032 -0.8891588 0.1129666 0.4434356 4210500 male
1.071374 0.1205523 -1.198684 0.2874887 -0.05860092 -0.9559897 14674677 male
1.167914 0.5829448 -1.240071 -0.7037929 0.6698175 -0.2366853 15644328 male
1.366143 0.3555961 -0.8759179 0.04636005 0.5334999 0.8445286 526600 male
1.131328 0.209398 -1.339811 -0.8824847 -0.1887321 -0.4308144 10262181 male
0.9944849 0.3779641 -1.289427 -0.9480276 0.2377799 -0.2114335 14460827 male
1.03999 0.3652267 -1.238531 0.1653158 -0.3106663 0.9360326 16368323 male
1.34236 0.2969103 -0.887221 -0.6838123 -0.4605526 0.5659435 526600 male
1.521077 0.2833501 -1.202767 -0.3367976 0.8854387 0.3202587 2829871 male
1.093542 0.4295178 -1.252922 0.06485339 -0.9957101 0.06599504 526600 male
1.367814 0.3593134 -0.9725958 0.6621672 0.2033108 -0.7212484 526600 male
1.12186 0.6116084 -1.036244 -0.3268247 -0.005683473 0.9450679 13212564 male
1.137145 0.2192043 -1.251227 -0.8883014 0.08245143 0.4517992 4078663 male
1.258151 0.6078274 -1.251595 0.3778718 0.6588175 0.6505171 7434105 male
1.005523 0.4021938 -1.251658 -0.930439 0.09350938 0.3543151 15711161 male
1.639695 0.310977 -1.097979 -0.06416827 0.7166215 0.6945041 526600 male
1.506473 0.4940223 -1.509004 0.4699411 0.5138063 0.7177453 16573937 male
1.091114 0.4115537 -1.268118 -0.1735072 -0.981654 0.07906149 526600 male
1.662181 0.1858871 -1.024758 0.5167134 -0.8119581 -0.271535 526600 male
1.238209 0.1830346 -1.087322 -0.6069468 -0.4011956 0.6860449 5394778 male
1.60054 0.3231668 -1.193438 -0.1610329 0.8187458 0.5511114 657674 male
1.101786 0.5600517 -1.105849 -0.8994618 -0.4347648 -0.04413563 13412256 male
1.084482 0.4529139 -1.249715 0.4513045 -0.8173118 -0.3582258 526600 male
1.366807 0.09335317 -1.208314 -0.0436525 -0.5185093 0.853957 4343122 male
1.327792 0.07557571 -1.337088 0.1208644 -0.841899 -0.5259258 9279148 male
1.697095 0.3250829 -1.145315 0.6358451 0.4602046 0.619607 526600 male
1.637452 0.1879956 -1.016694 -0.6638493 0.7477075 -0.01541537 526600 male
1.038626 0.3818244 -1.231902 -0.05150688 -0.2288303 0.9721028 15717074 male
1.330258 0.3923522 -0.9073779 -0.1023695 0.6166463 0.7805561 526600 male
1.399106 0.5575281 -1.504354 0.01962492 -0.02096237 0.9995877 16238796 male
1.31117 0.4526207 -1.257105 0.4988836 -0.1846813 0.8467631 14338511 male
1.672075 0.2904387 -1.095508 0.5963307 0.4314559 0.6769309 526600 male
1.274169 0.5617438 -1.396099 -0.005375892 0.6458558 -0.7634404 9211291 male
1.172572 0.6930266 -1.088226 0.3738656 0.7909951 0.4843049 3552566 male
1.077564 0.4289485 -1.215526 0.5133061 -0.5229259 0.6804889 14275035 male
1.169415 0.6730108 -1.062071 0.3828031 0.6104966 0.6933656 4211520 male
1.216625 0.6140395 -1.077385 0.8156843 0.3218731 0.4806836 15317168 male
1.348487 0.3528247 -0.9829195 0.4256651 -0.162819 -0.8901119 526600 male
1.294372 0.3413559 -0.9772394 -0.7263992 -0.6846533 -0.05995041 526600 male
1.273333 0.2865298 -1.301799 0.5445802 0.5335483 0.6471156 9736869 male
1.133532 0.5243301 -1.340724 -0.3377432 0.7031912 -0.6256611 12499400 male
1.249337 0.1219754 -1.138804 -0.1508449 -0.754354 0.6389021 3026230 male
1.401287 0.1558429 -1.343755 0.4626523 0.1274436 -0.8773317 2764082 male
1.149233 0.6389324 -1.210133 -0.05004275 0.1862133 -0.9812341 7432812 male
1.174471 0.5539722 -1.04142 0.6242664 0.5080845 0.593415 12552326 male
1.494885 0.2486684 -1.176839 -0.5260661 0.5380155 0.6586303 3553084 male
1.32454 0.2717187 -1.403478 0.9868326 0.1291087 -0.09742865 6249063 male
-2.538913 0.3384407 -1.418397 0.8071443 -0.5860329 -0.07130063 5065029 male
-2.592822 0.04467291 -1.366426 0.2025764 -0.06168794 -0.9773217 4079942 male
-2.733061 -0.006704254 -1.382635 0.4565254 -0.02337958 -0.8894032 4343114 male
-2.581227 0.0824411 -1.237032 0.6041475 -0.2020265 0.7708381 2434085 male
-2.554808 0.3245413 -1.434646 0.6849447 -0.6887657 -0.2375977 5788496 male
-2.782862 -0.1886394 -1.369887 -0.3579935 -0.02440977 -0.9334052 2566703 male
-2.783941 0.3652237 -1.371007 -0.9926171 0.113913 0.04165822 4340793 male
-2.537809 0.4061061 -1.553123 0.2690725 -0.5601304 -0.7834883 9338747 male
-2.571127 0.6012865 -1.753591 -0.8475734 -0.1937838 -0.4940317 14205367 male
-2.709303 0.04785074 -1.337781 0.9751241 -0.05272071 -0.2152995 2566444 male
-2.554915 -0.3375945 -1.352023 0.3162557 0.1623074 -0.9346865 2302504 male
-2.563436 0.6344768 -1.7766 -0.7259727 -0.1039856 -0.6798168 13482420 male
-2.76663 0.4007615 -1.401432 -0.9498875 0.306671 0.06055641 3288362 male
-2.60135 0.3303749 -1.497684 0.2307557 -0.6366802 -0.7357923 9012607 male
-2.661443 0.3374687 -1.252466 -0.1022321 0.7304758 0.6752435 8814461 male
-2.633704 -0.09547069 -1.28245 -0.7107618 -0.1381514 0.6897333 2302507 male
-2.803425 0.003469584 -1.286497 -0.7975988 -0.2669189 0.5409166 2235940 male
-2.453694 0.482639 -1.571723 -0.04177859 -0.6561808 -0.7534465 6840928 male
-2.551446 -0.4395911 -1.398637 -0.8552426 -0.188738 -0.482637 3026222 male
-2.489391 0.4136935 -1.508816 0.7658287 -0.6387172 0.07447737 4406328 male
-2.554062 0.5079798 -1.648736 0.3091927 -0.8902462 -0.3344572 16773351 male
-2.585355 0.1237142 -1.361292 0.3763766 0.123577 -0.9181882 4144968 male
-2.653778 -0.4548628 -1.453925 0.9588977 -0.2800437 -0.04572695 2631464 male
-2.500081 0.3176826 -1.812058 0.4117212 0.5705733 0.7105855 16376023 male
-2.733406 -0.2041214 -1.347798 0.7460071 0.006838547 -0.665903 2237482 male
-2.686878 0.5759603 -1.530886 -0.2994252 0.923651 0.2391933 11314589 male
-2.616323 0.5665739 -1.481285 -0.3007747 0.8629314 0.406059 8288882 male
-2.496335 0.4906001 -1.413869 0.5695134 0.04957111 0.8204861 5921106 male
-2.735424 0.04953074 -1.384666 0.5693377 -0.03813847 -0.8212188 3686215 male
-2.369862 0.450839 -1.549333 0.8089257 0.1471475 0.5691986 9736584 male
-2.696937 0.2811986 -1.218027 -0.2152562 0.3771257 0.9008003 9735305 male
-2.64052 0.5093644 -1.6217 0.4049183 0.0960329 -0.9092959 6380376 male
-2.540256 -0.2140174 -1.301606 0.9935763 0.001980301 0.1131486 2302499 male
-2.401773 0.4701198 -1.602497 0.07556748 0.3802415 -0.9217951 6643802 male
-2.502036 0.510336 -1.709754 0.1871671 -0.8607122 0.4734375 11774106 male
-2.746739 0.4825365 -1.625382 -0.9017071 -0.4046591 0.152236 3552302 male
-2.594922 0.1933763 -1.345914 0.4239416 0.2777999 -0.8620331 3027253 male
-2.459507 0.4846725 -1.473117 0.3890546 -0.8747271 0.2889449 657418 male
-2.803505 -0.08921491 -1.339868 -0.9479332 -0.04133769 -0.3157755 2499878 male
-2.631694 0.5869094 -1.533023 -0.01051261 0.9497801 0.3127415 10654086 male
-2.64527 0.5612553 -1.478292 0.01312245 0.8455348 0.5337591 7827559 male
-2.54011 0.2872585 -1.833821 -0.394064 -0.3240222 -0.8600717 16772323 male
-2.577769 0.6643763 -1.758765 -0.8243606 0.1217885 -0.5528086 8090995 male
-2.731541 0.2660013 -1.217643 -0.1005566 0.251422 0.9626399 10985372 male
-2.453439 0.6788813 -1.696619 0.9405037 0.2665574 0.2107139 3881270 male
-2.745822 -0.07189982 -1.390573 0.2859429 -0.1852559 -0.9401687 4145994 male
-2.640775 0.4676093 -1.694642 0.6880087 0.533598 -0.491851 8550515 male
-2.850164 0.126277 -1.316753 -0.9912218 -0.1146954 -0.06576097 1972767 male
-2.711407 0.3147665 -1.240914 -0.1414392 0.6000862 0.7873319 9734531 male
-2.74323 0.4191709 -1.515644 -0.8183502 -0.276635 -0.5037621 3946035 male
-2.653082 0.2772774 -1.207647 0.01785377 0.3756353 0.9265957 9339773 male
-2.722264 0.008775068 -1.373136 0.746537 0.004460048 -0.6653292 3487807 male
-2.556843 0.2131845 -1.264839 0.9494144 0.0931347 0.2998974 2303014 male
-2.774777 0.2891154 -1.406554 -0.3650536 -0.001773663 -0.930985 4472892 male
-2.342988 0.3070701 -1.59157 -0.8773527 -0.4797964 0.006910145 15651533 male
-2.460998 0.6995998 -1.715861 0.828912 0.5542934 -0.07525945 3354670 male
-2.61675 -0.02927465 -1.253123 0.02351448 -0.2365968 0.9713234 2895667 male
-2.586377 0.5904043 -1.576316 -0.0572949 0.9822699 0.1785022 9078914 male
-2.688748 0.5810683 -1.602249 -0.4032875 0.8131 -0.4197948 4933187 male
-2.821511 0.1278758 -1.254861 -0.6786551 -0.2865891 0.6762354 3355963 male
-2.558417 0.2005906 -1.257371 0.9273393 0.07961202 0.3656556 2699056 male
-2.761925 -0.398759 -1.336876 0.9370635 0.1714839 0.3041475 1777186 male
-2.813584 -0.1928065 -1.323643 -0.9932203 -0.09374028 -0.0687483 1973534 male
-2.789433 0.3526429 -1.340796 -0.7083266 0.7058731 0.004094243 4405562 male
-2.669041 -0.01306176 -1.301555 -0.9882145 -0.1510037 -0.02510542 2170657 male
-2.810546 -0.4579166 -1.313679 -0.3999713 -0.8555303 0.3287719 7631476 male
-2.680666 0.5075411 -1.704374 0.270155 0.4689578 -0.8408895 5722700 male
-2.554254 -0.4184061 -1.387519 -0.7630795 0.327697 -0.5570679 2631464 male
-2.779702 -0.3792459 -1.303406 -0.6290448 -0.1764294 0.7570837 3553340 male
-2.815005 -0.4411649 -1.350484 -0.9847593 0.05253754 0.165799 2171169 male
-2.322613 0.3221052 -1.594279 -0.7977296 0.5353795 -0.2774829 16045770 male
-2.317924 0.3270832 -1.780598 -0.9479004 0.06721439 0.311396 14863814 male
-2.476835 0.4639377 -1.556122 0.4144747 -0.45783 -0.786513 6250327 male
-2.524031 0.6873474 -1.788184 -0.1547599 0.5244424 -0.8372632 15590106 male
-2.649222 0.4027795 -1.584481 0.09682427 -0.6471152 -0.756219 7433830 male
-2.79364 0.3456413 -1.356711 -0.7740366 0.6045657 -0.1880629 3814706 male
-2.804845 -0.233727 -1.338632 -0.9205353 -0.2204248 -0.3225335 1908256 male
-2.566689 0.2416296 -1.324576 0.7434494 0.08435741 -0.6634508 6974570 male
-2.333123 0.4021493 -1.616113 0.4506257 0.77908 -0.4358565 16636876 male
-2.563817 0.5909495 -1.590834 -0.00761421 0.9104046 0.4136492 15320507 male
-2.552416 -0.2495781 -1.342724 0.6349018 -0.05541032 -0.7706034 2302505 male
-2.636509 0.3992752 -1.305275 -0.04539675 0.4674118 0.8828735 11181211 male
-2.255657 0.2953847 -1.652076 0.9962765 -0.08085099 -0.02994454 16638690 male
-2.393381 0.5151861 -1.562002 0.8407177 0.5314108 -0.1039062 10261899 male
-2.542993 -0.2762435 -1.317131 0.9932107 -0.06382991 -0.09725481 2499624 male
-2.707912 0.06399314 -1.34175 0.9565281 -0.06131874 -0.2851213 2828590 male
-2.564124 -0.1386967 -1.273594 0.718329 0.2862925 0.6340665 2170403 male
-2.580972 -0.05407313 -1.359432 0.6662556 0.07403676 -0.7420393 3554629 male
-2.49217 0.6596976 -1.795606 0.3226076 0.1986904 -0.9254441 9932935 male
-2.615802 0.357071 -1.273101 0.1952768 0.7820624 0.5918154 7367271 male
-2.712029 -0.4666228 -1.433918 -0.7508882 -0.6604006 -0.006173432 264457 male
-2.391343 0.5005608 -1.584655 0.6954505 0.4566912 -0.554781 11575697 male
-2.708476 -0.0299315 -1.327095 0.9975017 -0.03735628 -0.05995941 2368805 male
-2.425082 0.3746324 -1.853652 -0.7393475 0.4293633 -0.5186644 14269101 male
-2.805758 0.3219192 -1.371198 -0.792492 0.4576784 -0.4030967 2697511 male
-2.728961 0.00755238 -1.379048 0.5952318 -0.01674793 -0.8033797 3948873 male
-2.551854 0.02543224 -1.304793 0.967856 -0.2001028 0.1523618 2434600 male
-2.779816 -0.1473533 -1.276061 -0.2897321 0.1929119 0.937465 2763824 male
-2.451248 0.648523 -1.748369 0.9562119 0.03747273 -0.2902668 4999492 male
-2.586614 -0.1330787 -1.262783 0.2222401 0.2956552 0.9290842 2697005 male
-2.761093 0.02030872 -1.258805 0.06675199 -0.2444799 0.9673541 3749945 male
-2.447664 0.5553504 -1.534509 0.591949 0.7920207 -0.1493311 7038561 male
-2.786479 -0.2042619 -1.276346 -0.4504353 -0.1526653 0.8796599 3224117 male
-2.781183 -0.3899771 -1.376906 -0.5544297 0.4619237 -0.6922677 2368804 male
-2.419887 0.5238142 -1.502651 0.6606982 0.4584474 0.5943939 5459531 male
-2.611511 -0.131756 -1.346081 -0.4205558 -0.3007161 -0.8559806 2170913 male
-2.607531 0.28133 -1.708209 0.3565488 -0.5138851 0.7802534 5918026 male
-2.594345 0.4055871 -1.552933 0.1876427 -0.7276351 -0.6598011 16772029 male
-2.722999 -0.02955224 -1.37527 0.7356647 -0.03288075 -0.6765476 3158072 male
-2.68133 0.4234343 -1.338188 -0.04670104 0.5718298 0.819042 10063753 male
-2.588236 0.6922463 -1.682783 -0.8967603 0.3602934 0.2569238 4472124 male
-2.424767 0.5264595 -1.587838 0.3010146 0.5405533 -0.785616 6774358 male
-2.585809 0.6991967 -1.718333 -0.8662044 0.4585359 -0.1985824 4998462 male
-2.570069 0.6114713 -1.759021 -0.8426516 -0.1948037 -0.5019863 12363936 male
-2.638703 -0.03471221 -1.262233 -0.5099131 -0.2747678 0.8151635 3093047 male
-2.551251 -0.1597283 -1.283654 0.89437 0.2173916 0.3909518 2303016 male
-2.52428 0.3694818 -1.398989 0.8923825 -0.3052445 0.3323849 3355441 male
-2.655597 0.4374956 -1.345009 -0.3711645 0.6114489 0.6988328 8551031 male
-2.546311 0.09198128 -1.28618 0.9757017 -0.05380097 0.2123951 2302501 male
-2.831814 0.1690788 -1.256776 -0.8578206 -0.1510138 0.4912625 3814714 male
-2.53282 0.6877036 -1.631305 -0.1466343 0.440003 0.8859435 6313295 male
-2.549096 0.5502029 -1.749151 -0.6415047 -0.5126103 -0.5707036 16574427 male
-2.705413 0.1480277 -1.341359 0.89568 -0.009615868 -0.4445956 2894639 male
-2.695705 0.2524171 -1.414902 -0.1561994 -0.4469757 -0.8808035 7366760 male
-2.768826 -0.4585148 -1.385033 0.4493632 -0.8933277 0.006192595 592137 male
