# .PCD v0.7 - Point Cloud Data file format
VERSION 0.7
FIELDS x y z normal_x normal_y normal_z rgb label
SIZE 4 4 4 4 4 4 4 4
TYPE F F F F F F U U
COUNT 1 1 1 1 1 1 1 1
WIDTH 250
HEIGHT 1
VIEWPOINT 0 0 0 1 0 0 0
POINTS 250
DATA ascii
1.302215 0.2436599 -1.247859 0.7320515 0.6806866 -0.02768242 7370626 male
1.298349 0.3078472 -1.081103 0.2531067 0.9087409 -0.3318538 6777463 male
1.638303 0.1714182 -1.03541 -0.5607188 -0.6255823 -0.54244 526600 male
1.264781 0.1896896 -1.047877 -0.3398415 -0.6883786 0.6408141 5528418 male
1.306092 0.2241929 -1.254969 0.8935759 0.4474888 0.03571951 6974329 male
1.662103 0.3133675 -1.229221 0.7985065 -0.3271463 -0.5053341 526600 male
1.17492 0.2245888 -1.407613 -0.6062014 -0.4175976 -0.6768546 12367305 male
1.268117 0.1216131 -1.39087 0.005855203 -0.6577313 -0.7532299 9344421 male
1.196313 0.6224578 -1.080906 0.8576751 0.3459703 0.3803917 10588817 male
1.614602 0.313012 -1.107839 -0.4065755 0.6947089 0.5933598 526600 male
1.440664 0.2785843 -0.8407914 0.7850015 0.5484012 -0.2881469 526600 male
1.14669 0.6258385 -1.029843 0.3551416 0.2033389 0.9124296 15190998 male
1.32065 0.3383269 -1.348566 0.9769037 -0.1142995 0.1805398 9604251 male
1.322435 0.2403482 -1.385291 0.6631746 0.6419517 -0.3848344 7958649 male
1.132693 0.1538678 -1.252494 -0.879177 -0.366637 0.3043435 12304074 male
1.347763 0.321512 -0.9645904 0.3246712 -0.3120909 -0.8928537 526600 male
1.496225 0.1837635 -1.276394 0.7150608 -0.2542661 -0.6511811 3158841 male
1.001179 0.4286045 -1.215075 -0.7073557 -0.1695591 0.6862197 12759733 male
1.547029 0.2058018 -0.6722766 0.4288353 -0.8497863 0.3065346 526600 male
1.301032 0.2709456 -1.416025 0.9350889 0.05057972 -0.3507857 7168877 male
1.220667 0.5421553 -1.159854 0.8254068 -0.2564692 0.5029185 14923702 male
1.287171 0.2491871 -1.173131 0.5450645 0.6993081 -0.4624639 3751751 male
1.644669 0.1577162 -0.8752846 0.7759187 0.1037765 -0.6222384 526600 male
1.377716 0.5896235 -1.55725 0.531181 0.3563243 -0.768687 13805998 male
1.638396 0.2486213 -1.147012 0.1146577 -0.9252661 -0.3615748 526600 male
1.218418 0.3823238 -1.453027 -0.2265329 0.01291637 -0.9739178 7893632 male
1.080575 0.5317368 -1.279234 -0.6653302 0.6958706 -0.2703697 16117245 male
1.124675 0.4597054 -1.185768 0.06689379 0.1684159 0.9834435 11380405 male
1.518941 0.2862757 -1.221524 -0.04896342 0.9815502 -0.1848289 9671076 male
1.041409 0.09511956 -1.192008 0.4074321 0.8950896 0.1811454 1117712 male
1.153796 0.2190439 -1.387957 -0.6248304 -0.3504805 -0.697675 9998752 male
1.578202 0.2421496 -0.7079372 0.8089321 0.02106806 -0.5875245 526600 male
1.292102 0.3106586 -0.9269037 -0.7563467 -0.6541585 -0.004038692 526600 male
1.022744 0.4579964 -1.275194 -0.2400458 0.3323026 -0.9121146 8618127 male
1.132397 0.5208886 -1.053661 -0.5933754 -0.3841493 0.7073435 11834763 male
1.349563 0.6067029 -1.379961 0.743154 0.6182905 0.2558104 15642276 male
1.174311 0.2189509 -1.12641 -0.8773689 0.2150345 0.4289334 4474698 male
0.9603327 0.3113801 -1.353942 0.3169092 -0.04299723 -0.9474809 13214110 male
1.565994 0.2294271 -1.211726 -0.02211118 -0.995109 0.09627745 592138 male
1.203682 0.3601554 -1.450836 -0.3680775 -0.05886965 -0.9279296 9143699 male
1.250353 0.4859957 -1.430119 0.02441865 0.2999366 -0.9536467 8881044 male
1.327759 0.631987 -1.542458 0.280892 0.7304857 -0.6224871 12817299 male
1.217459 0.5904605 -1.141499 0.9043904 0.3465323 0.2489847 13281704 male
1.175444 0.5058265 -1.394892 -0.604529 0.35596 -0.7126269 11710402 male
1.057639 0.6144435 -1.131664 -0.9180492 -0.2890808 -0.2713262 9735055 male
1.543126 0.2218844 -1.253715 0.711208 -0.1754443 -0.6807367 592137 male
1.289536 0.6194025 -1.372086 -0.4049545 0.7864369 -0.4663999 15710130 male
1.273204 0.5764747 -1.368392 -0.7231897 -0.5327528 -0.4395124 10850446 male
1.147022 0.540524 -1.330581 -0.627776 0.586988 -0.5112165 15328506 male
1.319932 0.4665135 -1.362737 0.9843668 0.1692918 -0.04860169 526600 male
1.148718 0.4065434 -1.404821 -0.4699934 0.06758959 -0.8800783 12300999 male
1.650245 0.2082971 -1.04689 0.637884 -0.7633277 -0.1021511 526600 male
1.182941 0.2367887 -1.205863 -0.4094599 0.8970752 -0.1661282 4869467 male
1.045197 0.4537781 -1.287887 -0.8489046 0.01921956 -0.5281966 12236740 male
1.056781 0.4172914 -1.248472 0.8804684 -0.2019882 -0.4289244 526344 male
1.050932 0.6375629 -1.115556 -0.9981732 0.05359382 -0.02788767 723723 male
1.285053 0.302218 -0.9886329 -0.442156 -0.8730004 0.2058354 526600 male
1.514215 0.2528388 -0.7318569 0.4260278 0.4407531 -0.7900866 526600 male
1.287036 0.5439456 -1.245284 0.3704306 0.1650048 0.9140867 12498118 male
1.391361 0.1368011 -1.341265 0.5593603 -0.07132871 -0.82585 4474443 male
1.171655 0.1728658 -1.140048 -0.8154054 -0.1864139 0.5480547 3420989 male
1.678612 0.1238809 -0.9344098 -0.5599101 0.3369716 0.7569352 526600 male
1.600957 0.3272909 -1.207711 0.1014195 0.9444742 0.312542 5396319 male
1.23131 0.201532 -1.430152 -0.3083831 -0.3075292 -0.9001808 7368056 male
1.25478 0.09727972 -1.174788 0.4172573 -0.7815882 0.4636984 4738131 male
1.636441 0.143104 -0.8673087 -0.2473486 -0.9624272 0.1120384 526602 male
1.336805 0.5736441 -1.317849 0.8467218 -0.3282017 0.4187431 16248049 male
1.615337 0.2287952 -0.733039 0.413965 0.6235228 -0.6632136 526600 male
1.60908 0.2475799 -1.13053 -0.536034 -0.7246337 -0.4330976 526600 male
1.672003 0.1971229 -0.9870928 0.09516568 0.9285643 0.3587644 526600 male
1.053014 0.3865852 -1.242226 0.9509356 -0.3074753 -0.03435707 4079427 male
1.002103 0.2182 -1.307891 0.8542607 0.4624553 -0.2374313 12101816 male
1.111569 0.5210479 -1.204901 -0.2750629 0.07873397 0.9581969 12103103 male
1.138733 0.709284 -1.121122 0.2309881 0.9729457 0.004597165 9275789 male
1.14208 0.5811594 -1.248506 -0.5006706 0.8553534 -0.1330392 14604266 male
1.261488 0.1909485 -1.432854 -0.03827292 -0.2201629 -0.974712 5591901 male
1.655245 0.3585632 -1.165352 0.2465692 0.7698554 0.5886649 526600 male
1.096015 0.2461009 -1.324668 -0.9283856 -0.3126846 0.2008195 10329253 male
1.048299 0.1115661 -1.204806 0.3455247 0.05989581 -0.9364961 15133430 male
1.144251 0.5812041 -1.229517 -0.7221776 0.6529455 -0.2283016 15644328 male
1.350751 0.3519963 -0.8679395 0.04179356 0.5387543 0.8414255 526600 male
1.147953 0.1281748 -1.240309 -0.8340129 -0.4987502 0.2359464 3355708 male
0.9804747 0.3766638 -1.288643 -0.7291735 0.2933092 -0.6182845 14328473 male
1.019164 0.3604205 -1.228797 0.1839128 -0.3183615 0.929958 16368323 male
1.32804 0.2928013 -0.8787935 -0.6709789 -0.4707204 0.5728959 526600 male
1.623127 0.3458438 -1.139585 -0.3112656 0.7624862 0.5672113 526600 male
1.290368 0.1316133 -1.220995 0.9895843 0.09491488 -0.1082316 526600 male
1.35801 0.3480395 -0.9610595 0.6437137 0.199661 -0.7387613 526600 male
1.099945 0.6096896 -1.025228 -0.3155857 -0.007789324 0.9488652 13212564 male
1.128335 0.2113726 -1.226641 -0.8655125 0.08833146 0.4930373 3224633 male
1.24024 0.6006323 -1.243616 0.4821501 0.5066288 0.7147436 10328485 male
0.9842075 0.3972354 -1.241029 -0.9249527 0.08287929 0.3709361 15711161 male
1.512435 0.2856103 -1.217278 -0.1370928 0.9895958 -0.04365452 2171172 male
1.452145 0.5020254 -1.502914 -0.8815409 0.384059 0.274562 12755884 male
1.033939 0.4682864 -1.273423 -0.7175282 0.1072951 -0.688216 6315112 male
1.650061 0.3142083 -1.114108 0.3931227 0.5949426 0.701069 526600 male
1.222667 0.1807186 -1.080429 -0.5952875 -0.416919 0.6868852 5394778 male
1.678369 0.349971 -1.203323 0.4581502 0.4324999 0.7765578 526600 male
1.080701 0.5569009 -1.086491 -0.8844706 -0.4565465 0.09631771 15120820 male
1.063896 0.4266326 -1.253653 -0.02811754 -0.9966298 -0.07706049 526600 male
1.36989 0.1275327 -1.187837 -0.2346594 -0.2825219 0.9301164 2697257 male
1.31092 0.09898251 -1.357198 0.237893 -0.671239 -0.7020293 4475476 male
1.698112 0.3056153 -1.194175 0.8879163 -0.4527084 -0.08160758 526600 male
1.641004 0.162716 -1.013481 -0.4564914 0.8796256 0.1336953 526600 male
1.017788 0.3769033 -1.222054 -0.03263885 -0.2384174 0.9706142 15717074 male
1.325973 0.3872783 -0.8960286 0.09802327 0.7025868 0.7048143 526600 male
1.332705 0.6334799 -1.543512 0.3991873 0.765117 -0.5052181 11962501 male
1.304365 0.4517614 -1.264496 0.7135839 -0.165883 0.6806474 11377829 male
1.656292 0.2595575 -1.077953 0.8813962 0.0334415 0.4711927 526600 male
1.250049 0.579806 -1.368686 -0.05180198 0.7624562 -0.6449628 9736092 male
1.148793 0.6921782 -1.079203 0.3688702 0.8032522 0.4676757 3618359 male
1.05675 0.4241535 -1.205917 0.5288286 -0.5249698 0.6668937 14275035 male
1.149557 0.682357 -1.066348 0.4100378 0.7198212 0.560113 3289650 male
1.194132 0.6138343 -1.06751 0.8146414 0.3406092 0.469409 15317168 male
1.282684 0.252717 -1.007325 -0.3762825 -0.7596346 0.5304403 526350 male
1.273136 0.3428872 -0.9394369 -0.9097005 -0.398354 0.1172993 526600 male
1.259335 0.283024 -1.304322 0.5857121 0.1234234 0.8010666 11381438 male
1.113267 0.5271369 -1.327097 -0.3260365 0.7253031 -0.6063297 14210529 male
1.239304 0.1175632 -1.136859 -0.06669743 -0.7880767 0.6119531 5395034 male
1.334027 0.1780066 -1.324413 -0.08196053 0.7182284 -0.6909633 10263985 male
1.12468 0.6367154 -1.199553 -0.06516525 0.180171 -0.9814743 7432812 male
1.160211 0.5522003 -1.039243 0.7092471 0.2138298 0.6717479 13078414 male
1.514436 0.2683149 -1.173678 -0.5010607 0.4892057 0.7138739 4737865 male
1.302977 0.2803955 -1.38982 0.9909448 0.1290753 -0.03698492 9538457 male
-2.544639 0.3322808 -1.457637 0.6834968 -0.6969979 -0.2168551 5197383 male
-2.582408 0.05034493 -1.358921 0.4274546 -0.07804621 -0.9006617 3685185 male
-2.743282 -0.3310663 -1.305118 0.9977297 -0.06447896 0.01945233 2302243 male
-2.587044 0.09240387 -1.23047 0.5867111 -0.2011162 0.784425 2565671 male
-2.595115 0.275558 -1.381229 0.6905804 -0.5890707 -0.4196364 6775135 male
-2.810548 -0.1276143 -1.28767 -0.8863698 0.1627161 0.4334423 2565415 male
-2.817403 0.296132 -1.290315 -0.9093306 0.2832352 0.3047882 5920594 male
-2.539992 0.4141978 -1.570292 0.2702982 -0.5031397 -0.8208469 16772013 male
-2.543978 0.5667107 -1.775116 -0.5209075 -0.2437835 -0.8180618 15586758 male
-2.743458 0.07169922 -1.380131 0.5438976 -0.002099978 -0.8391491 3554116 male
-2.560886 -0.3557011 -1.35676 -0.5483925 0.2826769 -0.7869941 1776929 male
-2.540275 0.6167278 -1.798471 -0.5764954 -0.04285943 -0.8159757 6575441 male
-2.767902 0.3835064 -1.448952 -0.9780401 -0.02311847 -0.2071317 3486256 male
-2.656161 0.2385208 -1.408633 0.3254925 -0.5108726 -0.7956532 8682615 male
-2.6317 0.3138267 -1.230168 0.2061436 0.5537465 0.806765 9077117 male
-2.637879 -0.1679145 -1.293563 -0.9966877 0.02046868 0.07870919 2170145 male
-2.815483 0.009831286 -1.290087 -0.8850539 -0.2777078 0.373575 2170917 male
-2.430384 0.4886489 -1.603559 0.01547888 -0.1366787 -0.9904947 4735551 male
-2.505631 -0.4585471 -1.388277 -0.1132548 -0.9913632 -0.066124 526600 male
-2.456511 0.4713164 -1.587123 -0.02382693 -0.4143465 -0.9098074 7761256 male
-2.553239 0.4903754 -1.660469 0.05620237 -0.9352732 -0.3494357 16773352 male
-2.638416 0.1274137 -1.357474 -0.267597 0.02827919 -0.963116 2829363 male
-2.68813 -0.4495164 -1.429932 0.9818091 0.1892233 -0.01567113 1776155 male
-2.49754 0.3198942 -1.833117 0.0541365 0.841107 0.5381527 16771550 male
-2.756154 -0.2088044 -1.35443 0.5118505 0.004237687 -0.8590643 2895156 male
-2.637217 0.5807198 -1.56048 -0.01654325 0.983351 0.1809619 12433329 male
-2.58518 0.5405129 -1.439944 -0.2893353 0.7528663 0.5911663 10328206 male
-2.501135 0.5039955 -1.422582 0.365111 0.2650343 0.892441 8156787 male
-2.723915 -0.1025542 -1.316854 0.966959 -0.2293719 -0.1112609 1842465 male
-2.375935 0.411663 -1.55191 0.5198995 -0.2379077 0.8204296 7235685 male
-2.693212 0.2953014 -1.221362 -0.1875579 0.497361 0.8470268 9668738 male
-2.533524 0.4969739 -1.631558 0.7027018 -0.697633 -0.1397081 14798534 male
-2.543764 -0.2096045 -1.289145 0.9615304 0.01686808 0.2741805 1842977 male
-2.391591 0.4528493 -1.612205 0.1985032 0.466706 -0.8618481 8815483 male
-2.471568 0.4914747 -1.727108 0.7044342 -0.6650485 0.2479579 11510936 male
-2.719465 0.4615393 -1.690406 -0.8839691 -0.1838938 -0.4298627 9670027 male
-2.555109 0.1673905 -1.288905 0.9960248 0.08536212 -0.02545935 3289909 male
-2.442546 0.4643734 -1.51603 -0.278885 -0.9018897 0.329876 460039 male
-2.785414 -0.05441164 -1.368664 -0.6563529 -0.05846559 -0.7521854 3224633 male
-2.664732 0.5768508 -1.558353 -0.2036691 0.9624239 0.1796086 13354171 male
-2.638286 0.5582994 -1.500484 0.04042444 0.8894563 0.4552288 7695977 male
-2.543654 0.2772853 -1.842663 -0.4392028 -0.2113003 -0.8731858 16774121 male
-2.556256 0.6521409 -1.781476 -0.7031863 0.2745684 -0.6558518 3222825 male
-2.761506 0.291129 -1.22926 -0.2442067 0.4733028 0.8463733 9076858 male
-2.442975 0.655592 -1.707231 0.9376449 0.2671033 0.222437 3881270 male
-2.811382 -0.1057865 -1.319162 -0.9785231 0.04035906 -0.2021483 2170913 male
-2.612463 0.4360664 -1.705813 0.8275793 0.5468284 -0.1268522 6840925 male
-2.738596 0.4680359 -1.589204 -0.388408 -0.9180073 0.08001071 723722 male
-2.709926 0.3346598 -1.254836 -0.1039644 0.7231089 0.6828654 8682876 male
-2.72166 0.4167306 -1.555229 -0.7308568 -0.3425775 -0.5903296 4406843 male
-2.685368 0.3240863 -1.241778 -0.1260336 0.6757111 0.7263128 10260878 male
-2.727375 -0.2579989 -1.312183 0.9876163 -0.09452964 -0.1252129 2038559 male
-2.562057 0.2143723 -1.262304 0.9513491 0.09717981 0.2923889 2303014 male
-2.81967 0.3067253 -1.364405 -0.8915863 0.3045557 -0.3351416 3684919 male
-2.31671 0.3038695 -1.607162 -0.796215 0.5845912 -0.1558685 16640476 male
-2.450151 0.676023 -1.72692 0.8313743 0.5512698 -0.07013214 3354670 male
-2.637719 -0.093773 -1.280709 -0.6982647 -0.1758055 0.6939157 2302507 male
-2.548122 0.5848036 -1.544797 0.04244035 0.999091 0.003999962 11446173 male
-2.683909 0.5641934 -1.627569 -0.2653524 0.7635775 -0.5886745 6840666 male
-2.846963 0.1859968 -1.274488 -0.9724272 -0.009133349 0.2330286 2960433 male
-2.563535 0.2020116 -1.254725 0.9298435 0.0849411 0.3580172 2699056 male
-2.770224 -0.4082613 -1.338183 0.9433547 0.2477161 0.2207241 2039329 male
-2.818138 -0.1843755 -1.315154 -0.9894938 -0.05408147 -0.1340797 1908769 male
-2.813733 0.3202898 -1.308989 -0.8807694 0.3919328 0.2657712 6511962 male
-2.672251 -0.01217694 -1.297757 -0.985981 -0.166094 -0.01595515 2170657 male
-2.827394 -0.4577293 -1.34405 -0.9139894 -0.3259675 0.2415967 2697257 male
-2.678124 0.4960823 -1.71868 0.132274 0.4532782 -0.8815002 5985874 male
-2.552449 -0.4100665 -1.372472 -0.8855113 0.1565914 -0.4374348 2303014 male
-2.758565 -0.2829833 -1.350232 0.2450169 -0.0414698 -0.9686316 2169889 male
-2.811842 -0.425716 -1.319293 -0.9271832 -0.100729 0.3608121 2697776 male
-2.334503 0.316945 -1.610064 -0.7093268 0.4439383 -0.5475168 16375762 male
-2.28903 0.3284659 -1.755332 -0.2641106 0.9175924 0.2971023 16509403 male
-2.481904 0.4605365 -1.575583 0.1279466 -0.3079072 -0.9427741 5526347 male
-2.512033 0.6627647 -1.800125 -0.1391552 0.5115971 -0.8478823 15590106 male
-2.671611 0.3946845 -1.58917 -0.2023063 -0.688305 -0.696641 6182995 male
-2.785396 0.3595383 -1.365336 -0.9614904 0.2745638 0.01230204 4078646 male
-2.795367 -0.2311038 -1.349504 -0.6461288 -0.1821709 -0.7411692 2039327 male
-2.6086 0.2269791 -1.344114 0.4646625 0.06006085 -0.8834487 1775894 male
-2.338565 0.4040736 -1.603823 0.8552532 0.514874 0.05871055 16770264 male
-2.556415 0.5760758 -1.594767 0.03143913 0.9708801 0.2374941 5262149 male
-2.541277 -0.2621443 -1.31547 0.9933719 -0.03630905 -0.10906 2565418 male
-2.583191 0.4308475 -1.352512 0.3302908 0.371324 0.8677711 9077116 male
-2.268657 0.3121457 -1.658754 0.5656121 0.8230526 0.05164775 14993078 male
-2.401386 0.4995144 -1.52637 0.7189161 0.415414 0.5573071 10853012 male
-2.543617 -0.2613379 -1.294837 0.9518782 -0.07563821 0.2969965 1972766 male
-2.725345 0.07314202 -1.361351 0.8099779 0.0006057083 -0.5864604 2895150 male
-2.574524 -0.1285882 -1.267604 0.5651058 0.3204482 0.7602425 2303011 male
-2.622923 -0.08309348 -1.354414 -0.5187136 -0.2931365 -0.8031235 2500905 male
-2.47969 0.6526447 -1.801688 0.3824047 0.4184048 -0.8238351 7168860 male
-2.623277 0.222725 -1.198746 0.4478959 0.09095744 0.8894473 4278606 male
-2.589743 0.577022 -1.604061 -0.06186838 0.97233 0.2252704 2894375 male
-2.398567 0.4782476 -1.603954 0.3948678 0.2523406 -0.8834047 6775388 male
-2.71346 -0.001999355 -1.331919 0.9867171 -0.001989156 -0.1624371 2369064 male
-2.425508 0.3304645 -1.900721 -0.7496929 0.07878343 -0.6570799 14466739 male
-2.801524 0.3443133 -1.348864 -0.7492944 0.6470423 -0.1410474 4472636 male
-2.738265 -0.316832 -1.307429 0.9975656 -0.06973206 -0.0007798076 1776669 male
-2.554177 0.04047662 -1.298049 0.9698423 -0.1707785 0.1738994 2565671 male
-2.806177 -0.201679 -1.341917 -0.8032071 -0.09690755 -0.5877649 1973793 male
-2.437498 0.6196852 -1.742944 0.9963295 -0.003831137 -0.08551764 4867394 male
-2.597166 -0.0979763 -1.266998 0.2343473 0.188252 0.9537519 2169889 male
-2.720155 0.06086468 -1.26895 0.8387424 -0.1840973 0.5124644 2171425 male
-2.445767 0.5420304 -1.543042 0.5866615 0.7908787 -0.1741819 6972767 male
-2.808687 -0.2406459 -1.308862 -0.9665391 -0.2536193 0.03846741 1908256 male
-2.800294 -0.3962567 -1.34886 -0.9368331 -0.01951733 -0.3492322 856084 male
-2.397139 0.5050586 -1.544032 0.8036062 0.5322945 0.266233 10131602 male
-2.629107 -0.1835959 -1.321512 -0.7647365 0.005992942 -0.6443156 1841436 male
-2.544176 0.308172 -1.806323 -0.01255523 0.9708236 0.239466 16768206 male
-2.56352 0.4221062 -1.580961 0.1674966 -0.565284 -0.8077123 11709350 male
-2.756099 -0.3630998 -1.320943 0.926402 0.2639343 0.2685486 1841948 male
-2.723634 0.4133384 -1.33884 -0.34073 0.4667666 0.816108 3748913 male
-2.577942 0.6695212 -1.695887 -0.900048 0.3666018 0.2356204 4472124 male
-2.412488 0.493324 -1.605172 0.2658538 0.1565441 -0.9512181 6314582 male
-2.568039 0.6751707 -1.749091 -0.7701095 0.4801367 -0.4200003 5196100 male
-2.564534 0.5942386 -1.761502 -0.8898536 -0.1867006 -0.4162979 7168860 male
-2.643955 -0.05755966 -1.272318 -0.6027304 -0.2814645 0.7466552 2500652 male
-2.613281 -0.1564567 -1.256846 -0.4329993 0.1113775 0.8944869 3026227 male
-2.541415 0.3435956 -1.385655 0.894654 -0.3450518 0.2837847 3354667 male
-2.639479 0.4699615 -1.389478 -0.3611385 0.6657007 0.6530099 9406339 male
-2.564166 0.09722811 -1.253474 0.8359406 -0.1342555 0.5321457 2434086 male
-2.834192 0.2503228 -1.295969 -0.9623667 0.2212239 0.1578308 5327946 male
-2.52338 0.6657257 -1.643466 -0.1606421 0.4550349 0.8758639 6313295 male
-2.555585 0.5263666 -1.725402 -0.8413326 -0.5317128 -0.09716499 13549237 male
-2.791199 0.1290443 -1.389452 -0.1942365 0.05299872 -0.9795221 3947841 male
-2.748179 0.2356114 -1.381336 -0.1211622 -0.1710947 -0.9777763 7695208 male
-2.778286 -0.4446403 -1.323807 0.9932005 -0.07484841 0.0891664 1315604 male
-2.631381 0.2832692 -1.757015 -0.6992117 -0.4868756 -0.5235031 16635339 male
