# .PCD v0.7 - Point Cloud Data file format
VERSION 0.7
FIELDS x y z normal_x normal_y normal_z rgb label
SIZE 4 4 4 4 4 4 4 4
TYPE F F F F F F U U
COUNT 1 1 1 1 1 1 1 1
WIDTH 250
HEIGHT 1
VIEWPOINT 0 0 0 1 0 0 0
POINTS 250
DATA ascii
1.315574 0.2301697 -1.2526 0.8863093 0.4277707 0.1773921 4804698 male
1.307095 0.3091355 -1.085346 0.2611893 0.9048404 -0.3362204 6777463 male
1.636302 0.1913112 -1.050569 0.06002748 -0.9036368 -0.4240723 526600 male
1.272552 0.1913962 -1.051704 -0.3482206 -0.682064 0.6430638 5528418 male
1.310773 0.2287781 -1.272343 0.7640166 0.595065 -0.2493517 7304063 male
1.694187 0.3142644 -1.226009 0.7190266 -0.5682319 -0.4001416 526600 male
1.202896 0.2223998 -1.422708 -0.4980257 -0.4975147 -0.7102461 9998755 male
1.216256 0.1362825 -1.374313 -0.5513215 -0.6099066 -0.5692614 8948632 male
1.210232 0.6217658 -1.083608 0.8612028 0.3318591 0.3849666 10588817 male
1.62775 0.328415 -1.118687 -0.2900552 0.7167937 0.6340936 526600 male
1.447049 0.2793798 -0.8458839 0.7926277 0.5403591 -0.2824062 526600 male
1.160574 0.6252779 -1.032594 0.3562842 0.1907262 0.9147048 15190998 male
1.328389 0.3225951 -1.361587 0.9801788 -0.1294238 0.1499965 8946321 male
1.320169 0.2562923 -1.368176 0.7433828 0.6639447 -0.0809902 8748170 male
1.147903 0.1631352 -1.222056 -0.887607 -0.2515143 0.3858682 2698289 male
1.341243 0.3336096 -0.9755394 0.2203144 -0.3087116 -0.9252884 526600 male
1.495608 0.1742671 -1.284343 0.6834023 -0.2913867 -0.6693692 3685446 male
1.013384 0.4311143 -1.218496 -0.7101444 -0.1676546 0.6838032 12759733 male
1.529385 0.2103503 -0.6582209 0.1768227 -0.9567577 0.2309726 986639 male
1.192503 0.4753808 -1.194485 0.2301108 -0.09039639 0.9689569 15459580 male
1.229375 0.5299699 -1.163593 0.7785848 -0.4474584 0.4399849 16372176 male
1.296054 0.2498141 -1.177188 0.5522652 0.6928754 -0.463602 3751751 male
1.647205 0.1584785 -0.8728587 0.783639 0.1044627 -0.6123704 526600 male
1.411905 0.5775719 -1.536746 0.8150944 0.5607063 -0.1457044 10520192 male
1.64107 0.2467062 -1.142718 0.03638667 -0.9235858 -0.3816611 526600 male
1.221225 0.353343 -1.456668 -0.2717766 -0.0899533 -0.9581471 8354184 male
1.093552 0.5337492 -1.282553 -0.656539 0.7054948 -0.2668962 16117245 male
1.09305 0.5270437 -1.211609 -0.5452214 0.4630022 0.6988294 6446437 male
1.527657 0.2858697 -1.221038 -0.04252617 0.9815818 -0.186249 9671076 male
1.05232 0.09983269 -1.191901 0.4165017 0.8936471 0.1670965 1117712 male
1.164611 0.2201437 -1.392722 -0.6201552 -0.3466357 -0.7037408 9998752 male
1.611261 0.2124377 -0.7406025 0.5966353 -0.7381071 0.3149988 526600 male
1.299568 0.3139493 -0.9316711 -0.7646652 -0.6443538 -0.009763807 526600 male
1.035198 0.4605016 -1.278562 -0.2360339 0.333294 -0.9127996 8618127 male
1.145632 0.5151804 -1.061213 -0.4673358 -0.6258531 0.6244239 12688532 male
1.370713 0.5894101 -1.379124 0.879041 0.28804 0.3798946 16300982 male
1.182657 0.2205496 -1.131001 -0.8787491 0.2227621 0.4221101 4474698 male
0.9634157 0.3021029 -1.368709 0.3000871 -0.1704794 -0.9385544 13345956 male
1.611613 0.2906307 -1.214635 -0.8113934 -0.5574089 0.1758866 526600 male
1.251153 0.4592728 -1.443201 -0.08575267 0.2387038 -0.9672987 10130853 male
1.231454 0.4519512 -1.443627 -0.2536679 0.2082273 -0.9446131 8288902 male
1.332941 0.6128352 -1.511901 -0.26559 0.7112988 -0.6507812 15907504 male
1.23109 0.5899922 -1.144464 0.9085751 0.3321657 0.2532928 13281704 male
1.188049 0.5007783 -1.401153 -0.600016 0.3395062 -0.7243731 10856117 male
1.071536 0.6159073 -1.134613 -0.9211007 -0.2754037 -0.275184 9735055 male
1.552272 0.2213738 -1.252728 0.7236785 -0.1780161 -0.6667831 592137 male
1.311463 0.6256278 -1.355874 -0.07911414 0.9323686 -0.3527462 12554118 male
1.297051 0.5667066 -1.378117 -0.6125215 -0.7206993 -0.3246688 4010802 male
1.192316 0.5271482 -1.388212 -0.6006004 0.4086695 -0.6872179 11775163 male
1.332084 0.4677301 -1.370892 0.9882485 0.1367454 -0.0683049 526600 male
1.160902 0.4080735 -1.408838 -0.4635304 0.0771808 -0.8827133 12300999 male
1.652092 0.1929853 -1.035419 0.478497 -0.8307637 -0.2843805 526600 male
1.191875 0.2378315 -1.210407 -0.4038752 0.8984165 -0.1724312 4869467 male
1.063281 0.4489158 -1.31438 -0.8616875 -0.02641797 -0.5067512 10196387 male
1.069044 0.419687 -1.251705 0.8813615 -0.2045175 -0.4258808 526344 male
1.065088 0.6389549 -1.118303 -0.9974148 0.06577778 -0.0289287 723723 male
1.291733 0.2876033 -0.998157 -0.4561495 -0.8073142 0.3743948 657930 male
1.539108 0.2656959 -0.7195628 0.4211612 0.8070269 -0.4139213 526600 male
1.259101 0.6156512 -1.270121 0.1625387 0.9106791 0.3797957 6644069 male
1.323654 0.1929348 -1.314647 -0.01140504 0.8811142 -0.4727658 7961743 male
1.179868 0.1744532 -1.144383 -0.8204896 -0.1783548 0.5431265 3420989 male
1.68068 0.124906 -0.9315224 -0.5689988 0.3343291 0.7513084 526600 male
1.609434 0.3266551 -1.205721 0.09817481 0.9445906 0.3132256 5396319 male
1.221661 0.1967186 -1.421263 -0.4943879 -0.3583653 -0.7919312 9407389 male
1.262709 0.09804388 -1.178332 0.4099338 -0.7814106 0.4704803 4738131 male
1.6489 0.1308082 -0.874006 -0.5784038 -0.6851055 0.4428086 526600 male
1.351017 0.5796437 -1.314775 0.9103612 -0.1879514 0.3686688 8548472 male
1.626443 0.2226686 -0.7522422 0.329705 -0.63557 -0.6981013 526600 male
1.638308 0.2461255 -1.141788 -0.01491125 -0.9187257 -0.3946147 526600 male
1.675427 0.1976268 -0.9841859 0.08864366 0.9295873 0.3577845 526600 male
1.065202 0.3889606 -1.245468 0.9502211 -0.3100283 -0.031021 4079427 male
1.017952 0.2155877 -1.302172 0.8329234 0.5286537 -0.1635965 14726841 male
1.204273 0.4919662 -1.196997 0.2254481 -0.1619445 0.9607013 15722495 male
1.15376 0.7096491 -1.123096 0.2426191 0.9700208 0.01398573 9275789 male
1.163863 0.5854211 -1.249046 -0.5302549 0.8313924 -0.1661818 12171207 male
1.184599 0.219422 -1.408167 -0.6087875 -0.3592865 -0.7073125 10721964 male
1.663776 0.3549974 -1.157548 0.2995342 0.7469181 0.5936267 526600 male
1.110355 0.2429855 -1.343687 -0.9036626 -0.4267724 -0.0354867 11249587 male
1.059458 0.1158982 -1.205011 0.3501907 0.0381477 -0.9359012 15133430 male
1.157889 0.5823063 -1.232607 -0.7123628 0.6646293 -0.2254043 15644328 male
1.358487 0.3542469 -0.8723606 0.04537049 0.5342207 0.8441265 526600 male
1.121624 0.2070831 -1.333326 -0.8842136 -0.2034535 -0.4204437 10065059 male
0.9850138 0.3759385 -1.28235 -0.9518545 0.2349998 -0.1968452 14460827 male
1.031249 0.3628542 -1.232203 0.1797346 -0.3188772 0.9305981 16368323 male
1.33505 0.2954025 -0.883572 -0.6791922 -0.4647113 0.5681032 526600 male
1.476014 0.2635835 -1.205132 -0.426737 0.8180679 0.385565 4672339 male
1.084597 0.4282208 -1.246329 0.07326577 -0.9957877 0.05512575 526600 male
1.366089 0.350632 -0.9654097 0.6492192 0.1949249 -0.7351998 526600 male
1.113626 0.6096609 -1.028175 -0.3168511 -0.01250788 0.9483927 13212564 male
1.128554 0.2194722 -1.24685 -0.8837332 0.07687267 0.4616345 4078663 male
1.247695 0.608166 -1.245024 0.3801696 0.6567188 0.6512998 7434105 male
0.9964269 0.3997741 -1.24453 -0.9259622 0.0854821 0.3678135 15711161 male
1.616846 0.2796432 -1.072093 -0.2831062 0.7593132 0.5859132 526600 male
1.485487 0.4983581 -1.498162 0.2260296 0.7777667 0.5865062 15249079 male
1.058966 0.4364808 -1.28554 -0.6983083 -0.3630814 -0.6168772 10131107 male
1.653526 0.2009257 -1.039477 0.5618861 -0.8022361 -0.2017457 526600 male
1.23057 0.1824156 -1.08443 -0.6021095 -0.4086615 0.6859007 5394778 male
1.596097 0.3232765 -1.20396 -0.01146379 0.945779 0.3246085 1514266 male
1.093234 0.5582583 -1.097801 -0.8963472 -0.4418202 -0.03683329 13412256 male
1.075321 0.4511755 -1.242995 0.4516464 -0.8109971 -0.3718862 526600 male
1.359251 0.09411899 -1.20717 -0.0276784 -0.5221424 0.8524091 4343122 male
1.325669 0.07314508 -1.324227 0.1503327 -0.8839473 -0.442761 9738666 male
1.690225 0.3263083 -1.149366 0.6457502 0.4568748 0.6117778 526600 male
1.633249 0.1882832 -1.020019 -0.6628496 0.7487453 -0.003314853 526600 male
1.029887 0.3793617 -1.22543 -0.03685367 -0.2384091 0.9704653 15717074 male
1.334287 0.3899409 -0.9003528 0.1040831 0.698098 0.7083967 526600 male
1.379139 0.6217744 -1.523263 0.7322297 0.6795841 -0.04477826 12425877 male
1.288167 0.4665861 -1.24105 0.4062799 -0.1485177 0.9015981 15063277 male
1.666013 0.2914108 -1.099307 0.6070758 0.4277984 0.6696622 526600 male
1.251801 0.5966334 -1.358335 -0.1706136 0.7059504 -0.6874045 10921138 male
1.163124 0.6917259 -1.080316 0.3726424 0.7917976 0.4839361 3552566 male
1.068851 0.4265257 -1.209151 0.5250309 -0.5269071 0.6683648 14275035 male
1.160406 0.6715695 -1.05422 0.3851019 0.6105121 0.6920776 4211520 male
1.207925 0.6130466 -1.070293 0.8180382 0.3263492 0.4736136 15317168 male
1.352606 0.3479727 -0.9741805 0.4957237 -0.02712757 -0.8680565 526600 male
1.286418 0.3397023 -0.9737559 -0.7218698 -0.6894751 -0.0593985 526600 male
1.261305 0.2800885 -1.303804 0.7525961 0.2590264 0.6053962 12564944 male
1.126474 0.5289333 -1.33045 -0.3145034 0.7323201 -0.6039824 14210529 male
1.247168 0.1186859 -1.140599 -0.07503361 -0.7840526 0.6161424 5395034 male
1.396327 0.1490249 -1.343615 0.5187735 0.02687784 -0.8544891 2237738 male
1.138952 0.6379812 -1.202219 -0.06168321 0.1900523 -0.9798343 7432812 male
1.172789 0.5501071 -1.039719 0.8151032 0.2848548 0.5044448 13670551 male
1.504273 0.2559634 -1.173997 -0.51592 0.4828051 0.7076198 4539720 male
1.321953 0.164754 -1.40982 0.5067812 -0.3766788 -0.7754263 7565691 male
-2.57125 0.3029094 -1.405248 0.7042626 -0.6536846 -0.2769673 5920082 male
-2.565539 0.04819192 -1.35115 0.6874737 -0.08903541 -0.7207309 3289659 male
-2.741317 -0.3329266 -1.315822 0.9991502 0.03035964 -0.02788568 1973022 male
-2.579795 0.05813417 -1.245343 0.6613979 -0.1955619 0.7240917 2499879 male
-2.596811 0.2679444 -1.37985 0.6467444 -0.4047286 -0.6464648 7038307 male
-2.797417 -0.113489 -1.275694 -0.6363853 0.2155502 0.740643 2631467 male
-2.814339 0.2966475 -1.289245 -0.9041762 0.2861223 0.3171746 5920594 male
-2.539811 0.4142243 -1.572628 0.2610672 -0.5020881 -0.8244706 16772013 male
-2.546444 0.5666749 -1.776922 -0.5382316 -0.2459707 -0.8061052 15586758 male
-2.742181 0.07181315 -1.379616 0.5313381 -0.004627313 -0.8471475 3554116 male
-2.561307 -0.3743412 -1.363936 -0.784591 0.2168381 -0.5808601 1972766 male
-2.543344 0.6166649 -1.800417 -0.5941145 -0.04508278 -0.8031163 6575441 male
-2.766542 0.3837964 -1.44889 -0.9805049 -0.01971194 -0.1955045 3486256 male
-2.667271 0.2674707 -1.429898 0.1602348 -0.7484657 -0.6435247 7696231 male
-2.627754 0.3138243 -1.231721 0.2193352 0.5539643 0.8031288 9077117 male
-2.607019 -0.03288603 -1.254946 0.2866438 -0.2094738 0.9348563 2434343 male
-2.819622 0.01004177 -1.317869 -0.9532124 -0.295257 0.06488144 1908771 male
-2.43025 0.4897137 -1.607233 0.005330294 -0.1344195 -0.9909104 4735551 male
-2.516347 -0.4515433 -1.388944 -0.1991904 -0.9681707 -0.151554 526344 male
-2.456047 0.4718514 -1.590486 -0.03209373 -0.4122895 -0.9104875 7761256 male
-2.549969 0.4903104 -1.657153 0.2801701 -0.9153985 -0.2890506 16773351 male
-2.636745 0.1274614 -1.358731 -0.281488 0.02783054 -0.9591612 2829363 male
-2.664495 -0.4650446 -1.442668 0.6613232 -0.732985 -0.1593256 2236450 male
-2.50782 0.3111186 -1.817594 0.3328361 0.6642129 0.669359 16706274 male
-2.754449 -0.2085839 -1.352834 0.4965239 0.005528662 -0.8680055 2895156 male
-2.636717 0.5808293 -1.561489 -0.01280723 0.9830019 0.1831478 12433329 male
-2.583444 0.5403053 -1.441562 -0.2820167 0.7519835 0.5958083 10328206 male
-2.482856 0.4631986 -1.438315 0.7941855 -0.2858816 0.5362289 3223601 male
-2.724695 -0.09621657 -1.330753 0.9061724 -0.2212284 -0.3604301 2697257 male
-2.374774 0.4131343 -1.556224 0.5300715 -0.2348115 0.8147933 7235685 male
-2.689199 0.2955081 -1.222039 -0.173941 0.4989528 0.848994 9668738 male
-2.528713 0.5027272 -1.607739 0.8234982 -0.4211859 -0.3800702 5721673 male
-2.54032 -0.2094022 -1.291829 0.9645408 0.02179302 0.263033 1842977 male
-2.381333 0.4547849 -1.611957 0.3816327 0.5614492 -0.7342559 8682099 male
-2.472901 0.491645 -1.730383 0.7106457 -0.6635554 0.233831 11510936 male
-2.733835 0.4709064 -1.625962 -0.8259588 -0.5190565 0.2199382 4343106 male
-2.552594 0.1675385 -1.291317 0.9954072 0.08718182 -0.03954917 3289909 male
-2.436 0.4569859 -1.531673 -0.4766926 -0.8242173 0.3056636 1907741 male
-2.784026 -0.0542615 -1.366937 -0.667932 -0.06065346 -0.7417468 3224633 male
-2.664239 0.5769973 -1.559144 -0.1994567 0.9625235 0.1837542 13354171 male
-2.637192 0.5583268 -1.501554 0.04645401 0.888568 0.456387 7695977 male
-2.556501 0.2789952 -1.836067 -0.493489 -0.08596424 -0.8654935 16772581 male
-2.559021 0.652072 -1.783128 -0.7179294 0.2723137 -0.6406426 3222825 male
-2.757602 0.2915696 -1.228971 -0.2306201 0.4752744 0.8490753 9076858 male
-2.444141 0.655841 -1.711385 0.9417728 0.2692141 0.2014653 3881270 male
-2.809251 -0.1056418 -1.31669 -0.9818718 0.03857156 -0.1855812 2170913 male
-2.610285 0.4321233 -1.700153 0.9059473 0.3753062 0.1959715 6709597 male
-2.738367 0.4696342 -1.592527 -0.4077959 -0.9052045 0.1196128 526344 male
-2.706235 0.3348942 -1.255322 -0.09196773 0.7243505 0.6832705 8682876 male
-2.721339 0.4170506 -1.555722 -0.7375116 -0.3394322 -0.5838345 4406843 male
-2.681541 0.3242483 -1.242598 -0.1135682 0.6770101 0.7271587 10260878 male
-2.730475 -0.2989318 -1.307483 0.9975047 -0.06929213 -0.01353556 1907741 male
-2.559169 0.2143472 -1.264613 0.9553256 0.09755076 0.2789932 2303014 male
-2.798771 0.2970987 -1.392415 -0.6273763 0.1688086 -0.7601993 3222828 male
-2.364533 0.3351221 -1.605532 -0.752622 -0.6433977 0.1399992 14468032 male
-2.451789 0.6762297 -1.730941 0.8285856 0.5527439 -0.08899617 3354670 male
-2.631233 -0.05772584 -1.266742 -0.4895382 -0.2652731 0.8306521 3157815 male
-2.537041 0.5843771 -1.556056 0.09617683 0.9949937 -0.02715853 11380126 male
-2.679762 0.5613375 -1.635434 -0.1735325 0.7227122 -0.6690096 5855056 male
-2.844027 0.1864839 -1.272773 -0.9688613 -0.007427645 0.2474929 2960433 male
-2.56675 0.1866724 -1.242571 0.8848701 0.05963499 0.4620052 2631465 male
-2.772731 -0.4226837 -1.32988 0.9203895 0.3163916 0.2297383 2236452 male
-2.8107 -0.155898 -1.283543 -0.9000297 0.0734612 0.429593 2564647 male
-2.810855 0.3207782 -1.308002 -0.8758401 0.3947202 0.2776695 6511962 male
-2.669394 -0.01229612 -1.298567 -0.9855699 -0.1692556 -0.002188504 2170657 male
-2.8253 -0.4579093 -1.341208 -0.9081347 -0.3300648 0.2575828 2697257 male
-2.658437 0.4891399 -1.71767 0.512409 0.2553334 -0.8199037 6511188 male
-2.541747 -0.4105256 -1.39165 -0.7499306 0.349929 -0.5613859 2368292 male
-2.756636 -0.2827761 -1.34862 0.227842 -0.04066496 -0.9728488 2169889 male
-2.807092 -0.4180985 -1.31428 -0.8857072 -0.1782237 0.4286717 3028022 male
-2.33275 0.3177555 -1.614708 -0.7260367 0.43954 -0.5288437 16375762 male
-2.290554 0.3322608 -1.7596 -0.2681334 0.9088102 0.3196382 16509403 male
-2.481332 0.4606726 -1.57859 0.1174773 -0.3055098 -0.9449143 5526347 male
-2.515239 0.6627522 -1.802758 -0.1586413 0.510124 -0.8453441 15590106 male
-2.671668 0.3950413 -1.590253 -0.2105133 -0.6856572 -0.6968203 6182995 male
-2.783161 0.3598661 -1.364844 -0.9603065 0.2778217 0.02503669 4078646 male
-2.777223 -0.148049 -1.260156 -0.1932517 0.1740157 0.9655945 2895153 male
-2.614002 0.2170154 -1.34814 0.4142526 0.1138348 -0.9030154 1776668 male
-2.337826 0.4057655 -1.608534 0.8522251 0.5207851 0.04995555 16770264 male
-2.556013 0.5763364 -1.596623 0.03450137 0.9710823 0.2362391 5262149 male
-2.537829 -0.2618527 -1.318347 0.9922286 -0.03005817 -0.1207445 2565418 male
-2.580564 0.430423 -1.35459 0.3418524 0.369164 0.8642079 9077116 male
-2.267965 0.3143179 -1.663892 0.5565422 0.8289869 0.05515188 14993078 male
-2.400473 0.5006874 -1.530345 0.7211843 0.4198782 0.5509952 10853012 male
-2.539932 -0.2611197 -1.297688 0.9556981 -0.07084565 0.2856964 1972766 male
-2.723278 0.0627251 -1.359075 0.8357372 -0.008568995 -0.549063 2500649 male
-2.57125 -0.1286052 -1.269716 0.5723354 0.3216138 0.754319 2303011 male
-2.619421 -0.09492401 -1.354995 -0.5089718 -0.2953053 -0.8085436 2566701 male
-2.482922 0.6526923 -1.805014 0.3634881 0.4179308 -0.8325926 7168860 male
-2.619249 0.2227014 -1.200307 0.4611067 0.09073859 0.8826933 4278606 male
-2.589447 0.5772608 -1.605463 -0.05899109 0.9725431 0.2251224 2894375 male
-2.404867 0.4862277 -1.609645 0.3041809 0.1788948 -0.935666 7169374 male
-2.711496 -0.001726651 -1.331554 0.9841366 -0.002042226 -0.1774013 2369064 male
-2.420245 0.328955 -1.909405 -0.6612861 -0.1172934 -0.7409071 15651785 male
-2.81946 0.3148906 -1.338939 -0.9373479 0.3464841 -0.03644258 3945779 male
-2.728579 -0.01297381 -1.367952 0.6468726 -0.01245717 -0.7624965 3684672 male
-2.551451 0.04075022 -1.300533 0.9727066 -0.1680398 0.1600149 2565671 male
-2.804254 -0.2015661 -1.339437 -0.813267 -0.09846376 -0.5734998 1973793 male
-2.441643 0.6278605 -1.76002 0.9553554 0.0632655 -0.2886066 6314583 male
-2.593947 -0.09806163 -1.268795 0.2452351 0.1874118 0.9511766 2169889 male
-2.740446 0.04748805 -1.249605 0.437975 -0.2241627 0.8705913 3290167 male
-2.445337 0.5425857 -1.546246 0.5764934 0.7975228 -0.1778 6972767 male
-2.806101 -0.2405463 -1.306351 -0.9651657 -0.2556913 0.05547577 1908256 male
-2.798302 -0.3962804 -1.346518 -0.942791 -0.02251718 -0.3326235 856084 male
-2.396487 0.5063364 -1.548045 0.8019708 0.5381765 0.2592471 10131602 male
-2.618057 -0.1749632 -1.331181 -0.5747707 -0.04829521 -0.8168883 2303274 male
-2.53992 0.3108623 -1.831264 -0.5112149 0.7839274 -0.352303 15649722 male
-2.56345 0.4221903 -1.583039 0.158308 -0.5641689 -0.8103408 11709350 male
-2.753396 -0.3656278 -1.326177 0.9218757 0.3410257 0.1839756 1579032 male
-2.720823 0.4134917 -1.339232 -0.3283278 0.4680505 0.8204449 3748913 male
-2.578863 0.6695353 -1.697108 -0.8953629 0.3652701 0.2547616 4472124 male
-2.412434 0.4945969 -1.609027 0.254205 0.1601216 -0.9538034 6314582 male
-2.570138 0.6751274 -1.750523 -0.7799699 0.4781376 -0.4037716 5196100 male
-2.566746 0.5941844 -1.762896 -0.8984161 -0.1888955 -0.3964434 7168860 male
-2.635774 -0.05249403 -1.267478 -0.5268553 -0.2807916 0.8022343 2828851 male
-2.609744 -0.15674 -1.25857 -0.4229959 0.1064023 0.899863 3026227 male
-2.552721 0.3493271 -1.349425 0.9514642 -0.02359093 0.3068546 3617327 male
-2.646277 0.4716848 -1.3993 -0.2066258 0.6485018 0.7326332 10196371 male
-2.560965 0.09742901 -1.255807 0.8437561 -0.1322175 0.5201868 2434086 male
-2.831388 0.2508168 -1.29462 -0.9594784 0.2235858 0.1714962 5327946 male
-2.52316 0.6659164 -1.645891 -0.142367 0.4560093 0.8785143 6313295 male
-2.556892 0.5263786 -1.726945 -0.8421096 -0.5335373 -0.0786725 13549237 male
-2.790045 0.1291334 -1.388425 -0.2089193 0.05009928 -0.9766488 3947841 male
-2.7639 0.2297751 -1.373959 -0.04032263 0.04820175 -0.9980236 7366248 male
-2.780919 -0.4366705 -1.29505 0.8163245 0.1232663 0.564287 11185074 male
-2.633793 0.3022171 -1.753356 -0.7218357 -0.5091428 -0.4687504 16373707 male
