# .PCD v0.7 - Point Cloud Data file format
VERSION 0.7
FIELDS x y z normal_x normal_y normal_z rgb label
SIZE 4 4 4 4 4 4 4 4
TYPE F F F F F F U U
COUNT 1 1 1 1 1 1 1 1
WIDTH 252
HEIGHT 1
VIEWPOINT 0 0 0 1 0 0 0
POINTS 252
DATA ascii
1.332072 0.2007132 -1.318953 0.2952289 0.8728831 0.3884778 14077927 male
1.411059 0.3322642 -1.101505 -0.01006119 0.8874065 -0.460878 6317425 male
1.769017 0.2939455 -1.227645 0.9476665 0.3152086 0.05071265 526600 male
1.408842 0.1827315 -1.073318 0.0922409 -0.6441447 0.7593216 2698033 male
1.339392 0.1926715 -1.339318 0.6631107 0.6353104 0.3958092 10592178 male
1.68328 0.3148775 -1.345881 0.5704044 -0.2395031 -0.7856698 526602 male
1.281503 0.06128368 -1.38994 -0.6113177 -0.6651886 -0.4287364 11775423 male
1.352729 -0.0009462967 -1.331486 -0.3215913 -0.9447213 -0.06388098 7041410 male
1.325011 0.5832261 -1.490052 0.41594 -0.2634926 -0.8703824 14135724 male
1.547491 0.2476702 -1.276925 -0.5415519 0.7801671 0.3131467 4342862 male
1.503347 0.3818071 -0.9878237 0.7750775 0.631835 0.006279171 526600 male
1.331279 0.6524656 -1.489948 0.5250876 0.2972596 -0.7974458 15322318 male
1.345379 0.3227934 -1.371771 0.8116723 0.2765235 0.5145122 16565501 male
1.410679 0.1068383 -1.363767 0.08810425 0.7763469 -0.6241179 9014942 male
1.316097 0.04751736 -1.180786 -0.4115928 -0.6165069 0.6712009 7304064 male
1.391304 0.390962 -1.038132 -0.5575004 -0.6668264 -0.4945056 526600 male
1.511092 0.1023144 -1.361787 0.3349915 -0.1413176 -0.9315633 4539471 male
1.197032 0.4407266 -1.254588 0.01847818 0.7491823 0.662106 14534598 male
1.752878 0.2323668 -0.9276252 0.6317332 -0.7084624 0.3146335 526600 male
1.333626 0.3481824 -1.343452 0.8983297 0.2022411 0.3900028 11709120 male
1.365555 0.5232821 -1.408464 0.6773762 -0.0310618 0.7349808 12163479 male
1.434449 0.2376793 -1.158789 0.6648043 0.4141888 -0.6216774 3422013 male
1.883905 0.2103748 -1.07424 -0.04525327 0.987833 -0.1487884 526600 male
1.612107 0.2350777 -1.459402 0.9437808 -0.2693325 -0.191671 15318712 male
1.771306 0.212727 -1.18382 -0.893777 -0.4280342 -0.1339755 526600 male
1.265747 0.2056184 -1.511348 -0.4965687 -0.4478651 -0.7435297 7762558 male
1.243642 0.4579437 -1.480218 -0.6714342 0.4673975 -0.5750791 15591418 male
1.179934 0.4646528 -1.351108 -0.5317817 0.8409331 0.1001981 7564915 male
1.783829 0.2516975 -1.172655 -0.4485013 0.7117624 0.5405931 526600 male
1.357415 0.5000277 -1.135694 0.7204677 -0.5839272 0.374106 10524060 male
1.266993 0.05416925 -1.348772 -0.6075271 -0.7183105 -0.3390293 10327981 male
1.718312 0.2277213 -0.8267155 0.5951498 -0.7545199 -0.2765798 526600 male
1.384598 0.3863979 -0.996105 -0.8316513 -0.4224258 0.3604339 526600 male
1.163082 0.3869089 -1.282485 -0.8820738 -0.4703521 -0.0267334 9142152 male
1.401906 0.6244345 -1.402475 0.6545149 0.7254788 0.2128163 12423054 male
1.548782 0.3335144 -1.492375 0.5185228 0.6592146 -0.5445826 13144709 male
1.368297 0.1773945 -1.250268 0.1437717 0.6713383 -0.7270727 4473935 male
1.191891 0.3230245 -1.182262 -0.5160283 -0.8342922 -0.1940912 16038583 male
1.634252 0.2913939 -1.272699 -0.2868048 -0.4502451 0.8455899 789516 male
1.255679 0.1235321 -1.454861 -0.5146145 -0.7546538 -0.4070255 9802662 male
1.226113 0.2722611 -1.504429 -0.8419265 -0.2704853 -0.4669021 10394025 male
1.594807 0.257189 -1.485362 -0.3833913 0.358282 -0.8512609 16371662 male
1.321437 0.5260426 -1.479058 0.09932801 -0.243756 -0.9647367 16634321 male
1.362243 0.1502772 -1.469488 0.7470538 -0.1986056 -0.6344024 6972526 male
1.239134 0.6421368 -1.381494 -0.3834846 0.2484045 0.8895137 9933206 male
1.651609 0.3151624 -1.310898 -0.5998146 -0.6971018 0.3927741 526600 male
1.501414 0.4289444 -1.397365 -0.661918 -0.6354226 0.3976213 8151654 male
1.619002 0.2327606 -1.427569 0.514229 -0.2412831 0.8230133 15912655 male
1.21092 0.3035777 -1.488125 -0.7789647 -0.2153303 -0.588937 11776196 male
1.392576 0.3157592 -1.486336 0.8960873 -0.2083814 -0.3919244 8157060 male
1.224475 0.1998271 -1.443068 -0.7169252 -0.3901219 -0.5777742 11775171 male
1.742999 0.337103 -1.248768 0.4868696 0.693385 0.5312016 526600 male
1.285789 0.1440163 -1.173566 -0.8715745 0.217436 0.4394081 3685184 male
1.428319 -0.005378771 -1.274453 0.2415874 -0.9015571 0.3589294 9277862 male
1.216987 0.3566161 -1.160183 0.5483824 0.8051775 0.225756 14527405 male
1.230603 0.6701035 -1.40091 -0.4887288 0.6241679 0.6095561 723723 male
1.471965 0.3524345 -1.033007 0.2450198 -0.4090841 -0.8789855 526088 male
1.676903 0.2928954 -0.8236505 0.3844835 0.9140813 -0.1289491 526600 male
1.326666 0.4525077 -1.551509 0.1511913 0.6858387 -0.7118753 6513003 male
1.454342 0.09268014 -1.364807 0.02302343 0.1651287 -0.9860033 6909553 male
1.297596 0.1552572 -1.141169 -0.8214172 0.04762721 0.5683357 4936027 male
1.876078 0.1881944 -1.028345 -0.3828481 -0.04665466 0.9226325 526600 male
1.678382 0.3540643 -1.331151 0.6273403 0.5608479 -0.540272 3750978 male
1.270985 0.06227746 -1.375307 -0.6218858 -0.6776681 -0.3924589 11972288 male
1.357355 0.05569565 -1.16233 0.06784976 -0.6088521 0.7903768 9410213 male
1.903233 0.1374537 -1.144995 -0.1461962 -0.7318007 0.6656535 526600 male
1.53404 0.3250588 -1.463673 0.1654135 0.8154828 0.5546405 16434885 male
1.694171 0.2844708 -0.8236217 0.2949871 0.9453209 -0.1391073 526600 male
1.736487 0.2391919 -1.188948 -0.9542354 -0.1880321 0.2325482 526600 male
1.802796 0.2074996 -1.166 -0.7265162 0.4688704 0.5023292 526600 male
1.242433 0.3624526 -1.215265 0.9130318 -0.273059 -0.3030043 2566446 male
1.255742 0.3524033 -1.119839 -0.7556155 0.5123743 -0.4080658 15844808 male
1.389328 0.2430964 -1.384504 0.9142336 0.1946488 0.3553712 13229253 male
1.255596 0.6838784 -1.490262 -0.2371441 0.7066413 -0.6666489 526600 male
1.755582 0.2453213 -0.914174 0.473716 0.3460928 -0.8098227 526600 male
1.344021 0.03002364 -1.40324 -0.2093345 -0.7981536 -0.5649159 9672099 male
1.640343 0.3518315 -1.292679 -0.2152529 0.7531335 0.6216559 657418 male
1.206253 0.1274736 -1.279409 -0.9610965 0.02346653 0.275214 6447210 male
1.334035 0.4561579 -1.142363 0.3623844 -0.8797402 -0.3077899 10129816 male
1.252551 0.4887311 -1.42495 -0.8014351 0.5710995 0.1776152 14659494 male
1.41934 0.3518415 -0.9788288 -0.6400658 -0.6075844 0.4702734 526600 male
1.225176 0.07761277 -1.319298 -0.744719 -0.6173623 -0.2534905 10526128 male
1.192611 0.3622071 -1.152409 -0.5545752 0.7347184 0.3906857 14064788 male
1.206884 0.427019 -1.237679 0.1159361 0.8608298 0.4955108 16570073 male
1.454814 0.3938567 -0.951048 -0.03121576 0.2406109 0.9701195 526600 male
1.700225 0.3534547 -1.245048 0.008327961 0.7013147 0.7128031 526600 male
1.182897 0.3785526 -1.300566 -0.03727606 -0.8616112 -0.5061981 4210246 male
1.488422 0.3777811 -1.030548 0.6781084 0.1295531 -0.7234535 526600 male
1.324684 0.6990542 -1.441901 0.4283698 0.8964977 -0.1130981 13212564 male
1.224646 0.1092786 -1.24726 -0.7718257 -0.1805853 0.6096508 8354695 male
1.776716 0.1783653 -0.9128722 0.7849647 -0.5832824 -0.2088349 526600 male
1.183241 0.4070186 -1.21961 -0.6409656 0.5578814 0.527192 15711161 male
1.731048 0.2925193 -1.198609 -0.141404 0.5969396 0.7897266 526600 male
1.581096 0.5103756 -1.376426 -0.5437716 -0.6334859 0.5504616 1183250 male
1.192416 0.3275097 -1.319411 -0.3764226 0.02076088 0.9262154 3553083 male
1.736183 0.3519884 -1.263845 0.4827802 0.7151155 0.5055026 526600 male
1.376584 0.152783 -1.089388 -0.2151859 -0.5029873 0.8370775 4211787 male
1.651757 0.3442816 -1.317561 0.1336558 0.9692509 -0.206613 8487825 male
1.330378 0.6584089 -1.381642 0.2837155 0.7550573 0.5910955 14594472 male
1.213304 0.3444542 -1.231134 0.4211344 -0.8069025 -0.4141908 3618357 male
1.565287 0.1075116 -1.239504 0.4929143 -0.6053402 0.6249789 2237738 male
1.350522 0.0837011 -1.450089 0.05916408 -0.3570837 -0.9321968 7038836 male
1.710231 0.3782786 -1.284881 0.2791367 0.7515083 0.5977609 526600 male
1.897221 0.1371978 -1.165561 0.338006 -0.6052853 -0.7206813 526600 male
1.227414 0.3992565 -1.201757 0.4416443 0.8300577 0.3405207 16770530 male
1.344387 0.2296509 -1.0915 -0.7326202 0.1533967 0.6631267 3949389 male
1.537036 0.3201648 -1.501314 0.5881804 0.0254807 -0.8083283 16502726 male
1.343198 0.4638369 -1.427125 0.9181828 -0.04869273 0.3931531 13552606 male
1.784009 0.2464686 -1.203898 0.8433509 -0.4001799 -0.3586299 526600 male
1.282923 0.3461968 -1.572359 -0.3586601 -0.05546979 -0.9318186 11709885 male
1.257538 0.5581855 -1.490001 -0.106934 -0.6833338 -0.7222327 14471896 male
1.234232 0.4252777 -1.263847 0.8019511 0.5554027 0.2200057 12757164 male
1.265634 0.5770949 -1.503825 -0.03110975 -0.5325575 -0.8458219 14933987 male
1.306693 0.5818908 -1.505045 -0.6479237 -0.6586247 0.3826334 15841975 male
1.398828 0.37267 -1.040519 -0.2505138 -0.9164647 -0.3119859 526600 male
1.380706 0.2597959 -1.05096 -0.6257307 -0.1946236 0.7553693 4868426 male
1.294501 0.2327526 -1.29456 0.3147024 0.1825451 0.9314718 7170421 male
1.169033 0.329635 -1.450767 -0.7889786 -0.2274429 -0.5707735 8881295 male
1.396949 0.1790256 -1.073546 -0.09465376 -0.5736367 0.8136226 4607829 male
1.504298 0.07172414 -1.358777 0.4801371 -0.2964335 -0.825588 5857125 male
1.214085 0.5607001 -1.421395 -0.7322893 -0.6414451 0.2286932 7432812 male
1.402093 0.5911208 -1.427572 0.8440732 0.02874869 -0.5354567 12558229 male
1.578025 0.2613409 -1.251236 -0.4842573 0.553912 0.6772565 4539725 male
1.363206 0.2396175 -1.34892 0.7936593 0.2819332 0.5390905 15463912 male
1.862831 0.1461744 -1.15898 -0.9726404 -0.1933523 0.128785 526602 male
1.480853 0.3186196 -1.464926 -0.5484392 -0.5737822 0.6082667 1052688 male
1.421173 0.09507019 -1.155191 0.7056298 -0.5848731 0.4000125 2828851 male
1.513627 0.3554371 -0.9479005 0.4350903 0.5183987 0.7361788 526600 male
1.291938 0.2163683 -1.529116 -0.2663952 -0.4972847 -0.8256764 9407386 male
-2.470594 0.1525539 -1.363651 0.9701653 -0.2324104 0.06902862 4340793 male
-2.522474 -0.07269164 -1.41743 -0.5522871 0.3751055 -0.7444965 2565671 male
-2.694988 -0.3516876 -1.471937 0.5309263 0.09589444 -0.841975 2369068 male
-2.543169 -0.0912255 -1.260125 -0.3817326 -0.7458772 0.5458459 3356219 male
-2.464957 0.1446576 -1.396208 0.951089 -0.2631562 0.1617978 4802113 male
-2.707704 -0.1798826 -1.597749 0.4015482 -0.5702558 -0.7166363 2235682 male
-2.717249 0.08453763 -1.234254 -0.9058948 0.2060166 0.3700165 6643291 male
-2.587333 0.0526486 -1.428475 0.1708338 -0.9805235 -0.09689894 6709341 male
-2.591339 0.06379008 -1.806597 -0.9615677 -0.2325466 -0.145979 9799549 male
-2.658029 -0.1515062 -1.517597 0.9571961 -0.2882591 -0.02612627 1710619 male
-2.489435 -0.3238644 -1.481364 -0.6115662 -0.1769001 -0.7711637 2171174 male
-2.556375 0.04458854 -1.865066 -0.5472046 -0.5485123 -0.6322196 6709083 male
-2.682684 0.2034549 -1.365365 -0.8810176 0.4332506 0.190006 6576467 male
-2.5358 0.06898495 -1.415661 0.3337285 -0.9390743 -0.08224949 7892841 male
-2.548139 0.1820749 -1.232013 -0.01713172 0.8027305 0.596096 9472128 male
-2.467301 -0.1370233 -1.452633 -0.07326442 0.0695188 0.9948868 2500395 male
-2.732636 -0.1136765 -1.346665 -0.9080949 -0.3458709 0.2360874 1907745 male
-2.441612 0.2736133 -1.631194 0.2411999 0.8723288 -0.4252824 11183004 male
-2.53146 -0.470928 -1.452568 0.02317295 -0.9968778 -0.0754825 526600 male
-2.416302 0.1964324 -1.641031 0.5262642 -0.6391734 -0.5608062 7894128 male
-2.521136 0.0691658 -1.688019 0.6412166 -0.3271252 0.6941402 12035479 male
-2.553356 -0.00633628 -1.338169 -0.642149 0.3530746 -0.6804286 3026995 male
-2.69863 -0.4277416 -1.508531 -0.3146992 0.8873116 0.3371091 3223601 male
-2.633771 -0.34091 -1.66005 0.9962294 0.04822807 0.07212061 16773609 male
-2.740979 -0.2599319 -1.552026 -0.5901018 -0.5383614 -0.6016204 1710618 male
-2.615907 0.1936409 -1.644866 -0.4074535 0.7078775 -0.5769674 6972513 male
-2.60579 0.2346553 -1.599079 -0.7107459 0.607004 -0.355509 10392462 male
-2.49389 0.2772764 -1.53394 0.3088749 0.8788386 0.363647 6117205 male
-2.663793 -0.1960272 -1.544087 0.988627 0.01004961 -0.1500533 2367780 male
-2.409487 0.1302839 -1.331951 -0.3064985 0.3311251 0.8924209 4471354 male
-2.558294 0.11883 -1.179888 -0.01934478 0.4388598 0.8983474 9603201 male
-2.616916 0.03056709 -1.561033 0.3129003 -0.9425723 -0.116837 5591117 male
-2.444087 -0.1883498 -1.446741 0.2666681 0.2500739 0.9307801 3749948 male
-2.370091 0.2289051 -1.540166 0.7301531 -0.4459765 -0.5176694 15717061 male
-2.508934 0.03278164 -1.697738 0.605882 -0.2351832 0.7599974 12366244 male
-2.708212 0.03344195 -1.645335 -0.8218997 0.05835383 -0.5666357 9405311 male
-2.443161 0.01138154 -1.289632 0.96826 0.2173 -0.1235052 3027253 male
-2.395469 0.2740499 -1.487328 -0.4762066 0.6772891 0.5608092 13348263 male
-2.72288 -0.1357349 -1.492287 -0.3792746 0.06572387 0.9229472 2961202 male
-2.653643 0.1903337 -1.626015 -0.3833103 0.7935783 -0.4725536 13813438 male
-2.628885 0.2240674 -1.571923 -0.481855 0.824818 -0.2957887 8682358 male
-2.682765 -0.3231311 -1.666158 -0.923997 -0.1662084 -0.3443902 16773095 male
-2.575419 0.07535698 -1.86763 -0.7352326 -0.2539195 -0.628457 3551278 male
-2.653638 0.1090316 -1.190979 -0.1874663 0.4475407 0.8743935 8880253 male
-2.454299 0.1212411 -1.817796 0.9842342 0.1731026 0.0363186 4868418 male
-2.731835 -0.1084769 -1.463078 -0.8730125 0.2348735 -0.4274154 2434861 male
-2.682654 -0.04043844 -1.657315 -0.611966 -0.06947888 -0.7878264 8484981 male
-2.741518 -0.04084133 -1.26552 -0.9676392 -0.1728924 0.1838017 2170657 male
-2.61851 0.1513319 -1.213983 -0.156799 0.6706441 0.7250177 9734531 male
-2.662062 0.05570163 -1.523139 -0.5875459 -0.8009722 0.1150368 4801601 male
-2.551027 0.149179 -1.199646 0.02622506 0.6358025 0.7714063 9406855 male
-2.675297 -0.09844002 -1.477349 0.2919319 0.482686 -0.8257059 4474961 male
-2.450863 0.05182568 -1.227172 0.9715257 0.1272011 0.1998947 2699313 male
-2.713419 0.09255922 -1.325714 -0.7642681 0.02356935 -0.6444681 3750455 male
-2.419449 0.2265865 -1.516792 -0.815301 -0.4374905 0.3793238 16704481 male
-2.495533 0.1607364 -1.759096 0.5777917 0.6148158 0.5368041 7432551 male
-2.502057 -0.1933639 -1.477364 -0.9439942 0.236216 0.2303847 2171688 male
-2.511138 0.1536178 -1.649003 0.8723824 -0.2405088 -0.4255639 4275769 male
-2.611462 0.09954988 -1.669031 -0.5358726 -0.7800685 -0.3230074 3946292 male
-2.718746 0.001644009 -1.204377 -0.8561251 -0.1414168 0.4970425 2499881 male
-2.449339 0.03610054 -1.229703 0.9785714 0.1001764 0.1798968 3420468 male
-2.684169 -0.390411 -1.389037 0.9965372 -0.05059598 -0.06598383 2236452 male
-2.762401 -0.1564587 -1.550551 -0.9726878 0.2016581 0.1149469 2500136 male
-2.722653 0.1130803 -1.262869 -0.938539 0.2138523 0.2709465 4933699 male
-2.54374 0.01335913 -1.163278 0.04331398 -0.4800812 0.8761542 3421492 male
-2.760756 -0.4064597 -1.403509 -0.8486183 0.2006399 0.4894803 2632495 male
-2.62525 -0.004364987 -1.658515 0.7151364 -0.4058917 -0.5690625 5853517 male
-2.563058 -0.4450802 -1.414636 -0.9080456 -0.3734018 -0.1898009 2303523 male
-2.733479 -0.2956079 -1.520637 -0.6863044 -0.4755003 -0.5503508 2303019 male
-2.700577 -0.347711 -1.397423 -0.4487198 0.2235917 0.86525 3355702 male
-2.42618 0.2182452 -1.534031 -0.7320514 -0.6091444 0.3050311 14798793 male
-2.33331 0.2498309 -1.347968 -0.3271108 0.05411584 0.9434354 10523280 male
-2.431357 0.2052113 -1.65184 0.3439867 -0.2160092 -0.9137906 5065029 male
-2.532382 0.07650983 -1.891333 -0.1505365 -0.2551916 -0.9551002 4932930 male
-2.556744 0.06120989 -1.529906 0.7253067 -0.6838172 -0.07952589 15127214 male
-2.712716 0.1565247 -1.288931 -0.8159628 0.5620973 0.1350987 5656651 male
-2.76589 -0.1921346 -1.544768 -0.9990705 0.005369088 0.04277641 2170658 male
-2.456309 0.1190244 -1.269322 0.968789 0.2409914 0.05806178 3552819 male
-2.453672 0.2942496 -1.601384 -0.2895716 0.9185881 0.2689688 5460043 male
-2.491884 0.06083562 -1.878315 0.497522 -0.3737312 -0.7828136 6708568 male
-2.424322 -0.2638835 -1.468529 0.9502676 -0.2281775 0.2119597 1908001 male
-2.55096 0.2384268 -1.321277 0.04463986 0.8111479 0.5831349 11116184 male
-2.33596 0.2906631 -1.455864 0.7640368 0.6409891 -0.07335418 16768470 male
-2.415868 0.2147865 -1.616446 0.4887984 -0.8723738 0.006336153 8156268 male
-2.426724 -0.2698513 -1.492852 0.9093883 -0.3400218 -0.2395797 2696233 male
-2.642679 -0.134003 -1.452523 0.9765687 -0.1420562 -0.1616596 1908771 male
-2.597578 -0.01701627 -1.210536 -0.72483 -0.4488725 -0.5226232 526600 male
-2.460939 -0.1332314 -1.522597 0.3733429 0.02548786 -0.9273434 4079687 male
-2.553836 0.02990833 -1.853136 -0.5118611 -0.7150239 -0.4761713 6510163 male
-2.511463 0.1723464 -1.231112 0.4142792 0.6458164 0.6413222 8681843 male
-2.637599 0.153649 -1.678204 -0.2474264 0.5114377 -0.8229288 7563619 male
-2.394384 0.2090889 -1.527015 0.03111488 -0.9907619 -0.1319949 16773609 male
-2.688843 -0.03360699 -1.403037 -0.09275353 0.598358 -0.7958422 3883595 male
-2.642808 -0.4811051 -1.641863 0.9657748 0.05445339 -0.2536023 16770006 male
-2.725703 0.1089858 -1.267833 -0.9600291 0.1788374 0.2153173 4472121 male
-2.679762 -0.08678058 -1.457141 0.1159878 0.52755 -0.8415688 3818058 male
-2.451767 -0.1022843 -1.340218 0.9287626 -0.3056552 0.2097027 2762285 male
-2.722538 -0.1335593 -1.51867 -0.1383003 0.4544059 0.8799936 2697772 male
-2.46365 0.08546322 -1.858554 0.8403145 -0.2106055 -0.4995168 3749169 male
-2.466773 0.2530534 -1.565824 0.4560523 -0.05653169 0.8881558 657418 male
-2.626585 -0.1052137 -1.302537 0.7770286 -0.6000693 0.1901148 2302243 male
-2.497867 0.2446126 -1.646029 0.09831502 0.6551154 -0.7491049 9472643 male
-2.761286 -0.212242 -1.523066 -0.9654348 -0.02309391 0.25962 1972766 male
-2.730437 -0.3721797 -1.414919 -0.9508944 0.290188 0.107662 3157296 male
-2.394327 0.262969 -1.598975 0.9130038 0.2663472 -0.3090043 10130570 male
-2.451942 -0.2128461 -1.539153 -0.1364982 -0.2475408 -0.9592143 2698031 male
-2.638022 -0.1891385 -1.61571 0.6448907 -0.007445142 0.7642389 15651277 male
-2.658368 0.06017736 -1.454393 -0.4781994 -0.8745947 -0.08006057 5263176 male
-2.697733 -0.3428777 -1.481219 0.4647312 -0.03048142 -0.8849273 2566703 male
-2.659956 0.2031724 -1.302966 -0.4543856 0.6558641 0.6028068 10853012 male
-2.562665 0.1794968 -1.812911 -0.5047079 0.8627734 -0.0298661 4932154 male
-2.458311 0.2846631 -1.603958 -0.07888576 0.9574605 0.2775725 5458763 male
-2.582044 0.1476108 -1.848811 -0.8175523 0.4535951 -0.3547676 6511192 male
-2.568952 0.02892853 -1.79729 -0.6324491 -0.729076 0.2616421 11115416 male
-2.489343 -0.1398963 -1.405359 -0.28154 -0.5061507 0.8151975 3223602 male
-2.424914 -0.1555136 -1.474551 0.7779033 0.312418 0.5452171 2303011 male
-2.501753 0.2505167 -1.450319 0.422436 0.8601049 0.2859501 5920593 male
-2.626542 0.2379427 -1.509391 -0.5185457 0.8541393 0.03945199 9012094 male
-2.457365 -0.07559656 -1.283417 0.822055 -0.4185897 0.3860163 3223601 male
-2.677398 -0.05947724 -1.201977 -0.261196 -0.8087742 0.5269355 4539981 male
-2.477795 0.1582046 -1.857488 0.6696607 0.6083799 -0.4259444 7037274 male
-2.588822 0.05920678 -1.732484 -0.9260987 -0.2305384 0.2986528 14273217 male
-2.611509 -0.03775463 -1.325756 0.8857345 0.1478443 -0.4400191 3224117 male
