# .PCD v0.7 - Point Cloud Data file format
VERSION 0.7
FIELDS x y z normal_x normal_y normal_z rgb label
SIZE 4 4 4 4 4 4 4 4
TYPE F F F F F F U U
COUNT 1 1 1 1 1 1 1 1
WIDTH 252
HEIGHT 1
VIEWPOINT 0 0 0 1 0 0 0
POINTS 252
DATA ascii
1.254537 0.2520397 -1.302677 -0.004313558 0.2920896 0.9563811 8748941 male
1.360257 0.3153242 -1.09639 -0.02637327 0.8858187 -0.4632813 7896719 male
1.744152 0.2682654 -1.058982 0.9601209 0.218558 0.1743568 526600 male
1.406917 0.199276 -1.084774 0.910912 -0.3714329 0.1796577 5724773 male
1.256705 0.2124797 -1.300089 -0.002312183 0.5945771 0.8040352 6381162 male
1.636176 0.3345201 -1.227756 0.09671468 0.943644 -0.3165157 7699339 male
1.321654 0.01487505 -1.29343 -0.366813 -0.929965 -0.02476373 3883086 male
1.425615 0.01048062 -1.297947 0.3095112 -0.8679004 -0.3885249 6186355 male
1.295847 0.6166216 -1.528551 0.7261723 0.09104039 -0.6814583 9339268 male
1.525082 0.2246974 -1.265188 -0.09040681 0.7885092 -0.6083418 7698053 male
1.500039 0.3212184 -0.8902861 0.7619318 0.2324094 -0.6045211 526600 male
1.326296 0.6684324 -1.476422 0.809279 0.4717018 -0.3500928 15713993 male
1.386783 0.2166139 -1.485513 0.8749416 -0.2329037 -0.4245385 1314580 male
1.368472 0.1993529 -1.250996 -0.0161676 0.9962566 0.08492038 8291220 male
1.232472 0.06114673 -1.306911 -0.5908433 -0.7511413 -0.2944334 9868199 male
1.357067 0.3522636 -1.01981 -0.218246 -0.9704556 0.1028815 526600 male
1.583945 0.1532145 -1.24589 0.8192704 -0.4236258 -0.3864417 5067613 male
1.166816 0.4574905 -1.323068 0.4124464 0.4868422 0.7699822 14274527 male
1.547509 0.2797451 -0.7817635 -0.001172096 -0.2632724 -0.9647208 526344 male
1.217476 0.4481946 -1.370364 0.5650957 0.7997534 0.2026359 10721448 male
1.32625 0.4822936 -1.441406 0.9479715 -0.1039558 0.3009043 16772071 male
1.404114 0.1917144 -1.159394 0.8514936 0.2760521 -0.4458183 4737362 male
1.755027 0.2395866 -0.89294 0.1412783 -0.8020266 -0.5803395 526600 male
1.534521 0.2421754 -1.389181 -0.4297782 -0.1437752 0.8914143 1249810 male
1.724868 0.2530564 -1.088166 0.7554834 -0.6334912 -0.1671335 526600 male
1.298399 0.2694844 -1.55629 -0.2930018 -0.4275715 -0.8551799 8156805 male
1.203375 0.3618242 -1.511855 -0.3597843 -0.02847736 -0.9326007 12037311 male
1.196776 0.3792298 -1.339398 -0.2872193 -0.5647193 0.7736905 592393 male
1.548204 0.2618678 -1.233416 -0.2915983 0.8914992 -0.3466983 5856354 male
1.304713 0.3713562 -1.22488 -0.7617722 0.4768932 -0.438493 16437201 male
1.291477 0.02753053 -1.296538 -0.3776462 -0.9112189 -0.1645101 7304319 male
1.652496 0.2826124 -0.780428 -0.6099291 0.7017869 -0.3680783 526600 male
1.360656 0.4050454 -0.937327 -0.6598331 0.01228658 0.7513117 526600 male
1.159017 0.3959256 -1.265531 0.1341731 0.8455839 0.5167065 14592677 male
1.334957 0.5639222 -1.400626 0.5334392 -0.01528982 0.8457002 12688532 male
1.439891 0.4294993 -1.53896 0.8681987 0.4900637 0.07790133 8485508 male
1.271211 0.2233557 -1.146411 -0.8656237 0.500645 0.007088393 592144 male
1.136461 0.3361044 -1.300426 -0.3959709 -0.8561193 -0.3320644 12352891 male
1.628342 0.2117194 -1.225407 0.6633077 -0.6583304 -0.3558425 2895665 male
1.311724 0.2757857 -1.56233 -0.165686 -0.4584396 -0.8731444 11249076 male
1.281687 0.3546893 -1.577381 -0.4298613 -0.006966236 -0.902868 14077918 male
1.573721 0.3008868 -1.41507 0.9401855 0.3227829 -0.1089146 13085614 male
1.24518 0.5741962 -1.533599 -0.0339815 -0.4430783 -0.8958386 12236216 male
1.271258 0.07759041 -1.387944 -0.5080337 -0.6502397 -0.5648806 10458535 male
1.222283 0.6398202 -1.402569 -0.4484815 0.03548759 0.8930873 14207184 male
1.548331 0.2210884 -1.269767 0.1976641 0.6276168 -0.7530114 4737617 male
1.464495 0.3902385 -1.509355 0.692404 0.716223 -0.08718523 14196636 male
1.385228 0.3653974 -1.5551 -0.6102512 -0.7857311 -0.1010939 1906973 male
1.284002 0.08356829 -1.407486 -0.3960985 -0.7918071 -0.4649165 9406619 male
1.406486 0.3596454 -1.473568 0.9678075 -0.2348971 0.09039873 8156549 male
1.268223 0.04282435 -1.314476 -0.4566614 -0.8308635 -0.3180034 6316145 male
1.716185 0.3009236 -1.086088 0.2566458 0.7511848 0.6081566 526600 male
1.247375 0.1333845 -1.15723 -0.8890318 0.003581246 0.4578314 3421245 male
1.375739 0.171001 -1.380398 0.9527827 0.3034086 -0.01217839 8617872 male
1.164459 0.3080867 -1.231663 0.9738419 -0.1639415 -0.1573377 10323853 male
1.199042 0.6734455 -1.427558 -0.6505557 0.441854 0.6176912 526600 male
1.408242 0.4054857 -1.017566 0.5551332 0.02746943 -0.8313078 526600 male
1.642001 0.2518997 -0.7772989 0.5987764 -0.6963149 0.3957426 526600 male
1.324865 0.4713072 -1.498797 0.8767108 0.365894 -0.3122495 16771047 male
1.477363 0.05948181 -1.321853 0.6650197 -0.3488457 -0.660345 7303801 male
1.30051 0.1790125 -1.237175 -0.2715233 0.8134271 -0.5144039 6515324 male
1.759947 0.226997 -0.999784 -0.8322388 0.4821693 0.2736627 526600 male
1.660254 0.3782896 -1.209495 -0.1856085 0.7530314 0.6312632 789260 male
1.357012 0.003357755 -1.305545 -0.170323 -0.9777261 -0.1226447 8093067 male
1.328164 0.07490368 -1.134626 0.08515501 -0.5818461 0.8088287 10791866 male
1.813203 0.1637421 -0.9897005 0.03880998 -0.9838894 0.1745145 526600 male
1.418609 0.4445422 -1.569582 0.3032183 0.6887331 -0.658563 7302519 male
1.560865 0.2689023 -0.7311249 0.3533302 -0.9346429 0.04000498 526600 male
1.703625 0.2420864 -1.100958 0.01215668 -0.9058029 -0.4235249 526600 male
1.777382 0.2514865 -0.9904604 -0.2600406 0.8824942 0.3918967 526600 male
1.181378 0.3555318 -1.289377 0.8023351 -0.4803645 -0.3542714 1051664 male
1.216588 0.2994622 -1.174865 0.7288939 -0.5664102 -0.3845689 13610930 male
1.241099 0.4106366 -1.339952 0.3371469 0.6198534 0.7085998 14144230 male
1.296009 0.7016628 -1.445463 0.4040946 0.9003699 0.1613741 526600 male
1.249319 0.4744342 -1.423294 -0.4887138 0.1560358 0.8583773 14661294 male
1.373438 -0.0007732225 -1.294358 -0.02468063 -0.9952449 -0.09422602 6186358 male
1.709629 0.3321253 -1.248674 0.4358485 -0.6026545 -0.6684636 526600 male
1.233223 0.1862057 -1.248474 -0.4611734 0.8759125 0.1417621 4471364 male
1.117806 0.3648511 -1.305523 -0.9483693 -0.3106219 -0.06410685 15251641 male
1.235559 0.5028068 -1.490721 -0.8515875 -0.1194896 -0.5104125 16771544 male
1.407032 0.4143685 -0.9229023 0.1672107 0.6037434 0.7794451 526600 male
1.161522 0.2382503 -1.398946 -0.9329197 -0.3597259 -0.01606601 10591145 male
1.118792 0.2960038 -1.225599 -0.8838882 -0.4628334 -0.06728008 16500415 male
1.109761 0.4047306 -1.355193 -0.9742813 -0.2059183 -0.09150803 7697280 male
1.40803 0.3919973 -0.9107269 -0.1616499 0.3229015 0.9325255 526600 male
1.498981 0.2245073 -1.248644 -0.4444739 0.8647612 -0.2337326 7106945 male
1.386493 0.09518008 -1.20152 0.9944516 0.009707914 -0.1047459 526344 male
1.362367 0.4287207 -1.003561 -0.2364844 0.8830033 0.4054385 526344 male
1.298081 0.6931829 -1.42407 0.3714347 0.8002043 0.47086 657930 male
1.205643 0.08431999 -1.28737 -0.833155 -0.5522828 0.02892044 7499899 male
1.275156 0.4547928 -1.545802 -0.5219455 0.5682204 -0.636159 9999008 male
1.181345 0.4173964 -1.308692 0.6888528 0.5672675 0.4513196 12757164 male
1.664505 0.3254281 -1.120029 -0.6572887 0.4306314 0.6184886 526600 male
1.543968 0.4809202 -1.385505 0.7240387 0.1504148 -0.6731592 16763854 male
1.28498 0.2933689 -1.318116 0.3206287 0.3220969 0.8907586 8222598 male
1.752543 0.2711842 -1.03589 0.4179004 0.8444907 0.3349547 526600 male
1.315447 0.1518057 -1.077138 -0.4086952 -0.4453267 0.7966507 9608105 male
1.687433 0.4005181 -1.200576 -0.05513412 0.6609861 0.7483699 526600 male
1.252115 0.6215455 -1.393541 -0.2802233 -0.06178299 0.9579445 13352130 male
1.153978 0.3713965 -1.37082 0.06553769 -0.6556501 0.7522152 526600 male
1.475537 0.1288745 -1.16077 -0.276861 0.002520995 0.9609066 4079172 male
1.295301 0.3483392 -1.334149 0.5777072 0.2188444 0.7863597 15000056 male
1.73673 0.3334514 -1.210572 0.8944993 -0.326666 -0.3052218 526600 male
1.798255 0.2504561 -0.9868014 0.5067897 0.8620677 0.001878157 526600 male
1.114718 0.4210113 -1.330199 -0.8850684 0.3428167 0.3148502 6117983 male
1.342775 0.4062354 -0.9970181 -0.8374758 0.1964689 0.5099355 591879 male
1.554088 0.341881 -1.414539 0.7711625 0.2869285 -0.5683137 12162712 male
1.365431 0.3189929 -1.38801 0.5244317 0.1974838 0.828234 15654105 male
1.743431 0.2604353 -1.062296 0.9937353 -0.1081075 0.02833772 526600 male
1.263274 0.3341265 -1.56275 -0.6248167 -0.189371 -0.7574582 15526907 male
1.237967 0.6688441 -1.537977 -0.0496251 0.4280053 -0.9024128 4802633 male
1.117976 0.4404433 -1.373876 -0.9165816 0.3789357 -0.1276161 8815758 male
1.257809 0.6927846 -1.514637 0.166939 0.7612345 -0.6266207 5262410 male
1.321094 0.6081373 -1.508214 0.618382 0.09130801 -0.7805552 14659501 male
1.376346 0.3178408 -1.026667 0.4372803 -0.8820167 0.1755913 2632492 male
1.331273 0.3893159 -0.9944123 -0.8530418 0.01675339 0.5215735 1051664 male
1.194344 0.2677115 -1.324437 -0.6342726 0.1280233 0.7624357 657930 male
1.231417 0.198795 -1.462919 -0.5665888 -0.506772 -0.649738 11643326 male
1.333964 0.1378813 -1.079402 -0.1471147 -0.6171474 0.7729725 7765388 male
1.502379 0.0567934 -1.289406 0.7168849 -0.5175694 -0.4671168 4145737 male
1.174588 0.6594441 -1.4674 -0.955626 0.2794983 0.09305713 526344 male
1.355065 0.574815 -1.417717 0.9572118 0.1428069 0.2516977 12426907 male
1.474708 0.2023302 -1.212675 -0.5914745 0.7621572 0.2632003 4474709 male
1.428429 0.07686073 -1.371985 0.6635682 -0.2241843 -0.7137357 3814978 male
1.763268 0.1797456 -1.006427 -0.9797573 -0.1792412 -0.08915246 526602 male
1.561858 0.2339764 -1.444962 0.953342 0.03383214 -0.2999908 16372429 male
1.395033 0.1032682 -1.14101 0.842124 -0.4833338 0.2391978 5855587 male
-2.53236 0.3443441 -1.427882 0.810654 -0.5731541 -0.1197273 5065029 male
-2.598312 0.05067848 -1.376277 -0.0590027 -0.04237008 -0.9973584 3223601 male
-2.72373 -0.3063412 -1.313894 0.9863462 -0.06958649 0.149262 2171945 male
-2.604805 0.1143475 -1.220978 0.1970551 -0.29983 0.9334192 1908003 male
-2.548654 0.3307886 -1.44405 0.6839042 -0.6716455 -0.2848989 5788496 male
-2.776803 -0.1877601 -1.372252 -0.4008207 -0.02110487 -0.9159136 2566703 male
-2.772725 0.3636507 -1.354985 -0.9234352 0.340741 0.176531 4603965 male
-2.610474 0.3602841 -1.523502 0.1973506 -0.5157414 -0.8337049 16640953 male
-2.569754 0.6164946 -1.763174 -0.6155132 -0.3701325 -0.6958058 14929599 male
-2.696836 0.05113846 -1.320187 0.993357 -0.1109416 -0.03056443 1842205 male
-2.53744 -0.3245935 -1.346388 0.8989837 -0.03869614 -0.4362696 2434090 male
-2.573738 0.6562739 -1.776037 -0.733403 -0.06743886 -0.6764411 14929606 male
-2.759428 0.3718537 -1.443141 -0.927251 -0.1269496 -0.3522636 3223085 male
-2.630476 0.3004481 -1.46116 0.1543007 -0.6997349 -0.6975403 7892842 male
-2.630905 0.3316454 -1.250202 0.0178574 0.6809441 0.7321177 8090477 male
-2.6243 -0.07744008 -1.285322 -0.6044645 -0.2109986 0.7681813 2500398 male
-2.792709 0.004469849 -1.28846 -0.775684 -0.2621276 0.5741113 2235940 male
-2.459814 0.485981 -1.560333 0.2685116 -0.8055877 -0.5281384 6709342 male
-2.538986 -0.4480457 -1.406674 -0.6254743 -0.7234116 -0.2923315 2500134 male
-2.471931 0.4564711 -1.533011 0.7624074 -0.6307039 -0.1447331 4867138 male
-2.526619 0.5374681 -1.679276 0.6246352 -0.7764711 -0.0832091 13416877 male
-2.576535 0.1238464 -1.370943 0.3473837 0.1181498 -0.9302502 4144968 male
-2.645594 -0.4591112 -1.470245 0.9466431 -0.3222528 -0.004489481 2631976 male
-2.505737 0.33165 -1.813037 0.429662 0.5671696 0.7026445 16376023 male
-2.726458 -0.203557 -1.352468 0.7147231 0.003244675 -0.6994002 2237482 male
-2.651078 0.5930786 -1.527664 -0.09153026 0.9249124 0.3689978 16771014 male
-2.61537 0.5735489 -1.479853 -0.3021447 0.8422481 0.4464603 8288882 male
-2.492849 0.4242954 -1.456825 0.942184 -0.334462 0.02060843 3882555 male
-2.728549 0.0500876 -1.389342 0.5350401 -0.04271026 -0.8437465 3686215 male
-2.363951 0.4565782 -1.559577 0.8168339 0.1581231 0.554779 7827567 male
-2.683305 0.2809989 -1.222705 -0.1835653 0.3658428 0.9123942 9735305 male
-2.638816 0.5032563 -1.620328 0.372008 -0.05908659 -0.9263473 6904664 male
-2.542441 -0.2124334 -1.28073 0.7905219 -0.05121463 0.6102887 2368292 male
-2.432367 0.4762484 -1.597538 -0.5617604 -0.08573544 -0.8228457 7236453 male
-2.517748 0.5316897 -1.704538 0.1915941 -0.9291304 0.3162411 11839899 male
-2.749676 0.4941303 -1.606662 -0.8914376 -0.4271723 0.1512049 6052437 male
-2.632046 0.1851036 -1.369573 0.08664522 -0.09716935 -0.9914893 2895152 male
-2.460527 0.4924966 -1.48786 0.3510529 -0.9359481 0.02762446 592137 male
-2.769133 -0.06822005 -1.387618 -0.6142142 -0.07815464 -0.78526 3289397 male
-2.673803 0.586055 -1.521494 -0.1938249 0.9166021 0.3496749 4801857 male
-2.633163 0.5669969 -1.472743 -0.08618083 0.8379205 0.5389455 10195852 male
-2.566083 0.3301575 -1.804142 -0.3166937 0.9170766 -0.2422308 16701382 male
-2.589189 0.6830356 -1.753898 -0.8538089 0.1298218 -0.5041398 8090995 male
-2.742899 0.2639388 -1.222546 -0.1863529 0.2604169 0.9473414 11445665 male
-2.461823 0.6969564 -1.698098 0.947697 0.2712283 0.1682433 3881270 male
-2.739991 -0.07123511 -1.394532 0.2449211 -0.1869921 -0.9513401 4145994 male
-2.64068 0.4805813 -1.679886 0.8524704 0.4941281 -0.1706809 6578779 male
-2.839931 0.1274586 -1.31708 -0.9936197 -0.1098141 -0.02570826 1972767 male
-2.741824 0.2958977 -1.237022 -0.199618 0.5064028 0.8388737 8748152 male
-2.74091 0.4255092 -1.515148 -0.8309788 -0.2716189 -0.485487 3946035 male
-2.639098 0.2770943 -1.213956 0.04979178 0.3650384 0.9296601 9339773 male
-2.729937 0.03547014 -1.390105 0.484646 -0.06513934 -0.8722817 3883594 male
-2.543316 0.2359416 -1.28852 0.9747401 0.09522947 0.2020234 5590860 male
-2.735583 0.2817392 -1.417351 -0.3680495 -0.2719814 -0.8891378 6970971 male
-2.319374 0.3222569 -1.604214 -0.8800269 0.470602 -0.06392696 16775147 male
-2.470635 0.7182032 -1.716215 0.8180356 0.5662201 -0.1010581 3354670 male
-2.626434 -0.1431316 -1.308471 -0.9915241 -0.05165828 0.1192136 1973534 male
-2.565959 0.6029392 -1.574458 -0.04153743 0.9832155 0.1776567 8419191 male
-2.691872 0.5911248 -1.597758 -0.4331264 0.8186076 -0.3772044 4933187 male
-2.808895 0.1287644 -1.256392 -0.6524464 -0.2837381 0.7027137 3355963 male
-2.546064 0.2012039 -1.268115 0.9392887 0.07891221 0.3339309 2699056 male
-2.755435 -0.3979156 -1.34037 0.9506197 0.1646145 0.2631054 1777186 male
-2.805342 -0.1918043 -1.324661 -0.9958839 -0.08765165 -0.02308023 1973534 male
-2.517255 0.5453855 -1.579292 0.5456427 0.1893466 -0.8163469 4801085 male
-2.658633 -0.0126708 -1.307786 -0.9887557 -0.1493909 0.006698072 2170657 male
-2.797842 -0.4586596 -1.320923 0.04764884 -0.9883969 0.1442257 1052688 male
-2.676966 0.5177387 -1.702294 0.4259922 0.3642029 -0.8281831 5328457 male
-2.538725 -0.4518728 -1.379916 -0.270541 -0.9185309 -0.2882854 789260 male
-2.771695 -0.3658771 -1.307796 -0.6012892 -0.2626459 0.7546315 3026994 male
-2.80935 -0.439926 -1.351695 -0.9762981 0.05849999 0.2083752 2171169 male
-2.342304 0.3330362 -1.59776 -0.9661666 0.01162938 -0.2576573 16704990 male
-2.281859 0.3435708 -1.742765 0.7267194 0.6810526 0.08970186 15980745 male
-2.457585 0.5029058 -1.586759 -0.03485307 -0.3401017 -0.9397427 8156271 male
-2.531506 0.728685 -1.767477 -0.05543309 0.7713179 -0.6340314 10786699 male
-2.682995 0.4053514 -1.566466 -0.4479849 -0.7014015 -0.5543875 5393738 male
-2.540681 0.5015965 -1.597618 0.4252929 -0.2493438 -0.8700309 7695462 male
-2.797545 -0.2327542 -1.340071 -0.9358364 -0.2145187 -0.2796288 1908256 male
-2.559991 0.2388903 -1.335705 0.6854647 0.1173356 -0.7185894 8814718 male
-2.334744 0.4176322 -1.621532 0.4315278 0.7754667 -0.460907 16636876 male
-2.557462 0.6067023 -1.601996 0.02386433 0.7212956 0.6922163 16772834 male
-2.540643 -0.2781454 -1.345025 0.7774345 -0.03878377 -0.6277673 2367780 male
-2.636295 0.3895693 -1.30424 -0.05508429 0.5104467 0.8581434 9668995 male
-2.261296 0.2982042 -1.65932 0.8918901 -0.4346408 -0.1249793 15189958 male
-2.414666 0.5462595 -1.529579 0.6618221 0.6956804 0.2793214 12300970 male
-2.541988 -0.2447746 -1.349716 0.6831139 -0.04174392 -0.7291181 2566703 male
-2.699147 0.06438932 -1.347646 0.9436256 -0.06757219 -0.3240449 2828590 male
-2.54982 -0.1328648 -1.291439 0.8498504 0.2859445 0.4427081 2565929 male
-2.572546 -0.05400241 -1.36782 0.6438724 0.07138488 -0.7617958 3554629 male
-2.505653 0.6805921 -1.795464 0.2696854 0.2324863 -0.9344625 9932935 male
-2.589828 0.3478515 -1.274575 0.4137955 0.7119325 0.5673848 6510423 male
-2.715949 -0.4634896 -1.440574 -0.9475724 -0.3186828 0.02341211 264458 male
-2.379747 0.4967824 -1.550548 0.8652728 0.2691026 0.4229505 10130314 male
-2.701534 -0.065385 -1.328786 0.984996 -0.1107341 -0.1323677 1972766 male
-2.433487 0.3499156 -1.897552 -0.7226297 0.07484358 -0.6871718 15388097 male
-2.790828 0.3224971 -1.383313 -0.7274657 0.441172 -0.5255104 2763046 male
-2.722124 0.008081825 -1.383938 0.5617311 -0.02109364 -0.827051 3948873 male
-2.552428 -0.0003871339 -1.302427 0.9261944 -0.2026139 0.3179806 2171174 male
-2.769228 -0.1465466 -1.278647 -0.2459914 0.1939896 0.9496613 2763824 male
-2.457449 0.6811891 -1.729215 0.9815873 0.1472245 -0.1217026 4077361 male
-2.550832 -0.1216782 -1.297994 0.8966693 0.2726489 0.3487792 2566447 male
-2.749197 0.02101015 -1.26263 0.1048799 -0.2445126 0.9639575 3749945 male
-2.43762 0.560698 -1.529448 0.6159662 0.7872718 0.02808636 7695979 male
-2.776186 -0.203433 -1.278648 -0.4105141 -0.1509707 0.8992698 3224117 male
-2.78297 -0.3936338 -1.374631 -0.7843572 0.3383203 -0.5199263 2500646 male
-2.394495 0.5312332 -1.567618 0.8318458 0.5388886 -0.1327851 9998727 male
-2.606125 -0.1252173 -1.353697 -0.456796 -0.3182193 -0.830707 2171170 male
-2.597246 0.2935564 -1.711341 0.6132753 -0.02022542 0.7896104 14599101 male
-2.570735 0.4261862 -1.56863 -0.001632988 -0.5878463 -0.808971 9144705 male
-2.73624 -0.3413549 -1.322545 0.9972023 0.01289474 0.07363099 2565671 male
-2.71247 0.3975891 -1.324463 -0.279835 0.4529054 0.8465042 6511705 male
-2.595793 0.7090342 -1.677109 -0.883912 0.3486567 0.3116704 4471612 male
-2.431621 0.526034 -1.600805 0.07815549 0.09694038 -0.9922169 7499882 male
-2.595389 0.7164063 -1.711937 -0.8799545 0.4551259 -0.1361642 4998462 male
-2.579253 0.6305278 -1.759266 -0.8434071 -0.2091468 -0.4948963 12825255 male
-2.567682 0.002887028 -1.273551 0.7516726 -0.1933053 0.6305724 2959661 male
-2.541392 -0.1531181 -1.29728 0.9250761 0.2410448 0.2934826 1711394 male
-2.517389 0.374969 -1.4079 0.9068714 -0.3052041 0.2905772 3355441 male
-2.647425 0.4393506 -1.347394 -0.3525603 0.5841191 0.7310993 8551031 male
-2.535181 0.09228987 -1.296984 0.9819377 -0.05506444 0.1810151 2302501 male
-2.8192 0.1699263 -1.257832 -0.8380597 -0.1499239 0.5245751 3814714 male
-2.53765 0.7026718 -1.628333 -0.102528 0.4090122 0.906751 6313295 male
-2.559885 0.5731825 -1.752071 -0.6503755 -0.4878213 -0.5822736 16771294 male
-2.725843 0.1600949 -1.37851 0.5470588 0.06663612 -0.8344378 3027253 male
-2.706442 0.2366704 -1.402325 -0.263111 -0.3242847 -0.9086322 7299678 male
-2.765028 -0.4573272 -1.388394 0.4433177 -0.896248 -0.01445544 592137 male
