# .PCD v0.7 - Point Cloud Data file format
VERSION 0.7
FIELDS x y z normal_x normal_y normal_z rgb label
SIZE 4 4 4 4 4 4 4 4
TYPE F F F F F F U U
COUNT 1 1 1 1 1 1 1 1
WIDTH 247
HEIGHT 1
VIEWPOINT 0 0 0 1 0 0 0
POINTS 247
DATA ascii
1.360445 0.2925435 -1.214735 0.5324476 0.02234618 0.846168 7828352 male
1.524081 0.2119672 -1.112173 -0.1153891 0.9458826 -0.3033009 4541269 male
1.823355 0.2687207 -1.374633 0.4549567 0.8108692 0.3681108 526600 male
1.522218 0.05034762 -1.172876 0.628786 -0.7770177 0.02952668 10661054 male
1.362273 0.1964813 -1.222249 0.3366928 0.6983519 0.631619 8419464 male
1.694423 0.2869866 -1.408629 0.214614 0.8152242 0.5379129 657162 male
1.414653 -0.0008995676 -1.326782 -0.2239806 -0.9731138 -0.05368545 5790568 male
1.3369 0.1422033 -1.418315 -0.3608287 -0.005337608 -0.9326168 6973810 male
1.459574 0.5977768 -1.315422 0.940051 0.007075693 -0.3409607 15646389 male
1.564028 0.1962741 -1.363393 -0.3158999 0.9476555 0.04643619 8686492 male
1.712227 0.2049074 -1.00573 0.1361643 -0.8838888 0.4474368 526600 male
1.458855 0.6725803 -1.309254 0.8078813 0.307154 -0.5029754 15647426 male
1.289888 0.3011384 -1.458532 -0.4689818 -0.2656577 -0.8423077 8224388 male
1.43265 0.1976417 -1.273514 0.5277831 0.8375574 0.1412185 14408683 male
1.280413 0.08810966 -1.241391 -0.8492948 -0.5187055 0.09819901 11118775 male
1.609934 0.3075961 -0.9683934 0.01411125 0.5657096 -0.8244838 526600 male
1.617674 0.1509117 -1.426308 0.1449868 -0.1177921 -0.9823969 3026998 male
1.272441 0.4653729 -1.150014 0.2186514 -0.4085712 0.8861496 15327467 male
1.845495 0.1898763 -1.064061 -0.1163569 0.983158 -0.1409309 526600 male
1.238422 0.4985043 -1.222583 -0.5121207 0.8403707 0.1775086 10921911 male
1.404653 0.5134404 -1.307636 0.6581947 -0.6809455 0.3210808 11900046 male
1.49559 0.1642768 -1.197293 0.14397 0.8291114 -0.5402285 4343375 male
2.048029 0.1997455 -1.317657 -0.1017172 0.8282043 0.5511181 526600 male
1.203491 0.3498859 -1.590547 0.1722426 -0.1074759 0.9791739 16638180 male
1.882578 0.1717102 -1.351174 -0.499718 -0.8481432 0.1758836 526600 male
1.271017 0.4761045 -1.426927 -0.7642764 0.5417069 -0.3499075 12301507 male
1.211064 0.4285167 -1.310149 -0.9031191 0.2625867 -0.3397412 14472937 male
1.286834 0.3719523 -1.199168 0.1256263 -0.2321702 0.9645284 526600 male
1.616457 0.2205193 -1.366065 -0.237767 0.9494737 0.2048571 986895 male
1.157232 0.1009905 -1.193585 0.04410857 -0.436442 -0.8986505 10719377 male
1.340103 0.02633989 -1.248644 -0.530054 -0.8478951 0.01079856 7963026 male
1.291026 0.5276068 -1.335275 -0.7177497 0.6939121 -0.0576323 14605038 male
1.67375 0.2257602 -0.9625656 0.1932886 -0.806992 0.5580354 526600 male
1.210068 0.4361088 -1.170549 -0.5339399 0.353536 0.7680629 15512240 male
1.430641 0.5657638 -1.234656 0.3314847 -0.3961253 0.8562725 14068645 male
1.337507 0.4988198 -1.505148 0.3378486 0.3208229 -0.8848338 12431021 male
1.429015 0.1029581 -1.097426 -0.5396994 -0.09969906 0.8359334 3882305 male
1.246028 0.4456472 -1.219763 -0.9401451 -0.2724962 -0.2046292 592139 male
1.6571 0.1681472 -1.434063 0.08490288 -0.3521655 -0.9320788 526344 male
1.245732 0.358888 -1.419106 -0.9025484 -0.06084901 -0.4262672 12301507 male
1.270632 0.4915914 -1.343352 -0.7861823 0.5786124 -0.2170827 15395322 male
1.151306 0.3995995 -1.641244 -0.3389629 -0.1180324 -0.9333662 12423828 male
1.338987 0.5925438 -1.349456 -0.4260057 0.2066089 -0.8808132 13941433 male
1.312481 0.07442135 -1.34008 -0.8052231 -0.535854 -0.2539216 10328235 male
1.348524 0.6578056 -1.220459 -0.4236965 -0.04954892 0.904448 12431281 male
1.636014 0.1999942 -1.425723 -0.01826099 0.4492516 -0.8932186 987410 male
1.307108 0.4948534 -1.515726 0.1229285 0.6562701 -0.7444449 15382193 male
1.304989 0.486333 -1.44189 -0.7927813 -0.2464879 0.5574419 3027764 male
1.310726 0.09013166 -1.365631 -0.8162067 -0.46767 -0.3392512 11841219 male
1.383024 0.3859952 -1.443535 0.5699216 -0.4153289 -0.7090073 592137 male
1.319275 0.04658931 -1.228086 -0.6646752 -0.6900555 0.2864093 8028302 male
1.890695 0.2294751 -1.370981 0.4833492 0.8754156 -0.004592344 526600 male
1.382102 0.09234077 -1.140982 -0.5412185 0.02091534 0.8406218 3618616 male
1.416709 0.2496675 -1.309922 0.9648381 0.1438386 0.2199951 12495822 male
1.146971 0.3375338 -1.231997 0.9885419 -0.07288838 0.132182 12558502 male
1.311896 0.6082708 -1.269981 -0.8040307 -0.4395152 0.4004511 11708329 male
1.565301 0.1292437 -1.054082 0.1485166 -0.845449 0.51299 8159884 male
1.922844 0.1919331 -1.093795 0.336571 0.8468192 -0.4118461 526600 male
1.398673 0.4680519 -1.399277 0.8207088 0.5668339 0.07166916 15129325 male
1.426711 0.1000478 -1.409297 0.123394 0.1282271 -0.9840385 5525332 male
1.392646 0.1281873 -1.1689 -0.555768 0.7792119 0.2897425 7501961 male
2.010689 0.1865591 -1.348984 -0.2051374 0.8438104 0.4958858 526600 male
1.78299 0.3009742 -1.441078 0.6002153 0.799784 -0.009340137 526600 male
1.410107 0.003748168 -1.346277 -0.2517344 -0.9136327 -0.3192258 3422531 male
1.509655 0.03955716 -1.212988 0.7758756 -0.5853764 -0.2352689 6185835 male
2.047506 0.114118 -1.373929 0.1798614 -0.9202525 0.3475417 526600 male
1.364147 0.5252583 -1.492263 0.3177995 0.7009232 -0.6385219 7631235 male
1.846884 0.1793043 -1.079787 -0.3959426 0.6226469 -0.6749372 526344 male
1.871162 0.2009419 -1.388412 0.5479991 -0.5042028 -0.6674403 526600 male
1.981408 0.1217347 -1.371018 -0.3161455 -0.6031999 -0.732258 526600 male
1.162211 0.3520974 -1.212076 0.8772809 -0.2121649 0.4305394 13149612 male
1.112915 0.1462747 -1.181518 -0.7849298 -0.3048182 -0.5394175 16572641 male
1.270621 0.5101785 -1.23117 -0.1683925 0.9220034 0.3486454 7038830 male
1.426347 0.7236968 -1.285764 0.4814605 0.8676646 -0.1239109 526600 male
1.383954 0.4840927 -1.315439 0.9145228 -0.3894464 0.1094518 13025232 male
1.396178 0.03582165 -1.385509 -0.1797066 -0.6073734 -0.7738238 13290715 male
1.805776 0.272254 -1.456474 0.7075585 0.2175957 -0.6723192 526600 male
1.393537 0.1552376 -1.212748 -0.06771891 0.9344479 0.3496016 6251628 male
1.240075 0.4793848 -1.231216 -0.513142 0.2181461 -0.830119 8289413 male
1.426066 0.7078996 -1.235834 0.3750493 0.6745716 0.6358389 2960173 male
1.738323 0.2308596 -1.005695 0.7982985 0.08558641 0.5961498 526600 male
1.297675 0.06423544 -1.247046 -0.7800038 -0.6244195 0.04116204 9211031 male
1.079494 0.2925551 -1.217628 -0.9934412 -0.1114713 0.02547026 15184047 male
1.245875 0.4776214 -1.15444 -0.4704956 0.0837653 0.8784175 8683658 male
1.712853 0.261594 -0.9921972 0.8010534 0.5402809 0.2577012 526600 male
1.579293 0.1881916 -1.333529 -0.1640672 0.7932175 0.5864196 6119276 male
1.578964 0.2726178 -0.9557821 -0.8920364 -0.369038 -0.2609252 526600 male
1.563469 0.2222676 -0.9997645 -0.4337622 0.08758062 0.8967609 4211016 male
1.45902 0.677209 -1.242409 0.7873624 0.3845081 0.4818858 15970989 male
1.368586 0.0566991 -1.169024 -0.4731769 -0.4732337 0.7430702 2698289 male
1.302629 0.5237719 -1.391275 -0.5646217 0.7539136 -0.3358819 10525864 male
1.245489 0.41559 -1.162729 0.2818105 -0.06686128 0.9571376 16773103 male
1.793836 0.2750418 -1.366605 0.1335642 0.6545104 0.7441618 526344 male
1.320694 0.1841588 -1.720593 0.4679093 0.6076139 -0.6417682 10586505 male
1.463567 -0.007039459 -1.322644 0.2244837 -0.9743388 -0.01645989 8817569 male
1.926228 0.2179642 -1.365007 0.2476262 0.9688435 0.004839569 526600 male
1.492601 0.07973312 -1.089459 -0.05726141 -0.6226652 0.7803904 5132890 male
1.770398 0.2856233 -1.479177 0.5819927 0.1022615 -0.8067385 526600 male
1.407151 0.6373941 -1.21317 0.05045962 -0.159109 0.9859706 12824498 male
1.580943 0.2620751 -0.9438464 -0.7913398 -0.6100212 0.04068983 526600 male
1.544737 0.04870867 -1.269469 0.4005494 -0.2649002 0.8771477 2632238 male
1.340012 0.4574691 -1.221906 0.6223083 0.5676857 0.5389485 10392999 male
1.801969 0.239476 -1.453802 0.4701913 -0.4001269 -0.7866503 526600 male
1.952888 0.1642542 -1.374481 0.2651571 -0.6207752 -0.7377871 526600 male
1.231597 0.4753661 -1.168045 -0.660273 0.3129376 0.6827222 7170421 male
1.660375 0.2969665 -0.927858 0.7788931 0.5208607 0.3493275 526600 male
1.199004 0.3398702 -1.645921 -0.1357953 -0.2133627 -0.9674895 12756392 male
1.414016 0.3174573 -1.399458 0.8915318 0.005385824 -0.452926 10130338 male
1.882555 0.2289485 -1.380778 0.7355937 0.5664409 -0.3715462 526600 male
1.228739 0.3833676 -1.369612 -0.9759925 0.09792627 -0.1945485 10853037 male
1.358526 0.7246575 -1.327857 -0.1865809 0.7949929 -0.5772122 6578276 male
1.233212 0.506125 -1.197723 -0.7241206 0.6896721 -0.001304746 7959421 male
1.387073 0.6913407 -1.351158 0.128778 0.4252146 -0.8958843 4867913 male
1.465033 0.594299 -1.292106 0.8810918 0.171617 -0.4407096 14527142 male
1.590631 0.1710131 -1.055912 0.6372331 -0.6587601 -0.3999614 8487825 male
1.631547 0.2536509 -0.9176163 0.04920927 -0.6893243 0.7227797 526600 male
1.307517 0.2473463 -1.198908 -0.07433859 -0.05322023 0.995812 5722967 male
1.227161 0.390495 -1.356208 -0.9358519 0.1437081 -0.3217596 12434635 male
1.486922 0.03373469 -1.15518 0.3663055 -0.8175865 0.4442662 7106937 male
1.468468 0.03912001 -1.398676 0.04571983 -0.4413691 -0.8961601 4804439 male
1.32626 0.7047274 -1.248431 -0.6800557 0.4965115 0.5394446 526344 male
1.444555 0.5500016 -1.323272 0.5985737 -0.3147429 -0.7366453 12822432 male
1.573719 0.1462624 -1.295838 0.08903915 0.5586186 0.8246316 2763053 male
1.421515 0.1604805 -1.345341 0.5235626 0.7931072 -0.3112287 13091798 male
-2.488236 0.1642012 -1.385657 0.9497036 -0.2236729 0.2191663 4538429 male
-2.545217 -0.06408482 -1.423664 -0.5368888 0.344222 -0.7702351 2565671 male
-2.714854 -0.349369 -1.493647 0.5306507 0.1642926 -0.8315156 2369068 male
-2.570076 -0.08019306 -1.26693 -0.3789811 -0.7422889 0.5526127 3356219 male
-2.495472 0.1580152 -1.371913 0.9263564 -0.3566007 0.1212437 4538429 male
-2.712762 -0.1644942 -1.593792 0.6476973 -0.396791 -0.6504194 2631211 male
-2.745933 0.0804302 -1.236215 -0.8931314 0.240298 0.3802279 8090995 male
-2.484569 0.1394576 -1.569697 0.5608704 -0.7639333 -0.3191088 7895157 male
-2.592154 0.08828359 -1.815024 -0.9572507 -0.2221315 -0.1852803 9799549 male
-2.674371 -0.1343537 -1.478749 0.9692332 -0.2389441 0.05910295 1973534 male
-2.513234 -0.2986718 -1.473103 -0.9308714 -0.2126226 -0.2971034 1841948 male
-2.55476 0.06794256 -1.87178 -0.5235918 -0.5496116 -0.650983 6709083 male
-2.704314 0.2213433 -1.377976 -0.8818591 0.4429955 0.1614923 6576467 male
-2.550204 0.08835176 -1.442079 0.3550259 -0.9222191 -0.1531949 9012607 male
-2.575598 0.1944393 -1.239217 -0.02645041 0.7942237 0.6070496 9472128 male
-2.483777 -0.12675 -1.428373 0.4463009 -0.1976843 0.8727753 3618359 male
-2.769892 -0.06184346 -1.334011 -0.9731863 -0.2022468 0.1095674 2565935 male
-2.429344 0.2996084 -1.630817 0.4099977 0.8846695 -0.2219501 10787219 male
-2.539219 -0.4655386 -1.50686 -0.2663526 -0.9238454 -0.2748927 2434859 male
-2.434135 0.2000518 -1.643591 0.3741233 -0.6925372 -0.6167854 5327432 male
-2.527625 0.09420648 -1.693508 0.6047724 -0.3217092 0.7285286 12035479 male
-2.579628 0.00310753 -1.347655 -0.6282924 0.3210634 -0.7086377 3026995 male
-2.704308 -0.4167029 -1.54023 -0.5967997 0.8017965 0.03086436 2894636 male
-2.655934 -0.2121883 -1.634897 -0.01399872 -0.1834979 0.9829206 10523540 male
-2.761304 -0.2525795 -1.564057 -0.5720459 -0.5049376 -0.6463758 1710618 male
-2.68899 0.204947 -1.62921 -0.4928743 0.7076737 -0.5062341 9932935 male
-2.602609 0.2826461 -1.531138 -0.4820314 0.8760214 0.01523814 9209216 male
-2.499089 0.300953 -1.553642 0.2576667 0.9281606 0.2685623 6577756 male
-2.687345 -0.1885599 -1.556433 0.9543816 -0.009353385 -0.2984436 2236450 male
-2.431885 0.1165065 -1.348281 -0.5978898 -0.2622055 0.7574803 5524043 male
-2.565268 0.08858438 -1.176136 0.218786 0.1835941 0.9583455 3421236 male
-2.572499 0.1016382 -1.620252 0.5210267 -0.8006608 -0.2957592 7893616 male
-2.434327 -0.1870539 -1.465701 0.8702568 0.1314726 0.4747298 2367780 male
-2.362519 0.2419928 -1.541824 0.7498456 -0.344952 -0.5645705 16374219 male
-2.514902 0.05769415 -1.702193 0.5721124 -0.230077 0.7872435 12366244 male
-2.705246 0.04145399 -1.671236 -0.729517 0.08238892 -0.6789825 9209219 male
-2.471734 0.02461693 -1.296088 0.9665911 0.2366201 -0.09855413 3027253 male
-2.396194 0.2855964 -1.508624 -0.215887 0.8250465 0.5221984 15387072 male
-2.747135 -0.125902 -1.496203 -0.3866387 0.02097447 0.9219929 2961202 male
-2.70343 0.1991604 -1.621009 -0.5807682 0.6474627 -0.4934579 10459794 male
-2.662536 0.2438889 -1.570152 -0.3220781 0.9266013 -0.1941025 6183254 male
-2.688006 -0.2545043 -1.681822 -0.976747 -0.1737609 -0.12559 16508382 male
-2.573352 0.0989536 -1.875511 -0.7086755 -0.2517878 -0.6590768 3551278 male
-2.660696 0.1329047 -1.204467 -0.1334065 0.4855744 0.8639564 9735562 male
-2.452334 0.1220872 -1.823506 0.997507 -0.04207117 0.0566566 4472636 male
-2.7562 -0.09744568 -1.473592 -0.8637189 0.2181562 -0.4543101 2434861 male
-2.680194 -0.03488021 -1.680238 -0.371809 0.002385841 -0.9283064 7894640 male
-2.673407 0.02118775 -1.60714 0.2996501 -0.3587179 0.8840427 2039068 male
-2.639014 0.1702475 -1.227185 -0.1675032 0.6924734 0.7017289 9208444 male
-2.671068 0.05532957 -1.584075 -0.2231328 -0.7483991 0.6245883 6510931 male
-2.584476 0.174333 -1.219032 -0.05564336 0.6994469 0.7125152 10260879 male
-2.699373 -0.08657549 -1.48742 0.3012044 0.4790342 -0.8245012 4474961 male
-2.481666 0.06525502 -1.234353 0.9627789 0.1390104 0.2318038 2699313 male
-2.756137 0.1041531 -1.286458 -0.9916773 0.1278546 0.01515162 3750196 male
-2.30989 0.2838918 -1.46598 0.06794032 -0.3487771 -0.9347399 13678503 male
-2.497631 0.1848289 -1.764287 0.5571694 0.6169315 0.5558398 7432551 male
-2.499858 -0.1469446 -1.466597 -0.6486071 0.363572 0.6686737 2763824 male
-2.516269 0.1893435 -1.658568 0.8003024 -0.2780053 -0.5312526 5525067 male
-2.627329 0.1347491 -1.687997 -0.358182 -0.7061158 -0.6108241 3748913 male
-2.748934 0.01618454 -1.218495 -0.8660289 -0.1410228 0.4796945 2499881 male
-2.479905 0.04960471 -1.236883 0.9706082 0.1146702 0.2115909 3420468 male
-2.703362 -0.3864479 -1.449157 0.9516354 0.09026249 -0.2936717 2236708 male
-2.785153 -0.1489058 -1.555111 -0.9781052 0.1728819 0.1158544 2500136 male
-2.749738 0.1065305 -1.260252 -0.9457298 0.1810342 0.2698554 5394250 male
-2.577809 0.01416506 -1.173417 -0.0564383 -0.6318108 0.7730653 2565927 male
-2.780384 -0.4126312 -1.433867 -0.8574951 0.1398855 0.4951108 2632495 male
-2.65716 0.0457311 -1.687469 0.3163552 0.08572897 -0.9447594 7104612 male
-2.547951 -0.4520503 -1.423924 -0.5584557 -0.7891392 -0.2557083 658186 male
-2.753316 -0.2903954 -1.535645 -0.670066 -0.4488057 -0.5912574 2303019 male
-2.718244 -0.3575454 -1.407235 -0.5452683 0.3516075 0.7609565 3355187 male
-2.346176 0.2533958 -1.489317 -0.08055714 -0.9052299 -0.4172163 16243151 male
-2.302467 0.2782613 -1.357587 0.01743317 0.05262812 0.9984623 6510931 male
-2.444924 0.1961492 -1.642569 0.256645 -0.6685076 -0.6980195 9670027 male
-2.529262 0.09940787 -1.897229 -0.1100758 -0.2625819 -0.9586107 4932930 male
-2.589679 0.07623541 -1.508663 0.5278146 -0.8398709 0.1266045 7037791 male
-2.726601 0.1789288 -1.357761 -0.9951664 -0.09103645 -0.03683096 3289393 male
-2.787837 -0.1858116 -1.55184 -0.9993105 -0.02034769 0.03106236 2170658 male
-2.483509 0.1117302 -1.283915 0.9469823 0.1721928 -0.2712463 4867646 male
-2.437323 0.1169147 -1.363782 -0.8974853 0.2335984 -0.3741019 12033430 male
-2.489517 0.08353861 -1.8822 0.5305471 -0.384435 -0.7554666 6708568 male
-2.437214 -0.2517593 -1.497345 0.9308736 -0.2580113 -0.2586594 2434085 male
-2.574314 0.2525773 -1.326227 0.03493802 0.791783 0.6098027 11116184 male
-2.344059 0.2889675 -1.482481 0.6614782 0.7499639 0.0009129643 16504780 male
-2.393685 0.2600317 -1.60601 0.9049338 -0.189106 -0.3812269 14469813 male
-2.434744 -0.2503279 -1.480625 0.980644 -0.1933303 0.03100139 2105120 male
-2.664198 -0.1186114 -1.414263 0.9645791 -0.2529931 0.0747118 1776155 male
-2.471849 0.2787459 -1.575294 0.3481297 0.007755351 0.9374145 657418 male
-2.478265 -0.1324575 -1.534046 0.3157862 -0.1451482 -0.9376628 4342340 male
-2.552899 0.05336176 -1.859583 -0.4973189 -0.714974 -0.4914126 6510163 male
-2.555308 0.2122496 -1.266233 0.1669993 0.8752717 0.453884 7367271 male
-2.640992 0.1883945 -1.682977 -0.1645985 0.5890611 -0.7911476 8484468 male
-2.38675 0.2210303 -1.538159 0.1782555 -0.9301541 -0.3209957 16639704 male
-2.714713 -0.02212894 -1.41609 -0.08061743 0.5835517 -0.8080646 3883595 male
-2.619034 -0.4236639 -1.663932 0.6893182 0.3066614 -0.6563532 15060411 male
-2.641387 0.08601592 -1.403902 -0.3088808 -0.9459999 -0.09837151 6182480 male
-2.704225 -0.07524308 -1.468088 0.1278382 0.518158 -0.8456773 3818058 male
-2.476028 -0.09015381 -1.34374 0.9293165 -0.2759774 0.2453724 2762285 male
-2.746392 -0.1251246 -1.521212 -0.1577576 0.3954746 0.9048275 2697772 male
-2.461883 0.1080934 -1.861445 0.85921 -0.2246103 -0.4596832 3749169 male
-2.476134 0.291757 -1.569907 0.2361778 0.5318079 0.8132654 3158064 male
-2.66572 -0.1029741 -1.316167 0.6301236 -0.7111222 0.3118488 2631464 male
-2.506414 0.2647619 -1.650723 0.1291513 0.6602759 -0.739835 10129801 male
-2.782982 -0.207448 -1.531697 -0.9667608 -0.06509657 0.2472579 1972766 male
-2.745257 -0.3592477 -1.442976 -0.9498876 0.04819435 0.3088548 2368292 male
-2.393466 0.2797784 -1.59848 0.8923634 0.3597634 -0.2725033 10393487 male
-2.468034 -0.2051552 -1.538574 -0.1160866 -0.2325424 -0.9656335 2698031 male
-2.646728 -0.1296649 -1.6299 0.3134711 -0.1094467 0.9432696 13877178 male
-2.590728 0.07735493 -1.476194 0.3878323 -0.9084325 -0.156002 8813168 male
-2.717489 -0.3398065 -1.501618 0.4689107 0.04039301 -0.8823216 2566703 male
-2.651109 0.2389261 -1.332195 -0.2406753 0.7685037 0.5928554 11181211 male
-2.561897 0.2036318 -1.821323 -0.4935408 0.8675708 -0.06114355 4932154 male
-2.4184 0.2985215 -1.624857 0.5836644 0.791142 -0.1828396 9537409 male
-2.579952 0.1715402 -1.857738 -0.7962093 0.4572715 -0.3961741 6511192 male
-2.5676 0.05010885 -1.80838 -0.4642773 -0.8498771 0.2493104 13156021 male
-2.509853 -0.1301991 -1.395431 -0.134839 -0.5522093 0.8227293 3092015 male
-2.463522 -0.1284098 -1.45971 0.6445374 0.1510989 0.7494938 2169889 male
-2.491437 0.236535 -1.429201 0.7907574 0.5081958 0.3412333 3355179 male
-2.63802 0.256843 -1.555511 -0.5000393 0.8475144 -0.177989 9341568 male
-2.484104 -0.06253478 -1.287902 0.8188851 -0.3885733 0.4224194 3223601 male
-2.70742 -0.04537503 -1.214831 -0.2674259 -0.8027071 0.5330521 4539981 male
-2.475347 0.1809902 -1.861788 0.6945596 0.5964639 -0.402266 7037274 male
-2.593012 0.08444926 -1.740865 -0.9416322 -0.2139804 0.2598881 14273217 male
-2.640634 -0.0123705 -1.335364 0.8540738 0.2360949 -0.4634841 2894638 male
