# .PCD v0.7 - Point Cloud Data file format
VERSION 0.7
FIELDS x y z normal_x normal_y normal_z rgb label
SIZE 4 4 4 4 4 4 4 4
TYPE F F F F F F U U
COUNT 1 1 1 1 1 1 1 1
WIDTH 247
HEIGHT 1
VIEWPOINT 0 0 0 1 0 0 0
POINTS 247
DATA ascii
1.33083 0.2044733 -1.219144 0.4433152 0.3863911 0.8088099 8683148 male
1.502908 0.2044561 -1.106672 -0.2459892 0.9648541 -0.09244393 6317426 male
1.845937 0.2404767 -1.350859 0.3853542 0.8349225 0.3929461 526600 male
1.5043 0.04287431 -1.147396 0.4564842 -0.8534523 0.2514782 12238802 male
1.349602 0.1902217 -1.228299 0.3378491 0.681562 0.6491003 8881044 male
1.720187 0.2992676 -1.424975 0.4312297 0.7691948 0.4715721 526344 male
1.380375 0.05230627 -1.404059 -0.0743486 -0.5103399 -0.8567529 11250614 male
1.317982 0.4626574 -1.280964 0.6297721 0.6107056 0.480027 15985918 male
1.390899 0.6069719 -1.32036 0.9427617 0.2568663 -0.2126501 14790567 male
1.565256 0.1907686 -1.353603 -0.2702337 0.9463918 0.176964 6580088 male
1.680455 0.2012375 -1.001143 -0.07359369 -0.9516988 0.2980826 526600 male
1.366876 0.6777636 -1.344573 0.6950223 0.3616099 -0.6214356 14201275 male
1.285855 0.2878299 -1.473727 -0.1652338 -0.3353222 -0.9275004 5328214 male
1.442666 0.1434802 -1.248814 0.4401012 0.8550137 0.2743402 4672080 male
1.232709 0.1396418 -1.255035 -0.7421702 -0.6105121 0.2765113 9736092 male
1.597877 0.2922086 -0.9783598 0.05233032 0.417809 -0.9070266 526600 male
1.614066 0.1427497 -1.420755 0.1813841 -0.1214899 -0.9758791 3026998 male
1.223724 0.4447573 -1.175989 0.4804926 -0.3833285 0.7887878 12432840 male
1.82251 0.1915237 -1.049621 -0.3242287 0.8446323 -0.4259952 526600 male
1.165438 0.4630627 -1.24428 -0.8947503 0.376393 -0.2403131 10855085 male
1.337559 0.4954471 -1.343802 0.9364638 -0.2971563 -0.1863695 15386054 male
1.441805 0.1772788 -1.127229 -0.4946505 0.8569627 0.1446924 9674668 male
2.077712 0.240984 -1.228405 0.804713 -0.05839502 0.5907851 526344 male
1.231052 0.2939441 -1.625903 0.6694552 0.7344482 0.1114254 15184560 male
1.907782 0.1691508 -1.356212 0.2334042 -0.7291591 -0.6433113 526600 male
1.225265 0.4528679 -1.443489 -0.8261951 0.4195364 -0.3760198 12761290 male
1.180323 0.4221152 -1.341458 -0.8076085 0.2641051 -0.5272729 13882082 male
1.290755 0.3629658 -1.205344 -0.07536733 -0.3623435 0.9289924 9078930 male
1.58467 0.2007092 -1.365717 -0.2388522 0.9707464 -0.0245171 8292245 male
1.174051 0.07053307 -1.171405 0.3664007 -0.7293247 -0.5777854 7627880 male
1.331565 0.01590051 -1.251499 -0.5012239 -0.8653169 0.001175866 7963026 male
1.221674 0.4920856 -1.343238 -0.6989824 0.6312822 -0.3360155 15788793 male
1.64929 0.2120076 -0.9753437 -0.09502685 -0.9331704 0.3466452 526600 male
1.148319 0.3551823 -1.177916 0.120079 0.1508006 0.9812441 16767186 male
1.388961 0.5417899 -1.285751 0.5875079 -0.3658519 0.7217942 11572108 male
1.24898 0.478554 -1.518056 -0.4986179 0.6358983 -0.5890785 11831683 male
1.396123 0.1404152 -1.169824 -0.6914796 0.7118917 0.1227444 8488851 male
1.197746 0.4142658 -1.232672 -0.7974635 -0.6027445 -0.02740565 855309 male
1.634557 0.1497295 -1.421482 0.1886108 -0.2306837 -0.9545738 1380885 male
1.229447 0.4614879 -1.443113 -0.8270308 0.455275 -0.3297645 10788016 male
1.218958 0.4696305 -1.361742 -0.8524947 0.4453759 -0.273666 15395322 male
1.156372 0.3513624 -1.661993 0.1563217 0.2581708 -0.9533684 14071475 male
1.275653 0.6092091 -1.377388 -0.3006692 -0.2610712 -0.9173003 11443871 male
1.302096 0.06349874 -1.337811 -0.7812777 -0.5663173 -0.2624688 10065313 male
1.263979 0.652983 -1.245121 -0.4214778 -0.07258217 0.9039294 12431281 male
1.603961 0.1946906 -1.398453 -0.122995 0.7977953 -0.5902498 7040892 male
1.27055 0.4102306 -1.561568 0.8330626 0.1108484 -0.5419587 15514290 male
1.245697 0.4144722 -1.491932 -0.1073462 -0.7248121 0.6805324 724494 male
1.278529 0.08963163 -1.330853 -0.8194402 -0.4948674 -0.2891781 12631246 male
1.35898 0.3753121 -1.445292 0.5581783 -0.3551354 -0.7498773 2237480 male
1.309563 0.03557846 -1.231562 -0.6473602 -0.7116606 0.2728807 8028302 male
1.980129 0.1942545 -1.370465 0.5389502 0.5056317 -0.6736981 526600 male
1.369454 0.1085226 -1.141875 -0.5826976 0.4488166 0.6775153 5526364 male
1.394409 0.2479539 -1.31183 0.9283656 0.2725294 0.2527154 13550814 male
1.111383 0.2995545 -1.249802 0.9945463 -0.04553145 -0.09383243 15387345 male
1.238342 0.594183 -1.291773 -0.7124974 -0.5600318 0.4227433 11708329 male
1.563779 0.1300748 -1.058494 0.3244964 -0.9086066 0.2629375 5592924 male
1.931814 0.2104308 -1.119567 0.5257582 -0.6396884 -0.5606932 526600 male
1.330053 0.4805402 -1.413142 0.6095383 0.7905423 0.05921087 13813979 male
1.418639 0.09439131 -1.410916 0.1439015 0.1344118 -0.9804213 5525332 male
1.392347 0.05106261 -1.136482 -0.3990831 -0.4301451 0.8097579 3026486 male
2.026157 0.1836189 -1.343496 -0.2508157 0.849054 0.4649717 526600 male
1.759929 0.2646125 -1.470748 0.4660336 -0.05339939 -0.8831542 526600 male
1.392273 0.01011508 -1.370142 -0.2135252 -0.7780768 -0.5907652 5396843 male
1.49918 0.03316649 -1.212698 0.7737954 -0.588089 -0.2353554 6185835 male
2.045829 0.1175441 -1.355978 0.3567088 -0.5422844 0.7607145 526600 male
1.306547 0.5019778 -1.514675 0.2240671 0.489313 -0.8428326 7169909 male
1.871306 0.162864 -1.064602 0.001417756 0.04467239 -0.9990007 526344 male
1.866729 0.2026609 -1.387045 0.633456 -0.2584955 -0.7293242 526600 male
1.998427 0.1094146 -1.363526 -0.3482429 -0.7276103 -0.5910245 526600 male
1.110674 0.3140899 -1.229862 0.9451925 0.09510741 0.3123549 13544883 male
1.128354 0.1142348 -1.181886 0.229786 -0.5227577 -0.820928 14205122 male
1.1952 0.4866387 -1.266923 -0.6212298 0.7827786 0.03648543 10327717 male
1.347412 0.7184936 -1.314593 0.4887419 0.8409244 -0.2323305 526600 male
1.352952 0.455391 -1.372355 0.8393544 0.5260767 0.1368481 11315386 male
1.389872 0.0485954 -1.402201 -0.04320121 -0.5068498 -0.8609511 6843767 male
1.781224 0.2422509 -1.459423 0.4210378 -0.2651856 -0.8674121 526600 male
1.378381 0.1614422 -1.217481 0.1461542 0.8611264 0.4869294 3026998 male
1.17624 0.446502 -1.249694 -0.631393 0.1374794 -0.7631791 9474206 male
1.330405 0.7162701 -1.263534 0.2235231 0.7736915 0.5928228 2960173 male
1.686817 0.2719834 -0.9778937 0.7397294 0.6241633 0.2514372 526600 male
1.221789 0.1563437 -1.270422 -0.8156856 -0.5570557 0.156032 10064802 male
1.050877 0.245539 -1.21838 -0.9645561 -0.2474028 0.0917792 14789546 male
1.168354 0.4622137 -1.199009 -0.8237506 0.3918794 0.4097138 6184039 male
1.727788 0.2310904 -1.001425 0.7937052 0.2143978 0.5692676 526600 male
1.573111 0.1811963 -1.329528 -0.1692705 0.7992807 0.5766262 6119276 male
1.583809 0.2405593 -0.9487934 -0.5936864 -0.779962 0.1979793 526600 male
1.607336 0.3048531 -0.9595808 0.5728202 0.7839787 -0.2392787 1513499 male
1.371047 0.6931662 -1.273311 0.734826 0.565895 0.37389 16041149 male
1.332415 0.06399444 -1.181185 -0.4403086 -0.4472642 0.7785134 4607575 male
1.273867 0.5236837 -1.40793 0.07321409 0.9268595 -0.3681998 5986654 male
1.207209 0.3942692 -1.183133 0.6063202 -0.1622739 0.7784876 14988728 male
1.772865 0.2730388 -1.362423 0.008379281 0.6920955 0.7217572 526600 male
1.337981 0.1439786 -1.720608 -0.3345533 -0.4326113 -0.8372106 15322065 male
1.448444 -0.00812077 -1.353361 0.0401102 -0.8927353 -0.4487926 8817570 male
1.899637 0.2195967 -1.355857 0.2932868 0.9468516 0.1321172 526600 male
1.482042 0.07411086 -1.090002 -0.05361295 -0.618646 0.7838385 5132890 male
1.728702 0.2272456 -1.461458 -0.1413849 -0.7043571 -0.695623 526600 male
1.336244 0.6569859 -1.237203 0.1988828 0.03912042 0.979242 15193046 male
1.573904 0.2571965 -0.9693086 -0.8367344 -0.4459281 -0.3178422 526600 male
1.534484 0.04268111 -1.266904 0.3682732 -0.2757965 0.8878689 2632238 male
1.268235 0.4751218 -1.254658 0.4439021 0.7487298 0.4922952 12235970 male
1.717422 0.2187533 -1.426032 -0.6148493 -0.7862217 -0.06177071 526600 male
1.954999 0.1509435 -1.362308 0.09309916 -0.7897389 -0.6063374 526600 male
1.187876 0.4606303 -1.17364 -0.4767974 0.07001427 0.8762203 9012623 male
1.634603 0.2992355 -0.9203155 0.8180658 0.4656448 0.3375547 526600 male
1.17668 0.3026615 -1.662511 -0.1079609 -0.2832526 -0.9529493 13216943 male
1.378404 0.3176608 -1.419556 0.8411597 0.04540227 -0.5388776 7301495 male
1.873326 0.2301738 -1.366995 0.5726719 0.8182331 -0.05041294 526600 male
1.193629 0.3568146 -1.383774 -0.9721368 -0.04759118 -0.2295323 10853037 male
1.263254 0.7142218 -1.356189 -0.3207024 0.7120065 -0.6246573 7433073 male
1.172639 0.481826 -1.225169 -0.7952861 0.5990509 -0.09304816 8815758 male
1.299328 0.7203993 -1.34867 0.1033302 0.8204507 -0.5623021 5262410 male
1.386625 0.6202394 -1.312991 0.9020236 0.4032028 -0.1542102 13213335 male
1.535714 0.1215326 -1.051875 -0.07076487 -0.6350757 0.7692017 4408139 male
1.637589 0.2423733 -0.9289796 0.1698972 -0.65188 0.7390449 526600 male
1.266381 0.1939073 -1.204318 -0.3012671 0.05658952 0.9518592 5459799 male
1.187036 0.3770443 -1.36195 -0.849516 0.06036605 -0.5240977 12235204 male
1.467799 0.03233163 -1.136392 0.1772808 -0.786125 0.5920971 9672867 male
1.461326 0.03370528 -1.3986 0.07171449 -0.4428911 -0.8937027 4804439 male
1.233442 0.6928424 -1.276215 -0.7717113 0.389237 0.5029476 526344 male
1.365981 0.5578953 -1.352218 0.4203206 -0.4321108 -0.7978789 11506830 male
1.546733 0.1526788 -1.303874 -0.1176187 0.7422519 0.6597181 3816771 male
1.410747 0.1546745 -1.347246 0.5046549 0.8089528 -0.3015272 13091798 male
-2.496344 0.1370629 -1.361145 0.9142833 -0.4041763 -0.02697921 5393995 male
-2.508212 -0.07110142 -1.432022 0.1471336 0.4716017 -0.8694503 3882308 male
-2.705897 -0.3303635 -1.507442 0.8390189 -0.05220337 -0.5415925 2302246 male
-2.517269 -0.09760449 -1.272302 0.2883537 -0.6695666 0.6844946 4408907 male
-2.478674 0.1407255 -1.419747 0.9446488 -0.273346 0.181441 4998462 male
-2.758514 -0.1763607 -1.614316 -0.4741737 -0.464343 -0.7480275 2170913 male
-2.74104 0.05535045 -1.234266 -0.8898996 0.2362084 0.3902366 7367013 male
-2.60168 0.04808807 -1.450066 0.1964571 -0.9705195 -0.1396302 8353135 male
-2.594576 0.06081684 -1.813162 -0.9744766 -0.1697075 -0.1469524 6380116 male
-2.678694 -0.1426694 -1.539289 0.926028 -0.182821 -0.3302256 1841692 male
-2.510724 -0.3025474 -1.483673 -0.9338019 -0.20374 -0.2941159 1841948 male
-2.556662 0.02964324 -1.868643 -0.5371068 -0.5618778 -0.6291341 6709083 male
-2.700806 0.1996384 -1.378566 -0.8831609 0.4413072 0.1589809 6576467 male
-2.576862 0.08416401 -1.375132 0.3416727 -0.8247007 -0.450698 8353910 male
-2.553478 0.1380793 -1.209338 0.2735227 0.5534652 0.7866777 7761257 male
-2.512274 -0.1973606 -1.481609 -0.8965287 0.2021881 0.3941531 2237218 male
-2.761983 -0.1024782 -1.39782 -0.9943393 -0.1062524 1.072884E-06 1908771 male
-2.466357 0.2717074 -1.60284 0.1099369 0.9699347 0.2171185 6579036 male
-2.538609 -0.468116 -1.49054 -0.09257239 -0.9526832 -0.2895258 1183764 male
-2.43014 0.1798135 -1.650446 0.4315003 -0.6111286 -0.6635734 6445657 male
-2.528707 0.0614993 -1.691646 0.599898 -0.3088506 0.738061 12035479 male
-2.540711 -0.000791763 -1.370124 -0.2970975 0.5344167 -0.791285 3026480 male
-2.708373 -0.4269473 -1.566963 -0.3382201 0.9064627 0.252849 2106144 male
-2.648962 -0.2547344 -1.634248 0.2251351 -0.1802587 0.9575078 13679031 male
-2.763195 -0.2756749 -1.547528 -0.8527331 -0.4115327 -0.3216945 2105380 male
-2.66913 0.181603 -1.635898 -0.386388 0.7718425 -0.5049391 6840412 male
-2.589205 0.2621165 -1.576719 -0.4641363 0.8632417 -0.1984727 8813950 male
-2.498201 0.271723 -1.551223 0.2889401 0.8851127 0.3648139 6841183 male
-2.663021 -0.09208066 -1.441208 0.8854452 0.1628385 -0.4352822 3224633 male
-2.440198 0.09178902 -1.359017 -0.8676794 0.2200175 -0.445786 12297889 male
-2.546845 0.06503308 -1.181564 0.3882481 0.1478198 0.9096224 3355703 male
-2.571199 0.0720633 -1.618572 0.5302444 -0.8033541 -0.2710408 7893616 male
-2.429167 -0.1925044 -1.47959 0.872548 0.1274206 0.471619 2367780 male
-2.352147 0.2336066 -1.528111 0.8258117 -0.06427152 -0.5602717 16373962 male
-2.529243 0.0332769 -1.692526 0.305284 -0.0003058591 0.9522614 11312787 male
-2.724456 0.02448628 -1.642862 -0.9652182 -0.06064617 -0.2543151 9537410 male
-2.464273 0.004811364 -1.293273 0.9803606 0.1929612 -0.04073608 2894894 male
-2.408797 0.2713557 -1.547082 0.1450336 0.9574082 0.2496693 4932158 male
-2.752982 -0.07655557 -1.424058 -0.8498817 0.2586624 -0.4591243 2696490 male
-2.703228 0.1679351 -1.62201 -0.5895153 0.6255611 -0.5110236 10459794 male
-2.662652 0.2146941 -1.572571 -0.3369052 0.9148274 -0.2226788 6183254 male
-2.686821 -0.297955 -1.681658 -0.9565535 -0.1933658 -0.2182099 16771814 male
-2.573027 0.05801975 -1.874244 -0.6964687 -0.2865596 -0.6578869 3222825 male
-2.655215 0.1137103 -1.205483 -0.1293886 0.4876452 0.8634009 9735562 male
-2.453139 0.0831941 -1.822619 0.9964088 -0.06210653 0.05755538 4472636 male
-2.765039 -0.1327485 -1.524051 -0.7434545 0.1917626 0.640705 2959665 male
-2.659833 -0.04580648 -1.68089 0.08261338 -0.2277817 -0.9702015 5460043 male
-2.671616 -0.01190478 -1.603289 0.2980914 -0.3571441 0.8852061 2039068 male
-2.633846 0.1513489 -1.228416 -0.1654891 0.6938166 0.7008796 9208444 male
-2.675746 0.05203271 -1.534604 -0.6066915 -0.7882779 0.1026817 4801601 male
-2.612529 0.1697633 -1.242787 -0.1718363 0.7829968 0.5978196 10392721 male
-2.700588 -0.3036066 -1.52437 0.7787514 -0.3044868 -0.5484836 2236963 male
-2.476029 0.02355148 -1.232007 0.9588196 0.07470833 0.2740142 2697257 male
-2.75093 0.08343894 -1.28562 -0.9916963 0.1264523 0.02342069 3750196 male
-2.454138 0.2399273 -1.571485 -0.8607777 -0.1672832 0.4807059 5721672 male
-2.497045 0.14896 -1.765608 0.5714725 0.623848 0.5331351 7432551 male
-2.485054 -0.1377531 -1.448441 0.08721048 -0.204804 0.9749103 2500654 male
-2.516325 0.158754 -1.66021 0.8011088 -0.2897041 -0.5237333 5525067 male
-2.619265 0.09321175 -1.678789 -0.5338163 -0.7804137 -0.3255681 3946292 male
-2.715965 -0.07346547 -1.23161 -0.4585006 -0.7531661 0.4717182 3158835 male
-2.47314 0.01366401 -1.240916 0.9663768 0.04975797 0.25227 2499878 male
-2.697958 -0.3876602 -1.452254 0.9483474 0.06744815 -0.309981 2236708 male
-2.756948 -0.1984401 -1.60858 -0.3382605 -0.4053382 -0.8492827 3882563 male
-2.712405 0.131098 -1.380065 -0.9044923 -0.3771362 -0.1991535 2828841 male
-2.568493 0.00611231 -1.174296 0.03565413 -0.4892499 0.8714147 3421492 male
-2.756602 -0.4124511 -1.403912 -0.5326949 -0.6846859 0.4974347 789516 male
-2.637671 -0.02042279 -1.676421 0.6103503 -0.3938915 -0.6872571 6511189 male
-2.522182 -0.4637535 -1.438964 -0.07327533 -0.9967402 -0.03376027 526344 male
-2.742641 -0.3234617 -1.485776 -0.9148292 -0.1707128 0.365985 2040353 male
-2.712576 -0.3578669 -1.411755 -0.5314517 0.375714 0.759209 3355187 male
-2.337826 0.2392764 -1.497931 0.3228367 -0.6912647 -0.6464749 15717318 male
-2.372561 0.1893499 -1.385445 -0.8802416 0.4581341 -0.1236457 16642537 male
-2.444612 0.168483 -1.64424 0.2834412 -0.6848369 -0.671312 9670027 male
-2.53059 0.05955536 -1.895311 -0.1181803 -0.2960978 -0.9478184 4932930 male
-2.573733 0.05510613 -1.520596 0.7027442 -0.7009272 0.121868 8814201 male
-2.719638 0.1473872 -1.368729 -0.9681125 -0.210174 -0.1363287 3222569 male
-2.761914 -0.1472508 -1.538116 -0.5325614 0.4698444 0.7040063 2302763 male
-2.4811 0.1035849 -1.301672 0.9001621 0.1836111 -0.3949625 4604478 male
-2.470142 0.103184 -1.369838 0.04901105 -0.9946808 0.09059882 12164762 male
-2.491202 0.04330605 -1.879813 0.518415 -0.4253107 -0.7418605 6708568 male
-2.433362 -0.2578201 -1.509313 0.9260765 -0.2829653 -0.2496259 2434085 male
-2.578128 0.2152583 -1.300012 -0.03063007 0.7490559 0.6617985 9866629 male
-2.322752 0.273366 -1.474792 0.8977201 0.3118589 -0.3111961 16768726 male
-2.415369 0.2733871 -1.609593 0.5794401 0.8100041 -0.09023666 9801352 male
-2.430857 -0.2559629 -1.49267 0.9767017 -0.2111221 0.03849298 2105120 male
-2.671283 -0.1449827 -1.494464 0.9742763 -0.2168927 -0.06118542 1973534 male
-2.469791 0.2493908 -1.603651 -0.3866771 -0.05098768 0.9208047 526856 male
-2.51564 -0.1919145 -1.504644 -0.984734 0.1410047 -0.102064 1841436 male
-2.557865 0.01612969 -1.853541 -0.5530056 -0.7049462 -0.4441125 7431009 male
-2.534543 0.07791413 -1.188475 0.5578951 0.2458896 0.7926483 8748921 male
-2.644014 0.1470003 -1.689921 -0.2057968 0.4985062 -0.8421042 7563619 male
-2.40173 0.2023565 -1.571376 0.4002354 -0.8257766 -0.3973723 9736844 male
-2.697457 -0.1477215 -1.587692 0.7823955 -0.3503757 -0.5148731 2697257 male
-2.640039 -0.4819017 -1.679187 0.4495505 0.2744575 -0.8500457 14530992 male
-2.660116 0.07853604 -1.391257 -0.4744214 -0.874852 -0.09776741 6773334 male
-2.697951 -0.333706 -1.48284 0.9727354 -0.01344107 -0.2315286 2105635 male
-2.485058 -0.05719466 -1.257827 0.7844825 -0.4313907 0.4455216 2631981 male
-2.769796 -0.199714 -1.600735 -0.6836833 -0.3059249 -0.6625613 4934734 male
-2.463047 0.06799407 -1.859997 0.8536942 -0.2593682 -0.4515912 3749169 male
-2.471455 0.265352 -1.601754 -0.2644513 0.3560805 0.8962547 2763050 male
-2.661265 -0.1200724 -1.321885 0.6293347 -0.7271076 0.2743219 2631464 male
-2.48129 0.2137345 -1.660971 0.2443631 0.2219843 -0.9439332 8947840 male
-2.764128 -0.2432842 -1.580637 -0.6348528 -0.4777293 -0.6072372 1776155 male
-2.740459 -0.3603121 -1.447608 -0.9453501 0.06037065 0.3204201 2368292 male
-2.404825 0.2188473 -1.614314 0.7741755 -0.5913386 -0.2257676 8747375 male
-2.450065 -0.1455642 -1.534622 0.9308974 -0.008590802 -0.3651801 2303530 male
-2.645544 -0.1745733 -1.627417 0.3765862 -0.0338553 0.925763 15257036 male
-2.651672 0.04655505 -1.470476 -0.2591973 -0.9645371 -0.04984993 5722700 male
-2.737323 -0.3621105 -1.480341 -0.8758894 0.01033354 -0.4824018 1777186 male
-2.647134 0.2187085 -1.334228 -0.2435189 0.7814714 0.5744573 11181211 male
-2.560904 0.1670179 -1.823181 -0.4754123 0.8748725 -0.09263529 4932154 male
-2.409897 0.2573766 -1.633289 0.8302819 0.3852462 -0.4027625 9735556 male
-2.579731 0.1340429 -1.858363 -0.7868942 0.4601991 -0.4111138 6511192 male
-2.579297 0.02335117 -1.803532 -0.705713 -0.6493555 0.2833846 13219759 male
-2.505972 -0.1415154 -1.440094 -0.4109307 -0.3792404 0.8290434 2500654 male
-2.446939 -0.1347978 -1.470339 0.9324095 0.01133867 0.3612261 2235938 male
-2.499968 0.2321714 -1.449439 0.6295841 0.70371 0.3292661 4801348 male
-2.629307 0.2315523 -1.570441 -0.6488404 0.714018 -0.2630294 7959409 male
-2.481379 -0.1082599 -1.323186 0.7918038 -0.4428388 0.4206433 2697257 male
-2.712561 -0.06239577 -1.221026 -0.4356384 -0.7599031 0.4824589 3948356 male
-2.47494 0.1411501 -1.862945 0.7063312 0.5672496 -0.4234672 7037274 male
-2.589076 0.03191768 -1.752886 -0.8756841 -0.46324 0.1363311 16771030 male
-2.656833 -0.01017747 -1.356102 0.6621674 0.500775 -0.5574575 3618106 male
