# .PCD v0.7 - Point Cloud Data file format
VERSION 0.7
FIELDS x y z normal_x normal_y normal_z rgb label
SIZE 4 4 4 4 4 4 4 4
TYPE F F F F F F U U
COUNT 1 1 1 1 1 1 1 1
WIDTH 252
HEIGHT 1
VIEWPOINT 0 0 0 1 0 0 0
POINTS 252
DATA ascii
1.34448 0.2007387 -1.313432 0.2266201 0.9431092 0.2432867 11381436 male
1.394035 0.3307608 -1.096403 -0.293879 0.9038797 -0.3108642 8094610 male
1.740065 0.363576 -1.258957 0.5736738 0.6812579 0.4547372 526600 male
1.400716 0.1886454 -1.068528 0.05739367 -0.6387658 0.7672577 2698033 male
1.350419 0.2019457 -1.330944 0.4853393 0.8693939 0.09273548 12433613 male
1.641714 0.2891051 -1.321505 0.4340487 0.1166907 -0.8933 591113 male
1.279596 0.06265375 -1.385957 -0.5875563 -0.6864173 -0.4284961 11380921 male
1.338405 0.007624407 -1.314855 -0.377084 -0.9258482 0.02475388 9802653 male
1.329686 0.5812652 -1.499312 0.3968264 -0.3247716 -0.8585175 10980486 male
1.534203 0.2422903 -1.287739 -0.4883913 0.8679025 -0.09066005 132619 male
1.521551 0.3532528 -0.9459623 0.7416913 0.647707 0.1742692 526600 male
1.325542 0.648098 -1.505161 0.5330696 0.2725862 -0.8009579 15322318 male
1.3381 0.3415821 -1.375098 0.8968991 0.1358543 0.420851 15245272 male
1.408788 0.1162593 -1.357926 0.1785053 0.8058918 -0.5645124 12633553 male
1.306226 0.06351705 -1.172736 -0.5138835 -0.5341382 0.6712824 12436176 male
1.38417 0.395897 -1.036651 -0.5371957 -0.6765062 -0.5037461 526600 male
1.551646 0.09833317 -1.328933 0.6248295 -0.4242153 -0.6554613 3224374 male
1.148589 0.4095468 -1.301473 -0.9772936 -0.143784 0.1556378 8946320 male
1.706759 0.226649 -0.8838694 -0.6397126 0.7656641 -0.0672777 526600 male
1.331364 0.3544444 -1.359226 0.8855957 0.2845172 0.3671105 16317173 male
1.3518 0.481232 -1.442256 0.9855184 -0.09605813 0.1397364 15386054 male
1.437912 0.2321603 -1.151698 0.7771643 0.3364946 -0.5317773 3684672 male
1.866621 0.2115095 -1.038772 -0.3532074 0.9092394 0.2202911 526600 male
1.579208 0.2695969 -1.447687 0.7985382 -0.2426008 -0.5508918 14262167 male
1.768774 0.2255532 -1.16024 -0.8159716 0.2973092 0.4957798 526600 male
1.28896 0.2329593 -1.542328 -0.3196466 -0.4565609 -0.8302879 10591146 male
1.1955 0.433836 -1.476262 -0.6633818 0.3677432 -0.6516819 13420763 male
1.146331 0.4303487 -1.361702 -0.919113 0.3912075 0.04677495 9078418 male
1.789735 0.2533264 -1.152676 -0.5022863 0.7453428 0.4383749 526600 male
1.326699 0.4856055 -1.142885 0.02590664 -0.8200542 -0.5716993 12427932 male
1.25818 0.06381191 -1.351557 -0.6119396 -0.7040857 -0.3602683 14406884 male
1.700575 0.2146778 -0.8356512 0.6319523 -0.7709264 0.0794279 526600 male
1.379727 0.3823975 -1.016801 -0.7743205 -0.5993648 -0.2029527 526600 male
1.148445 0.4030923 -1.309043 -0.9639964 -0.2611673 0.0500249 9736604 male
1.398251 0.6208397 -1.414662 0.9016653 0.3034097 0.308127 13674404 male
1.536413 0.3487806 -1.477473 0.5816236 0.5959423 -0.5536846 14065818 male
1.378166 0.182377 -1.242618 0.3316774 0.6333675 -0.6991678 5395037 male
1.202515 0.2449674 -1.078994 0.6557804 -0.481854 0.5811788 16567753 male
1.6327 0.3412235 -1.259679 -0.4881259 0.0909228 0.8680243 526600 male
1.263272 0.2153593 -1.519353 -0.537605 -0.4352217 -0.7221931 8026243 male
1.246863 0.2568631 -1.529013 -0.6527852 -0.3497831 -0.6719549 10790069 male
1.572739 0.2768052 -1.430092 -0.8571991 -0.0146624 -0.5147763 16041157 male
1.3067 0.5092821 -1.49138 -0.1670301 -0.1466969 -0.9749774 16768472 male
1.388793 0.1821751 -1.43653 0.9887155 -0.09682783 -0.1143071 9275027 male
1.231982 0.6407747 -1.397633 -0.3989707 0.2774181 0.8739918 9933206 male
1.648493 0.3167253 -1.295091 -0.5157238 -0.7531422 0.4084186 526600 male
1.498204 0.4420322 -1.386785 -0.3098126 0.1747739 0.9345962 3417640 male
1.545773 0.2824685 -1.452787 0.1516805 -0.9220223 -0.3561853 16368828 male
1.22417 0.3540064 -1.516306 -0.8730986 0.07223953 -0.4821621 12893390 male
1.397356 0.3255349 -1.488542 0.8652525 -0.3527382 -0.3562496 7564411 male
1.221973 0.2197718 -1.459107 -0.7059172 -0.4224259 -0.5685395 12630481 male
1.735231 0.3530004 -1.242089 0.4678081 0.6983494 0.5417229 526600 male
1.281099 0.1499206 -1.17362 -0.8874837 0.2276627 0.4006772 3685184 male
1.422034 -0.001564616 -1.261909 0.1712668 -0.8616502 0.4777307 8883624 male
1.227628 0.3491173 -1.188994 0.958585 0.2808814 0.04712173 13081503 male
1.223412 0.6678854 -1.418231 -0.5042465 0.6412664 0.5783708 723723 male
1.463826 0.356231 -1.025555 0.2815893 -0.4405344 -0.85243 526088 male
1.587602 0.2985034 -0.8821965 0.1770602 0.2313547 -0.9566215 526600 male
1.321261 0.4420874 -1.563404 0.09576079 0.579638 -0.8092278 7499642 male
1.512945 0.06529602 -1.343074 0.5986892 -0.3800448 -0.7050796 3752266 male
1.291807 0.1616468 -1.140968 -0.8429323 0.0592676 0.534745 4936027 male
1.864176 0.1924745 -1.011115 -0.4139415 -0.05887281 0.9083977 526600 male
1.658271 0.3410538 -1.316361 0.4081709 0.532734 -0.7413441 6777717 male
1.305191 0.05085447 -1.398179 -0.5386178 -0.6989394 -0.4705046 11380405 male
1.352559 0.06076244 -1.157792 0.04348773 -0.5972788 0.8008537 9410213 male
1.916775 0.1440963 -1.133384 0.3869847 -0.7133615 -0.5842587 526600 male
1.527243 0.3529173 -1.457147 0.3745725 0.9215366 0.102302 16369342 male
1.68295 0.2688182 -0.8209286 -0.2958025 0.8531147 0.429763 526600 male
1.768966 0.2393255 -1.156165 -0.6541105 0.4740521 0.5894184 526600 male
1.796339 0.213317 -1.151054 -0.7517886 0.453084 0.4790917 526600 male
1.238843 0.3859999 -1.241871 0.9926552 0.07102196 -0.09793636 13282996 male
1.239147 0.3461446 -1.1258 -0.7549778 0.6006212 -0.2631782 14923449 male
1.393231 0.2248129 -1.400927 0.9800628 0.05785482 0.1900782 11840959 male
1.249503 0.6785734 -1.507692 -0.2357716 0.6781918 -0.6960371 526600 male
1.713304 0.2640693 -0.8372945 0.4312184 0.6310083 -0.644887 526600 male
1.2801 0.05881112 -1.377821 -0.5874741 -0.7015208 -0.4034138 11973317 male
1.689706 0.3882831 -1.306698 0.5540763 0.7574944 0.3452559 526600 male
1.227928 0.1778775 -1.280134 -0.6685842 0.674587 0.3129338 4934223 male
1.320674 0.463285 -1.153764 0.6234024 -0.7814161 -0.02753839 15133430 male
1.249103 0.485429 -1.435916 -0.8149176 0.5611117 0.1451308 14659494 male
1.398183 0.3597325 -0.9925674 -0.6965427 -0.703682 0.1402143 526600 male
1.224538 0.07474507 -1.296508 -0.7805037 -0.6251141 -0.006801337 10196131 male
1.162179 0.296187 -1.106561 -0.6759599 0.6944637 0.2465731 15315884 male
1.213469 0.4071061 -1.223769 0.2572778 0.8875759 0.3821219 14592677 male
1.433022 0.4159484 -0.9527814 -0.02833071 0.3958218 0.9178901 526600 male
1.544697 0.255506 -1.272529 -0.5543429 0.8076881 0.2008578 5791079 male
1.208096 0.3437706 -1.244933 0.4537774 -0.789474 -0.4133001 3486257 male
1.48052 0.3814586 -1.023066 0.7136891 0.09757596 -0.693633 526600 male
1.317711 0.6963639 -1.458985 0.4198885 0.8966173 -0.1406098 13212564 male
1.213053 0.1018375 -1.270628 -0.8763326 -0.3142235 0.3651092 7696502 male
1.759602 0.177725 -0.8972344 0.4337749 -0.2774298 -0.8572468 526600 male
1.170691 0.4001064 -1.236749 -0.79133 0.3923435 0.468896 14397868 male
1.601035 0.3127115 -1.281119 -0.3987772 0.9007586 0.1720778 921358 male
1.550294 0.540868 -1.375869 -0.7669284 -0.5890157 0.2547182 854540 male
1.148863 0.3339902 -1.368313 -0.881397 -0.3559821 0.3105094 7829637 male
1.74189 0.336913 -1.22645 0.4657408 0.681152 0.5649048 526600 male
1.405033 0.1217322 -1.116396 0.3695339 -0.6854702 0.6273558 4935259 male
1.621465 0.3173408 -1.302505 -0.1266331 0.8522897 -0.5075098 7831440 male
1.323038 0.6580992 -1.39718 0.267036 0.7800316 0.5658998 14594472 male
1.184844 0.3589231 -1.28481 -0.07535471 -0.9217418 -0.3804126 12622999 male
1.540468 0.06161958 -1.26532 0.7424439 -0.6608126 0.1100172 12830671 male
1.250043 0.4653385 -1.398688 0.1431393 0.7934656 0.5915433 9076880 male
1.681804 0.3960837 -1.276764 -0.05881912 0.6630625 0.7462496 526600 male
1.824158 0.1917561 -1.163315 -0.1974622 -0.7264118 -0.6582817 526600 male
1.203523 0.4108318 -1.226782 0.05143623 0.8954932 0.4420929 15116968 male
1.337303 0.2359561 -1.08969 -0.7571367 0.1649229 0.6320953 3949389 male
1.567284 0.3103721 -1.469172 0.6670101 0.2729564 -0.6932476 16106939 male
1.347678 0.4745786 -1.439579 0.9642966 -0.1050804 0.2430846 15060438 male
1.762717 0.2964984 -1.23377 0.9692523 -0.08992596 -0.2290483 526600 male
1.266486 0.3041463 -1.558077 -0.5741653 -0.3523981 -0.7390194 14407395 male
1.252386 0.5533751 -1.502915 -0.09300727 -0.7086359 -0.6994174 13616328 male
1.201783 0.4339113 -1.261908 0.2118874 0.7855669 0.5813678 13086128 male
1.260945 0.5714945 -1.517047 -0.01274174 -0.564654 -0.8252294 14933987 male
1.305154 0.5747358 -1.513624 -0.7100035 -0.70401 0.01628014 16563123 male
1.3916 0.3777725 -1.038729 -0.2404372 -0.9220876 -0.3032235 526600 male
1.415673 0.07231946 -1.222265 0.9096032 0.3739961 -0.1809664 526600 male
1.29653 0.2622207 -1.301147 0.29025 0.2336715 0.927983 8684176 male
1.165795 0.3465708 -1.463964 -0.7507851 -0.1281766 -0.6479911 13486295 male
1.388815 0.1850428 -1.069142 -0.1308689 -0.5664051 0.8136697 4607829 male
1.419938 0.1202644 -1.325522 -0.5455935 0.5696846 -0.6146439 7962513 male
1.208463 0.5575723 -1.434762 -0.7276036 -0.6416217 0.2427233 7432812 male
1.405602 0.5989945 -1.420051 0.8796554 0.2312287 -0.4156199 13347494 male
1.645488 0.3748708 -1.269002 -0.3332518 0.5111851 0.792233 4933454 male
1.376782 0.1994067 -1.374433 0.9446911 0.2273397 0.2363796 12433102 male
1.85688 0.1516263 -1.14302 -0.9732487 -0.2116566 0.08937788 526602 male
1.490416 0.320343 -1.43891 -0.6270503 -0.3285318 0.7063106 14935538 male
1.415987 0.100113 -1.148737 0.6847923 -0.5864611 0.4325771 2828851 male
1.48129 0.384736 -0.9437761 0.4249616 0.5237926 0.7382742 526600 male
1.340713 0.1986341 -1.521029 0.3625647 -0.5172453 -0.7752446 4210502 male
-2.462178 0.2331599 -1.374064 0.9793386 -0.007318656 0.2020958 3618095 male
-2.532345 -0.06193481 -1.403404 -0.7292466 0.1637795 -0.6643615 2302760 male
-2.660259 -0.05654953 -1.434852 0.3556919 0.3692977 -0.8585469 4277580 male
-2.488363 -0.03535739 -1.239879 0.4266984 -0.5243536 0.7368731 3223606 male
-2.472258 0.2386225 -1.312738 0.9710494 0.03929383 0.235626 3749937 male
-2.749206 -0.1730087 -1.525143 -0.9484336 -0.0386419 -0.3146121 2764082 male
-2.69722 0.2350894 -1.314093 -0.9253513 0.3457785 0.1554428 5459274 male
-2.496857 0.1759487 -1.510439 0.2882982 -0.9573821 -0.01742136 16767157 male
-2.551295 0.1655555 -1.809175 0.2861402 -0.9346599 -0.2110326 10456198 male
-2.629778 0.003248016 -1.360032 0.7795901 0.2519375 -0.5733821 3026222 male
-2.525706 -0.372273 -1.401759 -0.9662253 0.1953142 0.1681113 2169889 male
-2.577378 0.1905943 -1.860644 -0.6710565 -0.5368842 -0.5113108 5194560 male
-2.669149 0.2856001 -1.358037 -0.7174748 0.5532819 0.423213 4275257 male
-2.544365 0.1243483 -1.338524 0.4946302 -0.3224579 -0.8070701 7433321 male
-2.521574 0.3066217 -1.346188 0.4311826 0.7851821 0.4444894 9735047 male
-2.487591 -0.1129327 -1.362694 -0.01062185 -0.417249 0.9087303 2894893 male
-2.741994 -0.01337933 -1.302061 -0.9895891 -0.1145748 0.08709967 1974566 male
-2.411597 0.2956194 -1.63387 0.4769211 -0.6938797 -0.539516 7366496 male
-2.557831 -0.4564799 -1.464398 -0.9189717 -0.3626368 -0.1548736 2302499 male
-2.443796 0.2264212 -1.529264 0.8619881 -0.5034861 0.05897841 4869450 male
-2.52041 0.1915641 -1.698698 0.7115408 -0.3825195 0.5893969 12035479 male
-2.583912 0.02047754 -1.293197 -0.9172885 0.02470299 -0.3974569 1711392 male
-2.699875 -0.4273283 -1.467801 -0.09688956 0.9659274 -0.2399929 2763050 male
-2.654083 -0.2339165 -1.619485 0.9107066 0.01226298 0.4128722 15848912 male
-2.70681 -0.3308907 -1.382972 -0.3993495 0.1148927 0.9095713 3224626 male
-2.680552 0.2997599 -1.573933 -0.4941202 0.8545935 -0.1597347 10656148 male
-2.596656 0.3434435 -1.498683 -0.5460654 0.8262419 0.1383364 7957353 male
-2.453071 0.2766033 -1.474535 0.994859 0.04941043 0.08840045 4343106 male
-2.658421 -0.004794135 -1.396542 0.3550447 0.4169229 -0.8367311 4409679 male
-2.424091 0.3837264 -1.579794 0.2918804 0.9263912 0.2379185 7496801 male
-2.558532 0.1408411 -1.163552 -0.05764815 0.1933325 0.9794383 11905966 male
-2.591072 0.163574 -1.601663 0.453676 -0.7464984 -0.4867426 9076856 male
-2.426761 -0.1859745 -1.477729 0.8573047 -0.09524685 -0.505922 3355958 male
-2.390038 0.2842088 -1.535705 0.1568439 -0.8589588 -0.4874318 16771807 male
-2.500045 0.1617116 -1.721126 0.7629173 -0.3839622 0.5201254 13350826 male
-2.699495 0.1292172 -1.671403 -0.6036869 0.03979434 -0.7962279 8681843 male
-2.497944 0.103318 -1.307776 0.2444812 0.6286054 -0.7382985 4276289 male
-2.412545 0.335437 -1.493994 -0.6674343 0.2720594 0.6931922 7498085 male
-2.72851 -0.09383362 -1.456567 -0.9165201 0.1354615 -0.3763528 2369064 male
-2.675794 0.3058493 -1.517991 -0.5397527 0.8320042 0.1282033 8025714 male
-2.625056 0.3204249 -1.450816 -0.2200931 0.9243176 0.311763 8089971 male
-2.658884 -0.1702962 -1.649834 0.7348179 -0.01063527 -0.6781812 16505032 male
-2.587056 0.2237081 -1.872288 -0.7410982 -0.2155117 -0.6358682 3551278 male
-2.652656 0.1420287 -1.176202 -0.1664206 0.2659416 0.9495155 11905701 male
-2.46432 0.2524349 -1.826602 0.995935 0.08212946 -0.03699625 4472636 male
-2.695795 -0.09687 -1.498487 -0.2639796 0.3165459 -0.9111058 3553087 male
-2.677726 0.09792262 -1.675777 -0.1428059 -0.3581838 -0.9226652 5986129 male
-2.743 -0.0003652662 -1.311795 -0.9975925 0.03382385 -0.06054282 2697257 male
-2.6339 0.1640072 -1.183422 -0.0826261 0.3933352 0.915675 9866629 male
-2.672693 0.1596753 -1.511062 -0.5812869 -0.8066598 -0.1067965 3289137 male
-2.593973 0.2273439 -1.222826 -0.1515345 0.7571742 0.6353933 10457744 male
-2.681196 -0.02439018 -1.41152 -0.03402394 0.3824574 -0.9233466 4212040 male
-2.450326 0.1305767 -1.256402 0.9574451 0.2115813 -0.1962969 7170917 male
-2.654692 0.1451499 -1.355249 -0.3029956 -0.3791391 -0.8743268 6050899 male
-2.418492 0.3167164 -1.503378 -0.8719722 -0.1649315 0.4609364 15389903 male
-2.508813 0.2968015 -1.752931 0.5457121 0.5709494 0.6133639 7432551 male
-2.508272 -0.1683229 -1.433374 -0.9488573 0.2532308 0.1885319 2170401 male
-2.551666 0.1939186 -1.655283 0.166817 -0.932336 0.3208141 16774127 male
-2.655003 0.2143814 -1.672199 0.04570428 -0.2693512 -0.961957 3420462 male
-2.66225 0.03960786 -1.170145 -0.03947747 -0.7196468 0.6932172 4014149 male
-2.449008 0.09921629 -1.225958 0.9717367 0.09311701 0.216927 2699056 male
-2.687948 -0.380746 -1.355139 0.999928 0.01124952 -0.004205763 2434085 male
-2.737358 -0.149784 -1.47798 -0.716252 0.398767 0.5726851 2564647 male
-2.505456 0.25384 -1.63449 0.6193039 -0.3069555 -0.7226627 4275513 male
-2.555318 0.01344478 -1.183091 -0.3844261 -0.7145271 0.5845236 5724511 male
-2.736876 -0.4070195 -1.329248 -0.6423183 -0.6003057 0.4765086 2565671 male
-2.634855 0.1030861 -1.618513 0.8565148 -0.2732351 0.4378645 4999748 male
-2.526261 -0.4705837 -1.431226 -0.003450904 -0.9911078 -0.1330162 526600 male
-2.699938 -0.2455593 -1.517443 0.274516 -0.4823302 -0.8318647 2632238 male
-2.723313 -0.3667528 -1.359901 -0.7625704 0.1221458 0.6352693 2697514 male
-2.363348 0.3151691 -1.442199 -0.6808162 -0.7199641 -0.1346894 16773612 male
-2.360006 0.2047419 -1.364693 -0.6074741 -0.07401872 0.7908835 10260878 male
-2.44301 0.2382199 -1.56033 0.7867423 -0.5586433 -0.2625918 6775134 male
-2.545764 0.2336977 -1.896932 -0.1798227 -0.09147325 -0.979437 4932930 male
-2.564883 0.1694809 -1.591753 0.4907407 -0.7775079 -0.3932621 8551540 male
-2.69047 0.1971087 -1.359219 -0.8974483 -0.3807287 -0.2227834 2894635 male
-2.742845 -0.2413149 -1.504025 -0.862849 -0.3523127 -0.362447 2039327 male
-2.485359 0.228484 -1.245255 0.6880605 0.6091371 0.3943664 6183254 male
-2.390695 0.3599137 -1.565215 0.7589801 0.6504984 0.02830541 10262156 male
-2.50304 0.2209154 -1.888489 0.4910523 -0.1609575 -0.8561312 6708568 male
-2.436166 -0.272918 -1.429274 0.9613994 -0.2628112 0.08149663 1580065 male
-2.527559 0.3214637 -1.384978 0.2581939 0.8380188 0.4806876 6840669 male
-2.295042 0.3222947 -1.408294 0.5627964 -0.1208311 -0.8177166 16772320 male
-2.446274 0.3795381 -1.581746 -0.002086073 0.8945917 0.4468795 5919826 male
-2.457181 -0.2401145 -1.48358 0.1162984 -0.2722633 -0.955169 2434091 male
-2.620072 -0.05361133 -1.344067 0.9728727 -0.1697682 -0.1571552 1711394 male
-2.441847 -0.1092587 -1.409069 0.999902 0.01382146 -0.002245784 2302507 male
-2.469482 -0.108217 -1.472641 0.4161344 0.1143674 -0.9020823 3816515 male
-2.573283 0.1848801 -1.859467 -0.6320004 -0.5862699 -0.5068169 4932162 male
-2.504594 0.1937706 -1.202161 0.5781797 0.3986004 0.7119173 6840670 male
-2.607611 0.2824443 -1.667551 -0.2264299 0.7777536 -0.5863692 7893359 male
-2.414364 0.3792873 -1.583257 0.4692308 0.867366 0.1658276 9735046 male
-2.630816 -0.08604193 -1.405185 0.9765537 -0.09751057 -0.1919239 2698289 male
-2.659237 -0.3627715 -1.624652 0.2843132 0.2690999 -0.9201911 15713470 male
-2.692307 0.1993133 -1.351796 -0.901817 -0.1771506 -0.3941373 2894632 male
-2.675103 -0.0167544 -1.406383 0.07725352 0.3980442 -0.9141077 4146253 male
-2.454418 -0.0003615234 -1.248561 0.8552019 -0.3287787 0.4006676 2236195 male
-2.750211 -0.2105186 -1.508131 -0.9569886 -0.1793112 -0.2280801 1973793 male
-2.475476 0.2102659 -1.85539 0.8695615 -0.2530623 -0.4240549 6116946 male
-2.444025 -0.1061531 -1.395401 0.9848852 -0.01633627 0.1724369 2631208 male
-2.632605 -0.07349633 -1.30383 0.7263553 -0.6008844 0.3336856 2368292 male
-2.452973 0.3552861 -1.616303 0.2638538 0.7706112 -0.5801203 7695979 male
-2.738957 -0.2166574 -1.456037 -0.8059026 0.07909406 0.5867414 2171941 male
-2.730611 -0.3759764 -1.402505 -0.8380172 0.5095025 -0.1952808 2105894 male
-2.438032 0.3848468 -1.588109 0.005759373 0.9381858 0.3460843 7170149 male
-2.494374 -0.2193554 -1.469794 -0.6116148 -0.08481329 -0.7865967 2697257 male
-2.652987 -0.1870504 -1.639006 0.9667673 0.04835121 -0.2510449 16704727 male
-2.593837 0.1327658 -1.461081 0.09881821 -0.9516604 -0.2908221 8288884 male
-2.654338 -0.0914903 -1.470699 0.7641161 0.02042146 -0.6447556 3158840 male
-2.629275 0.2618142 -1.279635 -0.2605686 0.8107182 0.5242519 9538182 male
-2.591932 0.3053991 -1.795781 -0.7818341 0.5939652 0.1895812 4208440 male
-2.412808 0.3562075 -1.627224 0.5330122 0.6707894 -0.5156935 11905958 male
-2.602423 0.2900661 -1.817878 -0.9155507 0.4019689 0.01372248 4801601 male
-2.542289 0.1546486 -1.80321 -0.7818898 -0.4214034 -0.4594212 14268336 male
-2.50851 -0.1193899 -1.388527 -0.5077516 -0.3246403 0.7979958 2960430 male
-2.425416 -0.1704385 -1.426218 0.9128098 0.1505532 0.3796212 2171429 male
-2.482822 0.2923797 -1.379736 0.668515 0.5630057 0.4859141 3881011 male
-2.590501 0.3142928 -1.392284 -0.4778506 0.8297681 0.2883466 8353393 male
-2.454687 -0.05788328 -1.310086 0.9073847 -0.3245265 0.2670877 2696492 male
-2.708194 0.05181289 -1.19095 -0.7664098 -0.2693025 0.5831746 2632496 male
-2.497854 0.3138384 -1.850746 0.5751792 0.7450368 -0.3377709 7037274 male
-2.586987 0.1691784 -1.764874 -0.8078498 -0.5836611 0.08196753 16771038 male
-2.686525 0.06467225 -1.340646 -0.2321246 0.6284444 -0.7424123 3947841 male
