# .PCD v0.7 - Point Cloud Data file format
VERSION 0.7
FIELDS x y z normal_x normal_y normal_z rgb label
SIZE 4 4 4 4 4 4 4 4
TYPE F F F F F F U U
COUNT 1 1 1 1 1 1 1 1
WIDTH 246
HEIGHT 1
VIEWPOINT 0 0 0 1 0 0 0
POINTS 246
DATA ascii
1.482537 1.021047 -0.711996 0.08281803 -0.09034886 0.9924606 7630976 male
1.43771 0.5973821 -0.8247238 0.7096496 -0.3470286 -0.6131628 526600 male
1.545843 0.4563484 -0.931931 -0.8167105 -0.3479954 0.4603077 526600 male
1.380993 0.7731881 -0.7297171 -0.8586873 -0.03193625 0.5115038 3488065 male
1.491792 1.009426 -0.7143633 0.1943846 -0.01953793 0.9807309 8881044 male
1.594721 0.545598 -0.9843827 0.3754944 0.218534 -0.9006925 526600 male
1.535369 1.263857 -0.7192359 0.8705406 0.02390045 0.4915159 11510974 male
1.430509 1.381343 -0.7293892 0.3461882 0.7984896 0.4925122 15261682 male
1.593905 1.540427 -0.786751 0.9570272 -0.02515591 -0.288905 16175821 male
1.58587 0.7962065 -0.801565 0.1162221 -0.2202069 0.9685047 5923697 male
1.33218 0.3360685 -0.8010394 -0.7894111 0.06049919 0.6108764 526600 male
1.593303 1.58779 -0.7716118 0.9528028 0.2991685 -0.05162328 16040647 male
1.56529 1.102293 -0.9019893 0.4523386 0.1698102 -0.8755309 5328985 male
1.547552 1.101393 -0.7165495 0.6003686 -0.004921666 0.7997082 11644094 male
1.373726 0.9391919 -0.7982478 -0.9911827 0.1064033 0.07896328 4343122 male
1.432539 0.6203553 -0.8353213 0.3358636 -0.1693419 -0.926563 526600 male
1.561492 0.7862912 -0.93933 -0.1087575 0.01427417 -0.9939659 12437462 male
1.384559 1.264258 -0.7054049 0.9499543 -0.1476461 0.2752952 13679808 male
1.3539 0.236863 -0.7583779 -0.02484795 -0.9996912 -0.0001623258 526600 male
1.379238 1.254466 -0.7262996 -0.5532631 -0.333932 0.7631444 4079173 male
1.524825 1.412701 -0.749536 0.2367361 -0.4238136 0.8742644 16570323 male
1.5125 0.8345702 -0.7268465 0.7777995 -0.2657806 0.5695511 4078920 male
1.71955 0.2633187 -0.8406311 0.3007264 -0.945971 -0.1212538 526600 male
1.664866 1.037006 -0.9303595 -0.4020329 -0.049457 0.9142885 14601174 male
1.602927 0.4000236 -0.9337323 0.323394 -0.1128939 0.9395059 526600 male
1.446388 1.284799 -0.894204 -0.7958331 0.08625361 -0.5993413 13880540 male
1.412092 1.344722 -0.8528966 -0.4728126 0.3168324 -0.8222319 14012645 male
1.541964 1.181241 -0.714205 0.6079581 0.1800709 0.7732795 14741724 male
1.533572 0.6650648 -0.8593668 -0.69284 -0.1945148 0.6943607 4736585 male
1.321594 1.28141 -0.7080204 -0.9036707 0.1693968 0.3932987 15908277 male
1.432006 0.9879298 -0.8912539 -0.6015863 0.3059409 -0.7378984 6974583 male
1.583682 1.355488 -0.8160377 0.6918222 0.5691923 0.4442996 12959181 male
1.33053 0.4312336 -0.792398 -0.7587214 -0.08962263 0.6452206 526600 male
1.348825 1.334139 -0.6911236 -0.3273361 -0.05872203 0.9430815 7829378 male
1.526514 1.457542 -0.7075132 -0.3423585 -0.4384106 0.8310155 11900812 male
1.570816 1.339691 -0.9672369 -0.2946153 0.006548149 -0.9555935 9341335 male
1.381614 0.8754236 -0.7386647 -0.8995105 0.09100302 0.4273163 2828851 male
1.344184 0.569641 -0.8375512 -0.7271998 0.4499718 -0.5183684 526600 male
1.614184 0.6269496 -0.8549461 0.51827 -0.3449734 0.7825533 8619667 male
1.444409 1.299995 -0.887599 -0.8091334 0.1796281 -0.559497 12629706 male
1.472171 1.083862 -0.8821787 -0.6629957 -0.09924632 -0.7420154 11116209 male
1.576093 1.174024 -0.940861 -0.7416993 -0.2183961 0.6341808 6451325 male
1.531058 1.526018 -0.8578228 0.3270569 -0.2801681 -0.9025185 12168624 male
1.566145 0.9743745 -0.9332303 0.3640697 0.1191292 -0.9237216 5133408 male
1.47213 1.582748 -0.7308323 -0.6710392 0.1923556 0.7160347 11314087 male
1.590425 0.5654633 -0.8874449 0.100841 -0.4038867 0.909234 526600 male
1.631579 1.28225 -0.9225818 0.9471918 0.2598385 0.1879135 15255233 male
1.640235 0.7843739 -0.9029027 0.8550718 0.02035511 -0.5181099 7303552 male
1.532297 0.9156649 -0.949518 0.01657459 0.1055393 -0.994277 8817823 male
1.605129 1.223813 -0.8685089 0.96338 -0.04711606 -0.263968 3750721 male
1.37897 0.9675695 -0.8459892 -0.8876941 0.1630985 -0.430579 8028302 male
1.564631 0.6809551 -0.8353668 -0.3311882 -0.2710651 0.9037909 5067869 male
1.390656 0.9172573 -0.731224 -0.8435256 0.1403507 0.5184266 3817026 male
1.624923 0.9817714 -0.8783034 0.9548985 0.2166162 -0.2030917 2302499 male
1.335727 1.113712 -0.7177117 0.9984221 -0.008166738 -0.0555568 11309203 male
1.461116 1.619032 -0.7695569 -0.7149259 0.6035311 0.3530313 526600 male
1.420636 0.6696204 -0.8405447 0.0009647608 -0.05434014 -0.998522 7502731 male
1.416109 1.415382 -0.7884852 -0.5421672 0.8394762 -0.03652781 6447467 male
1.52221 1.373721 -0.9209467 -0.2138486 0.5797767 -0.786211 11708858 male
1.511403 0.8757001 -0.9398019 -0.3238774 -0.3945009 -0.8599259 6843516 male
1.444996 0.9364465 -0.7000358 0.06107906 0.1540253 0.9861773 11317693 male
1.593709 0.2950728 -0.9485431 -0.8222563 -0.0799666 0.5634713 526600 male
1.621556 0.4668052 -0.9648854 0.8937497 -0.08833825 -0.4397815 526600 male
1.530733 1.259287 -0.7122358 0.8156912 0.001643918 0.5784851 11840451 male
1.450777 0.7962951 -0.8512638 0.02619493 -0.1237879 -0.9919629 5989227 male
1.669763 0.2789404 -0.9799278 0.5448018 0.1324043 -0.8280459 526600 male
1.634827 1.353846 -0.900264 0.8778044 -0.1036708 0.4676664 13223124 male
1.320051 0.2384624 -0.7526863 -0.1343283 -0.990598 0.02591515 526600 male
1.622976 0.348269 -0.9511634 0.9435192 0.2398375 0.2285815 526600 male
1.570698 0.3248367 -1.008584 0.3750161 0.3605396 -0.8540339 526600 male
1.320596 1.179402 -0.7030727 0.741358 0.3438008 0.5763587 15252155 male
1.282268 1.110899 -0.7384691 -0.7191981 -0.4184051 -0.5546992 16571874 male
1.485808 1.241476 -0.6863534 0.1563726 -0.2407565 0.957906 7630460 male
1.566865 1.625226 -0.7552086 0.5872945 0.7822105 0.2079229 526600 male
1.606793 1.251238 -0.7853995 0.845874 -0.1197321 0.5197704 13352125 male
1.518711 1.254038 -0.699237 0.6415409 -0.04015023 0.7660373 14999798 male
1.539177 0.6042941 -0.9149477 -0.9962846 0.03007618 -0.08069968 526600 male
1.413206 1.025291 -0.7257509 -0.5143782 0.3893739 0.76407 5591899 male
1.349979 1.254968 -0.6834424 0.09941444 0.2083457 0.9729896 16766162 male
1.466866 1.44437 -0.8286167 -0.6671683 0.2161419 -0.7128597 15643044 male
1.378434 0.3846507 -0.8206491 0.9581481 -0.2734034 0.0848684 526600 male
1.377671 1.00586 -0.8209621 -0.9129162 0.2846484 -0.2925052 10985644 male
1.311989 1.065548 -0.6571219 -0.3399986 0.3043165 0.8898271 16437712 male
1.407026 1.346997 -0.6793064 0.4597501 -0.133077 0.8780206 8420232 male
1.382455 0.3945693 -0.8279848 0.9455389 -0.2984432 -0.1299526 526600 male
1.5237 0.7994371 -0.8137158 -0.5661985 -0.2832507 0.7740725 2697261 male
1.329467 0.5232661 -0.8453214 -0.804491 0.1883276 -0.5633178 526600 male
1.444664 0.6716604 -0.7325029 0.3629385 -0.3732973 0.8537709 7896977 male
1.594032 1.585842 -0.7646629 0.9569858 0.2893436 0.02141246 15713222 male
1.390994 1.000077 -0.7388059 -0.8207077 0.199659 0.5353272 7039091 male
1.499394 1.419933 -0.8625368 -0.3617786 0.717437 -0.5953155 10591129 male
1.337149 1.341788 -0.7596419 -0.7990911 -0.07486106 -0.596531 8748941 male
1.527988 0.7338227 -0.8420693 -0.658874 -0.3048911 0.6876963 2829099 male
1.721723 0.933365 -0.9753254 0.0312908 -0.0539102 -0.9980553 13803422 male
1.597952 1.058792 -0.7722102 0.9348537 -0.09635726 0.3417071 12433102 male
1.539867 0.5192364 -0.9112406 -0.6740211 -0.1043029 0.7313114 526600 male
1.395442 0.4556653 -0.8030115 0.8719997 -0.2333172 0.4303251 526600 male
1.593668 0.5069945 -0.9893875 0.3385974 0.03547651 -0.9402624 526600 male
1.512792 1.603362 -0.7154346 -0.2937931 0.4954648 0.8174351 9275016 male
1.323596 0.5194255 -0.8044572 -0.9441613 0.1494093 0.2936604 526600 male
1.523574 0.6542472 -0.8855414 -0.9929934 -0.1164234 0.02023754 526600 male
1.422056 1.28096 -0.6973129 -0.4748951 -0.5485823 0.6881367 657418 male
1.527707 0.5336474 -0.9356875 -0.9925447 0.03511711 0.1167133 526600 male
1.61358 0.320626 -0.9966424 0.5638541 0.07870359 -0.8221158 526600 male
1.395805 1.341351 -0.7025993 0.7622916 -0.3025315 0.5721767 10590637 male
1.416309 0.5756574 -0.760069 0.5488929 -0.6321671 0.5468833 855309 male
1.582722 1.1274 -0.9572698 -0.8648914 -0.4596829 0.2016298 1051664 male
1.558183 1.24363 -0.7491099 0.4440715 0.1072228 0.8895525 16108265 male
1.575209 0.7025396 -0.8261002 -0.1532356 -0.2494725 0.9561812 4145482 male
1.473382 1.028024 -0.9024323 -0.5304222 0.4710195 -0.7048353 10657457 male
1.526009 1.589704 -0.8658119 0.2419892 0.2134824 -0.9465022 4933195 male
1.354998 1.236361 -0.6867926 0.4262409 0.04515593 0.903482 16435402 male
1.548887 1.608307 -0.8463154 0.5358872 0.486423 -0.6900851 4276805 male
1.58675 1.537996 -0.7435343 0.552544 -0.1574016 0.8184864 7495777 male
1.436557 0.6960602 -0.8399788 0.2117565 -0.09304488 -0.9728833 5790564 male
1.355045 0.4977686 -0.7681244 -0.2820629 -0.04029356 0.9585494 526600 male
1.458863 1.047675 -0.7072914 -0.1805989 -0.1774486 0.9674172 4868170 male
1.407414 1.283756 -0.8610083 -0.5228477 0.0420792 -0.8513869 15131113 male
1.358418 0.5607505 -0.7683554 -0.5496321 0.1263841 0.8257915 526600 male
1.509268 0.8522137 -0.9265899 -0.5300427 -0.3431822 -0.7754228 6250863 male
1.450852 1.610452 -0.817359 -0.8164539 0.5128288 -0.2653484 526344 male
1.592985 1.496891 -0.7555288 0.9797463 -0.1432974 0.1398676 16237757 male
1.647359 0.8410881 -0.8428949 0.9756091 0.07039344 0.2079224 1579032 male
-2.33567 0.3250021 -1.347833 0.9183034 -0.3916527 0.05768174 6380889 male
-2.421128 -0.05387359 -1.343355 -0.7946107 -0.2056383 -0.5712329 2171937 male
-2.388895 -0.009131483 -1.475456 0.9820918 -0.1556213 -0.1061971 4078918 male
-2.357743 0.1153436 -1.241458 0.5286059 -0.1304294 0.8387874 2302758 male
-2.350511 0.2864139 -1.354144 0.9742544 -0.2106304 -0.08039594 7630956 male
-2.453665 -0.08838993 -1.540973 -0.3604217 0.2861812 -0.8878045 2105377 male
-2.568741 0.2340783 -1.399411 -0.9974612 -0.01667146 -0.06923521 3880763 male
-2.391552 0.394834 -1.473081 0.3722633 -0.1999186 -0.9063404 5854801 male
-2.162489 0.7919188 -1.446564 0.740867 -0.2119166 -0.6373441 10260879 male
-2.407742 0.09612039 -1.489745 0.8361829 -0.03440849 -0.5473707 4211531 male
-2.392462 -0.2468437 -1.245468 0.1772017 -0.1586132 0.9713093 1777187 male
-2.204628 0.843585 -1.448045 -0.2909279 0.1543373 -0.9442147 4801857 male
-2.450841 0.5118473 -1.486487 -0.6588987 -0.09012975 -0.7468129 7564652 male
-2.355424 0.2316191 -1.388615 0.9353659 -0.1304692 -0.3287379 1710618 male
-2.430354 0.2835081 -1.221239 -0.02404848 0.07885841 0.9965959 6775131 male
-2.429114 -0.04771807 -1.330893 -0.9584954 -0.1558286 -0.2387556 2697257 male
-2.471919 0.04742778 -1.51152 -0.3642674 -0.1459426 -0.9197882 2564903 male
-2.27189 0.614669 -1.252979 0.4378494 -0.5996222 -0.6698815 7235937 male
-2.393031 -0.3733468 -1.318007 -0.1508617 0.306575 -0.9398153 2236708 male
-2.238999 0.6344597 -1.257555 0.9423685 0.3167453 -0.1077693 7827823 male
-2.217385 0.6880184 -1.380883 0.7613528 -0.6354028 0.1288618 16506842 male
-2.403356 0.1746564 -1.370433 0.1372652 -0.1902518 -0.972092 2171686 male
-2.534377 -0.4540346 -1.50618 -0.4252753 -0.7138941 0.5563239 592137 male
-2.23841 0.6741663 -1.746125 0.7706102 -0.5752391 0.2743356 15256775 male
-2.460999 -0.203282 -1.486521 0.7564886 -0.6088533 0.2387944 2500910 male
-2.433299 0.6519291 -1.464395 -0.8417129 0.5084646 -0.181613 7234654 male
-2.355907 0.6990293 -1.342234 -0.6106117 0.7916853 0.01968938 11313820 male
-2.337277 0.5635327 -1.23791 -0.02328044 -0.6043448 0.7963829 2763050 male
-2.413707 -0.1051429 -1.463287 0.5141556 -0.2661727 0.8153504 1973534 male
-2.336922 0.6407204 -1.235017 -0.9728934 -0.130501 0.1909149 4012597 male
-2.50821 0.3310439 -1.282293 -0.7995371 0.4484557 0.3995349 9735563 male
-2.284466 0.7060266 -1.297185 0.4857292 0.7264697 0.4861164 3748913 male
-2.353007 -0.1954668 -1.310386 0.6859074 -0.1908082 -0.7022275 2236714 male
-2.282331 0.5389155 -1.21274 0.8901925 -0.3034371 -0.3398285 16773356 male
-2.174919 0.7088009 -1.379223 0.2758523 -0.8504283 0.4479703 12760745 male
-2.319844 0.7305806 -1.578208 -0.1910178 0.9623824 -0.193216 7498337 male
-2.332613 0.1955511 -1.268921 0.9280048 0.1124518 0.3551928 3947583 male
-2.388828 -0.08092742 -1.261571 -0.09623601 0.3503987 0.9316436 2368806 male
-2.437551 -0.01937585 -1.519837 -0.1051667 -0.06377704 -0.9924076 2369064 male
-2.42563 0.6622685 -1.464202 -0.7979873 0.575271 -0.1796655 7432032 male
-2.408904 0.6761408 -1.403659 -0.6999285 0.6235548 0.3482522 7959665 male
-2.270699 0.7020943 -1.802181 -0.5046092 -0.1861174 -0.8430481 15584710 male
-2.271878 0.8447461 -1.388783 -0.9173698 0.2356763 -0.3207644 5196103 male
-2.549611 0.3252346 -1.417514 -0.9124686 0.2759453 -0.3020855 7169636 male
-2.139749 0.8285922 -1.323483 0.6292021 -0.1782305 0.7565308 3947060 male
-2.390021 -0.03940447 -1.509262 0.7280958 -0.1522058 -0.6683639 3553087 male
-2.245752 0.7113321 -1.661224 0.8996023 0.3582344 0.249768 16379361 male
-2.33465 0.6494849 -1.581819 -0.1766956 -0.9562576 -0.233131 5197647 male
-2.537327 0.3483495 -1.370241 -0.8093246 0.5276039 0.2581239 9274499 male
-2.321597 0.5774743 -1.511824 -0.0644674 -0.335409 -0.9398643 4933443 male
-2.484713 0.3927057 -1.322954 -0.7315016 0.587698 0.3457117 13813441 male
-2.407433 0.02886272 -1.49018 0.7975308 -0.1329463 -0.5884476 3816514 male
-2.378222 0.2680791 -1.225756 0.3894765 0.0803383 0.9175261 4013626 male
-2.318472 0.3991313 -1.422991 0.8597699 -0.3234619 -0.3951815 7367272 male
-2.389879 0.4327072 -1.18136 -0.5828769 -0.3243549 -0.745016 12103081 male
-2.153939 0.8750167 -1.315583 0.5308061 0.331167 0.7801112 4340793 male
-2.443529 -0.00580415 -1.309016 -0.985567 -0.1637623 0.04289466 3224633 male
-2.368098 -0.4314106 -1.357761 0.003920622 0.9969811 -0.07754628 3553334 male
-2.280412 0.6668791 -1.484514 0.9256028 0.3779709 0.0199424 5590605 male
-2.526106 0.2928199 -1.462579 -0.7149878 0.173996 -0.6771397 4670015 male
-2.378374 0.2495181 -1.224497 0.4305996 0.0690449 0.8998984 3420206 male
-2.565633 -0.3975766 -1.522905 -0.1149389 -0.5289508 0.8408331 658186 male
-2.448964 -0.05807254 -1.475862 -0.487379 0.6368702 0.597376 2828843 male
-2.556457 0.2572199 -1.42951 -0.9009661 0.1987928 -0.3856705 5526097 male
-2.446273 0.04519314 -1.340245 -0.7312885 -0.1651345 -0.6617764 2236706 male
-2.573919 -0.4327366 -1.540726 -0.7351197 -0.6301308 0.2500689 526344 male
-2.382064 0.6901409 -1.537253 -0.9102445 0.316105 -0.2674564 9406596 male
-2.440418 -0.3657377 -1.270914 -0.9173028 0.1694663 -0.3603292 2368292 male
-2.4588 -0.2065576 -1.502313 0.7398046 -0.6725754 -0.01821178 2566703 male
-2.586029 -0.3170671 -1.506693 0.3899315 0.2294726 0.8917937 2302757 male
-2.361951 0.457574 -1.18626 0.5733979 0.01455207 -0.8191481 16773606 male
-2.325602 0.3010394 -1.11604 -0.3053578 -0.248912 0.91913 16773870 male
-2.304735 0.6701816 -1.237684 -0.0491325 0.767455 0.6392175 6643545 male
-2.153849 0.9117277 -1.378118 0.4584839 0.8858259 -0.07144856 7169118 male
-2.282531 0.597941 -1.496848 0.8473788 -0.04875607 -0.528746 5722447 male
-2.543455 0.2802477 -1.444272 -0.8165569 0.1990889 -0.5418475 4999748 male
-2.487024 -0.09258084 -1.517301 -0.726815 0.5399566 -0.4244843 2499113 male
-2.422518 0.3780687 -1.245335 -0.08594123 0.5651029 0.8205321 4669758 male
-2.326671 0.6025611 -1.185003 -0.5043752 0.2534065 0.8254641 9274754 male
-2.115394 0.8729578 -1.378307 0.8679736 0.4774162 0.1367326 6708568 male
-2.399643 -0.2391214 -1.317677 0.003026962 -0.1942892 -0.9809397 2105120 male
-2.476768 0.2387934 -1.225102 -0.3933158 0.01131206 0.9193341 4607317 male
-2.350476 0.375696 -1.120802 -0.06422755 -0.08267695 0.9945047 16771809 male
-2.287803 0.6475191 -1.188413 -0.02246603 0.273604 0.9615801 10261899 male
-2.394433 -0.225431 -1.319534 0.07035133 -0.1753927 -0.9819819 2302246 male
-2.398573 0.1049448 -1.459771 0.9939674 -0.04611087 -0.09951383 3752009 male
-2.385451 -0.15243 -1.238643 0.1595264 0.07621541 0.9842473 2367780 male
-2.342086 0.01236568 -1.336362 0.8743877 -0.1556204 -0.4595964 4277065 male
-2.129563 0.8650803 -1.432929 0.565092 0.4554501 -0.6879218 12168099 male
-2.379901 0.3011608 -1.228884 0.3717937 0.1212683 0.9203607 4340793 male
-2.352929 0.7224572 -1.456003 -0.2679402 0.9620484 -0.05168232 9472389 male
-2.324678 0.6250869 -1.190644 -0.5756503 0.2575343 0.7760819 9933449 male
-2.416265 0.05768102 -1.416891 0.7725925 -0.1773524 0.6096288 2368807 male
-2.136989 0.8834527 -1.921291 -0.5628563 -0.02980634 -0.8260174 14860730 male
-2.407168 0.38498 -1.475556 0.2797313 -0.1585564 -0.9468953 4735808 male
-2.405586 0.03775711 -1.484969 0.8579727 -0.1473808 -0.4920998 4079943 male
-2.366586 -0.1877716 -1.3192 0.3696945 -0.1294373 -0.9200937 2697257 male
-2.471075 -0.1428462 -1.54431 -0.2372918 -0.07612746 -0.9684511 1907998 male
-2.108867 0.8085243 -1.380657 0.9361499 -0.2388841 0.2579886 6904657 male
-2.394235 -0.1438553 -1.238909 -0.04674503 0.1484996 0.9878072 2696233 male
-2.476159 0.1180847 -1.359025 0.0304786 -0.2828198 0.9586889 2170913 male
-2.258594 0.6571332 -1.295579 0.871821 0.4869288 0.05318508 10262164 male
-2.505673 -0.1201144 -1.509943 -0.8501161 0.405965 -0.335403 2696490 male
-2.584403 -0.2871657 -1.505339 -0.7908074 0.5421689 -0.2840363 3223601 male
-2.337626 0.6446004 -1.218203 -0.8339845 0.2746504 0.4785783 3551534 male
-2.336461 -0.08445586 -1.304896 0.9371454 -0.1163438 0.3289725 2171945 male
-2.248622 0.7626699 -1.810061 -0.7407504 0.5700105 -0.3554958 16771037 male
-2.323923 0.5049117 -1.486295 0.5066918 -0.2346508 -0.8295799 5722959 male
-2.534909 -0.2996623 -1.492035 0.638583 0.1253069 0.7592827 1973534 male
-2.442839 0.5850561 -1.365884 -0.8882556 0.2368342 0.3935884 7563877 male
-2.26253 0.8720285 -1.343712 -0.8290914 0.4432248 0.340822 6576979 male
-2.244758 0.6444265 -1.215147 0.8538629 0.3352021 0.3981934 6051917 male
-2.263139 0.8700255 -1.388264 -0.8651992 0.3818019 -0.3250505 4077878 male
-2.152009 0.7729066 -1.440936 0.10048 0.3230955 -0.9410172 16176589 male
-2.451044 0.02162801 -1.317818 -0.9639289 -0.1669209 -0.2073131 2565674 male
-2.35189 -0.1882512 -1.263082 0.8227385 -0.136397 0.5518131 2434085 male
-2.284925 0.4534212 -1.317332 0.8595691 -0.3822164 0.3391933 5263176 male
-2.407349 0.6399739 -1.314751 -0.8651433 0.4889615 0.1115519 10458512 male
-2.343133 -0.08190913 -1.289081 0.8507063 0.03301147 0.5246038 2434601 male
-2.505095 0.2925159 -1.481303 -0.4894863 0.1612651 -0.8569697 3092015 male
-2.200348 0.8900328 -1.309147 -0.06376699 0.543692 0.836859 4406587 male
-2.223462 0.7700877 -1.44996 -0.419386 -0.04499524 -0.9066924 14864065 male
-2.408897 0.1456135 -1.405546 0.9345309 -0.104204 0.3402847 2697259 male
