# .PCD v0.7 - Point Cloud Data file format
VERSION 0.7
FIELDS x y z normal_x normal_y normal_z rgb label
SIZE 4 4 4 4 4 4 4 4
TYPE F F F F F F U U
COUNT 1 1 1 1 1 1 1 1
WIDTH 248
HEIGHT 1
VIEWPOINT 0 0 0 1 0 0 0
POINTS 248
DATA ascii
1.246873 0.2192404 -1.2251 0.05636996 0.1047927 0.9928952 4867915 male
1.46204 0.1976256 -1.096931 -0.3430836 0.9384887 0.03914899 7501446 male
1.964478 0.188831 -1.324546 0.5271174 0.591627 -0.6100203 526600 male
1.48203 0.04456929 -1.133791 0.4405917 -0.8595092 0.2590807 11516110 male
1.257551 0.2055866 -1.226808 0.1563373 0.2205793 0.9627583 5000276 male
1.715734 0.3065285 -1.410775 0.4251817 0.7683032 0.478467 526600 male
1.428793 -0.02030529 -1.361737 0.09199302 -0.8573128 -0.5065097 10067632 male
1.223695 0.4178236 -1.280441 0.5326431 0.7326988 0.4236079 12367304 male
1.257239 0.5944993 -1.387884 0.8804805 0.4046675 -0.2469784 15908536 male
1.68606 0.2857809 -1.379678 0.09725034 0.6215834 0.7772879 4407368 male
1.779325 0.2003405 -0.9910354 0.6070359 0.4093466 0.6811335 526600 male
1.204136 0.6911815 -1.38354 0.4754933 0.8496123 -0.2281775 1051664 male
1.234109 0.2372046 -1.48933 -0.2421609 -0.4824714 -0.8417715 8224388 male
1.331889 0.2206053 -1.288628 0.7946377 0.4650895 0.3901826 11644094 male
1.202046 0.1018838 -1.293026 -0.6717764 -0.7401119 0.0308336 8946064 male
1.520429 0.1490394 -1.034029 0.1617479 -0.9177002 0.3628554 526352 male
1.600043 0.1124856 -1.40122 0.3698514 -0.395956 -0.8404931 6515059 male
1.16856 0.3905216 -1.234497 0.4053836 -0.385296 0.828982 855309 male
1.809736 0.2010939 -1.011807 -0.07917021 0.9315369 -0.3549242 526600 male
1.184206 0.4100894 -1.242999 0.6014282 0.5218508 0.6049429 11382462 male
1.249522 0.4817642 -1.373378 0.9845147 -0.09854428 0.1449823 16574948 male
1.44813 0.145749 -1.201172 0.1493724 0.8143283 -0.560854 4343375 male
2.023642 0.2151955 -1.221074 -0.2510919 0.8219361 0.5112474 526600 male
1.322789 0.2570016 -1.652035 -0.5471714 0.7681016 0.3326011 14329768 male
1.81808 0.2213013 -1.377513 0.7870719 -0.113114 -0.6064017 526600 male
1.162281 0.3813955 -1.49117 -0.791352 0.114578 -0.600528 11775419 male
1.122248 0.3335961 -1.399729 -0.7079887 -0.1538903 -0.689253 12103104 male
1.208 0.3138047 -1.238763 -0.1007895 0.108167 0.9890103 2697260 male
1.773576 0.2629398 -1.336283 0.2052407 0.7689388 0.6054827 526600 male
1.056799 0.3479118 -1.224317 -0.9737412 -0.07823315 -0.2137934 15580346 male
1.345306 -0.01641598 -1.275413 -0.1192753 -0.9834269 -0.1365466 9146785 male
1.146254 0.4427607 -1.409621 -0.8630841 0.3349696 -0.3779964 16117502 male
1.611281 0.2122057 -0.9644774 0.05422728 -0.8443908 0.5329762 526600 male
1.121441 0.3810305 -1.19999 0.5272527 0.4982992 0.6882604 14992070 male
1.236088 0.5714574 -1.314666 0.4353986 -0.01687898 0.9000796 14069413 male
1.258423 0.4246231 -1.567716 0.4755159 0.4611998 -0.749119 8485508 male
1.378335 0.08577148 -1.102012 -0.578856 -0.082229 0.8112731 3882305 male
1.095595 0.3703965 -1.28132 -0.132155 -0.7568645 -0.6400712 526344 male
1.588979 0.1527262 -1.410415 0.1448145 0.1519699 -0.9777188 4277321 male
1.161277 0.4068477 -1.480645 -0.7868364 0.2587443 -0.5603032 11577016 male
1.140532 0.3626244 -1.444367 -0.9790794 -0.01535693 -0.2028981 15855103 male
1.294107 0.2339124 -1.733662 0.5391072 0.2901553 -0.790679 16179164 male
1.183092 0.6788747 -1.422505 0.3171095 0.6743403 -0.6668633 3420724 male
1.34841 0.009057062 -1.390586 -0.2418996 -0.7172407 -0.6534909 5725801 male
1.133874 0.6269553 -1.311305 -0.2877354 0.0003894022 0.9577098 14207184 male
1.657534 0.2041579 -1.428177 0.1724403 -0.05414886 -0.9835305 526600 male
1.292944 0.3553441 -1.59416 0.836779 0.5323502 -0.1280778 16042693 male
1.222808 0.3553227 -1.533188 -0.1653927 -0.7161815 0.6780334 526344 male
1.334562 0.02995603 -1.405805 -0.2691258 -0.6251532 -0.7326356 10064281 male
1.304829 0.3778706 -1.47963 0.8321851 -0.4519113 -0.321316 723731 male
1.295234 0.008030772 -1.303988 -0.5416986 -0.8008476 -0.2553536 15725567 male
1.91905 0.1956418 -1.304683 -0.294496 0.8897992 0.3486108 526600 male
1.318103 0.09798435 -1.178198 -0.5400968 0.667873 0.5120949 9868447 male
1.372749 0.1513982 -1.397301 0.3296454 0.8283548 -0.4529484 9405840 male
1.042589 0.2257496 -1.15779 0.8355607 -0.3195669 -0.4468953 9929606 male
1.117544 0.5484228 -1.354087 -0.5131141 -0.6816977 0.5215383 11971502 male
1.529686 0.1769453 -1.029707 0.4301129 -0.8648225 -0.2590076 3158581 male
1.913948 0.196133 -1.04107 -0.08397128 0.981558 0.171734 526600 male
1.241522 0.4770528 -1.417774 0.8849991 0.1696674 -0.4335776 16313585 male
1.471629 0.01131793 -1.393642 0.2757788 -0.5363121 -0.7976938 6580085 male
1.342228 0.1062178 -1.175772 -0.6122065 0.755087 0.2346208 7501961 male
1.949914 0.1445426 -1.299991 -0.469672 0.7402567 0.4810699 526600 male
1.688623 0.2275569 -1.441517 -0.3556232 -0.7944166 -0.4923762 526600 male
1.427903 -0.0121696 -1.373101 0.05653416 -0.7595165 -0.6480267 9410471 male
1.437029 -0.004040419 -1.217331 0.7800946 -0.6230025 0.05762213 10264491 male
1.979202 0.09675683 -1.307448 0.0703017 -0.8081096 0.5848218 526600 male
1.274825 0.435531 -1.550476 0.762719 0.4009964 -0.5074067 9999009 male
1.788218 0.1662812 -1.014257 0.1059697 0.8845783 -0.4541932 526600 male
1.863032 0.182651 -1.32717 0.57109 -0.5727903 -0.58802 526600 male
1.96479 0.1891275 -1.309518 -0.04687276 0.9723839 0.2286321 526600 male
1.024798 0.2342176 -1.148029 0.8539994 0.4316647 -0.2904316 13082534 male
1.155337 0.2184243 -1.03459 0.06708357 -0.6828837 0.7274405 16505819 male
1.096554 0.4362101 -1.280177 -0.6978806 0.7151273 -0.03943974 7894656 male
1.186826 0.6983348 -1.378405 0.2683483 0.9563786 -0.1154523 526600 male
1.278019 0.430807 -1.422053 0.6165735 0.7771505 0.1259931 12959699 male
1.402021 0.02511653 -1.401566 0.07003453 -0.4949419 -0.8660991 11579841 male
1.743344 0.2236144 -1.43761 0.2209139 -0.6191463 -0.7535614 526600 male
1.309283 0.1219714 -1.186181 -0.2306404 0.7901339 0.5678851 16311255 male
1.051487 0.316429 -1.147088 -0.3553718 0.7865312 0.505054 15905190 male
1.163832 0.6939523 -1.341988 -0.04050086 0.8640938 0.5016987 2960173 male
1.668031 0.2494685 -0.9891326 0.709177 0.6066096 0.3592948 526600 male
1.234203 0.06786377 -1.306092 -0.7853288 -0.5547658 -0.2747611 11774907 male
0.9997968 0.2147567 -1.085503 -0.4723129 0.4858407 0.735445 15386050 male
1.096914 0.4337769 -1.219937 -0.3023507 0.5512834 0.7776058 8288390 male
1.674307 0.2364817 -0.9854612 0.7312957 0.3026547 0.6112338 526600 male
1.60923 0.1936022 -1.319591 -0.1114781 0.5784065 0.8080957 3684672 male
1.519489 0.2455593 -0.9561072 -0.724156 -0.6896352 0.001134664 526600 male
1.530304 0.2667954 -0.9647534 -0.1099221 0.5890195 0.800608 592137 male
1.213922 0.6839433 -1.362078 0.6155921 0.7777376 0.1271637 14401736 male
1.360549 -0.009920099 -1.196149 -0.2425498 -0.8414567 0.4828253 4541270 male
1.154868 0.4463119 -1.441095 -0.8598853 0.4576459 -0.2261804 14473188 male
1.063253 0.3900094 -1.227055 -0.8856031 0.3697318 0.2810794 6775667 male
1.636488 0.2338129 -1.346974 -0.03244257 0.7188379 0.6944203 592652 male
1.419051 0.2228689 -1.599381 -0.7431613 0.6670822 0.05208325 16773111 male
1.358327 0.08140638 -1.432974 0.07274058 -0.1756116 -0.9817685 4867915 male
1.93036 0.2000644 -1.311823 0.03293766 0.9936909 0.1072082 526600 male
1.47796 0.128149 -1.04712 -0.2045523 -0.4325489 0.8781 4211528 male
1.769903 0.2804656 -1.391612 0.5382526 0.8401914 0.06605081 526600 male
1.165167 0.6443917 -1.307756 -0.02175388 0.2246075 0.9742064 11051944 male
1.516446 0.2440059 -0.9470775 -0.6223704 -0.7645113 0.1678618 526600 male
1.5267 0.0701068 -1.263329 0.2122579 -0.03360747 0.9766356 2894383 male
1.109945 0.4433168 -1.335934 -0.8319404 0.5515391 -0.06065977 9144211 male
1.762302 0.2090154 -1.415112 0.2696491 -0.7231835 -0.635842 526600 male
1.969904 0.1675221 -1.327838 0.4342857 -0.1020796 -0.8949724 526600 male
1.074544 0.4299086 -1.245597 -0.8502299 0.4708362 0.2354197 6511979 male
1.61185 0.2802295 -0.9436217 0.6506099 0.6255249 0.4306106 526600 male
1.345525 0.2365129 -1.686915 0.7396083 0.05118305 -0.6710886 13217200 male
1.331186 0.2954806 -1.434981 0.8781891 0.1508715 -0.4538961 7301495 male
1.941989 0.1746253 -1.3274 0.6488317 -0.1237531 -0.7508013 526600 male
1.18871 0.1870034 -1.380203 -0.8119887 -0.5126507 -0.2790404 11775682 male
1.120986 0.65383 -1.44758 -0.2737364 0.3909788 -0.8787514 4539717 male
1.140898 0.396974 -1.227212 0.842544 0.08788307 0.5314096 12564423 male
1.144828 0.6732832 -1.436795 -0.007195443 0.6646552 -0.7471156 3289394 male
1.260682 0.601896 -1.368234 0.5326833 0.4017822 -0.7448621 12487557 male
1.540322 0.2285416 -1.013521 0.3772407 -0.4249432 -0.8228686 591881 male
1.533912 0.2431195 -0.9871686 -0.7036234 -0.5264678 -0.4772271 526600 male
1.203955 0.2150251 -1.234709 -0.4119437 -0.1858527 0.8920544 6513003 male
1.206427 0.1182706 -1.344927 -0.6100589 -0.6470548 -0.4573272 11380923 male
1.454531 0.06449201 -1.092474 0.01078722 -0.6678964 0.7441761 5394778 male
1.515737 0.01332688 -1.37952 0.463234 -0.6367667 -0.6163946 4212302 male
1.073164 0.636055 -1.366949 -0.9568737 0.1298155 0.2598861 526344 male
1.2641 0.5477318 -1.390216 0.7916042 -0.1266203 -0.5977709 12427417 male
1.492892 0.1579486 -1.342336 -0.4168326 0.9002129 0.1259655 9014944 male
1.391435 0.1549849 -1.309685 0.4625331 0.8371531 -0.2919551 1580065 male
2.027654 0.1605206 -1.240201 0.4233063 -0.3962195 0.8147527 526600 male
-2.496088 0.3281957 -1.380712 0.8350841 -0.524842 -0.1648503 4933187 male
-2.575882 0.03811274 -1.366766 -0.67005 -0.02307999 -0.7419573 2697257 male
-2.70386 -0.2069272 -1.412576 0.6856117 -0.1890932 -0.7029797 2632488 male
-2.4931 0.02108814 -1.291352 0.8647166 -0.2179807 0.4524928 2696747 male
-2.466829 0.3735954 -1.407637 0.925422 -0.378463 0.01898563 4077621 male
-2.774288 -0.1358662 -1.359163 -0.7485062 0.1948557 0.6338532 2696233 male
-2.738089 0.3256225 -1.284919 -0.7950709 0.4838751 0.3656876 5920082 male
-2.501364 0.3967534 -1.545183 0.2138234 -0.6714112 -0.7095679 10325887 male
-2.580938 0.5499685 -1.771832 -0.9514043 -0.1210984 -0.283135 9799549 male
-2.688925 0.1033944 -1.393764 0.4307081 0.1463109 -0.8905525 3750726 male
-2.476325 -0.3430586 -1.375965 0.9037191 -0.03202885 -0.4269267 2368808 male
-2.542522 0.5452269 -1.828277 -0.512296 -0.3312199 -0.7923676 6445395 male
-2.700007 0.4237736 -1.366241 -0.8398587 0.2630758 0.4747936 9866633 male
-2.558391 0.3190801 -1.462633 0.1706327 -0.7273068 -0.6647627 7892841 male
-2.574497 0.3368618 -1.24108 0.01037674 0.6939776 0.7199219 10326926 male
-2.506406 -0.01687549 -1.28696 0.7168887 -0.2176791 0.6623342 2829357 male
-2.776815 0.1025029 -1.289407 -0.916173 -0.1728201 0.3616081 2697257 male
-2.430954 0.4852438 -1.518243 0.4486892 -0.6897004 0.5683235 4341567 male
-2.470822 -0.4564207 -1.429853 -0.06865475 -0.9942278 -0.08244796 592137 male
-2.434397 0.4540502 -1.544382 0.5773653 -0.679989 -0.4519562 5723727 male
-2.52062 0.4931222 -1.649612 0.671594 -0.7293482 0.1304331 14929090 male
-2.619807 0.1150584 -1.327264 -0.8423919 -0.09656791 -0.5301422 1974566 male
-2.7253 -0.4013238 -1.461118 0.8596168 0.4437461 -0.2532758 3290168 male
-2.743943 0.2584945 -1.51076 -0.01001209 -0.1089295 0.9939992 7037026 male
-2.722815 -0.2482579 -1.414304 0.5561709 -0.1753497 -0.8123587 2631208 male
-2.611044 0.5762238 -1.539426 -0.02546953 0.9872183 0.1573254 16771014 male
-2.57992 0.5686262 -1.51143 -0.2431688 0.9451461 0.2181002 7299678 male
-2.456882 0.5256438 -1.429601 0.5091365 0.3442866 0.7888263 6512986 male
-2.684292 -0.08569919 -1.384959 0.9547927 -0.2607607 0.1427411 1710618 male
-2.357292 0.5385848 -1.488061 0.8183696 0.5446925 0.1832526 8945790 male
-2.568622 0.2026653 -1.189584 0.220039 -0.09734391 0.970622 3289402 male
-2.631706 0.4541413 -1.613083 0.2638517 -0.3426815 -0.9016385 5327945 male
-2.479949 -0.2052661 -1.302486 0.5475735 -0.1059794 0.8300192 2565671 male
-2.397385 0.4977078 -1.53176 -0.045212 -0.8167108 -0.5752733 9932934 male
-2.514771 0.4752645 -1.674842 0.3135518 -0.4433352 0.8397258 11312787 male
-2.744095 0.4710726 -1.628356 -0.9024319 0.02665247 -0.4300077 9537410 male
-2.484511 0.1186685 -1.268149 0.9207479 -0.07521679 0.3828393 2170913 male
-2.503542 -0.03784977 -1.298542 0.7053573 -0.1474905 0.6933383 2764082 male
-2.764093 -0.08160796 -1.430408 -0.8864537 -0.01572142 -0.4625505 2434600 male
-2.631421 0.5731403 -1.52825 -0.1218791 0.9793144 0.1615205 4801857 male
-2.59808 0.5518124 -1.46441 -0.07922245 0.9018429 0.424739 9011835 male
-2.775832 0.1888626 -1.568481 -0.8067555 -0.007885925 -0.5908329 15782855 male
-2.544099 0.5838906 -1.835257 -0.4538222 0.06902696 -0.8884149 4800573 male
-2.659442 0.2497213 -1.202787 -0.0424237 0.1499887 0.9877773 10985372 male
-2.44093 0.5811926 -1.765914 0.9965439 -0.08289548 -0.005377948 3947060 male
-2.747125 -0.1076415 -1.448757 -0.2418643 -0.4324864 -0.8685951 3223347 male
-2.700818 0.37352 -1.614896 0.3908735 -0.2865018 -0.8747199 16507091 male
-2.778512 0.1297228 -1.34294 -0.9419296 0.1123726 -0.3164512 1842979 male
-2.642047 0.301724 -1.222245 -0.0988784 0.5111004 0.8538148 9734531 male
-2.685664 0.406428 -1.517314 -0.7741306 -0.4815113 -0.4109364 4406843 male
-2.574541 0.2670116 -1.199056 0.1400869 0.3063027 0.9415703 9339773 male
-2.667704 0.01409272 -1.381835 0.913178 -0.03764452 -0.4058191 2961201 male
-2.486448 0.22676 -1.303621 0.9678309 0.1387071 -0.2099144 7170917 male
-2.745225 0.2835721 -1.359593 -0.7318838 0.1872948 -0.6551849 3750455 male
-2.313501 0.4627792 -1.328849 -0.9932348 0.1121061 0.03028613 16377825 male
-2.448513 0.6263749 -1.783541 0.8924231 0.3663037 -0.2634439 4340793 male
-2.557755 -0.09315573 -1.324709 -0.7098186 -0.2528524 0.657437 2697001 male
-2.524794 0.5873224 -1.56148 -0.01832548 0.9877683 -0.1548483 13486789 male
-2.666193 0.5528039 -1.609875 -0.4955997 0.6473612 -0.5790548 6840666 male
-2.699913 0.1641984 -1.203844 -0.0550352 -0.5975386 0.7999494 4014149 male
-2.485469 0.2086283 -1.299643 0.980435 0.1357189 -0.1425761 1578520 male
-2.725871 -0.3843373 -1.429226 0.8440711 0.4534232 -0.2862718 3025971 male
-2.76675 -0.1537291 -1.34893 -0.5773948 0.1175344 0.8079611 2302505 male
-2.723485 0.3544072 -1.327333 -0.9139528 0.3862258 0.1245798 4603454 male
-2.592902 -0.01705917 -1.316779 -0.9780583 -0.1890374 0.08756298 2170657 male
-2.781855 -0.4165124 -1.381584 -0.9448951 -0.014002 0.3270743 2697257 male
-2.714253 0.466037 -1.658873 -0.1644006 -0.1500759 -0.9749103 5722700 male
-2.492731 -0.446798 -1.380805 -0.3336314 -0.8902484 -0.3100772 986895 male
-2.754987 -0.3374197 -1.409307 -0.7372497 0.07195624 -0.671778 1973534 male
-2.744453 -0.3542744 -1.352196 -0.6150264 -0.004754615 0.7884923 3355702 male
-2.3693 0.4749426 -1.415799 -0.8628871 -0.1340464 0.4872962 15388364 male
-2.312904 0.3208584 -1.378352 0.5427257 0.05326744 -0.8382195 15717317 male
-2.416946 0.4890966 -1.577983 0.1820469 -0.5671098 -0.8032718 8222581 male
-2.504835 0.5932016 -1.840766 0.09548204 0.1732902 -0.9802315 10786699 male
-2.609783 0.3855568 -1.562276 0.1384556 -0.7269054 -0.6726357 16246717 male
-2.499515 0.4902591 -1.596337 0.4983376 -0.1635572 -0.8514159 4866878 male
-2.752118 -0.1874509 -1.341705 -0.2710996 -0.06054511 0.9606454 3158839 male
-2.506371 0.2369965 -1.328045 0.6348861 0.199538 -0.7463944 8814718 male
-2.328171 0.466805 -1.464266 0.5655334 -0.2530206 -0.7849541 16046024 male
-2.475945 0.5773028 -1.831181 0.5735524 0.02308228 -0.8188438 6708568 male
-2.493416 -0.2156589 -1.390397 -0.02707472 -0.04704166 -0.9985262 2302506 male
-2.506703 0.4559324 -1.35223 0.4246584 0.4195984 0.8022484 5460555 male
-2.261093 0.4043294 -1.344032 0.9414513 -0.2971142 -0.1593511 16638690 male
-2.380809 0.545474 -1.568188 0.6729618 0.394204 -0.62588 9407104 male
-2.477592 -0.2885836 -1.376882 0.6967983 -0.1104873 -0.7087065 2696233 male
-2.667588 0.1070531 -1.376432 0.6903526 0.07691179 -0.7193733 2961201 male
-2.500305 -0.1486203 -1.296878 0.1630707 0.2112901 0.9637244 3223609 male
-2.556552 -0.08247411 -1.376798 -0.6972095 -0.217954 -0.6829313 2368036 male
-2.578668 0.554633 -1.780329 -0.9456663 -0.1606332 -0.2826878 7891560 male
-2.544781 0.2232394 -1.200515 0.5316597 0.07086343 0.8439885 9012097 male
-2.805824 -0.4334275 -1.49028 -0.8026948 -0.4925548 0.3362605 264458 male
-2.364618 0.550378 -1.529901 0.9166309 0.3124796 -0.2492884 10129804 male
-2.695418 0.08793028 -1.400961 0.3388975 0.1331154 -0.9313587 4344399 male
-2.795423 0.003740087 -1.536385 -0.8067427 0.2009279 0.5556928 14994119 male
-2.740271 0.3332252 -1.316325 -0.7944352 0.6072535 0.01077658 4604477 male
-2.690312 -0.1922745 -1.385327 0.9882679 -0.1245661 -0.08837408 2040353 male
-2.48881 -0.03425437 -1.333562 0.9973074 -0.0667607 0.0303545 2302501 male
-2.783539 -0.2128574 -1.396448 -0.9724889 -0.1799372 -0.1479464 1908256 male
-2.476348 0.510658 -1.793811 0.6482892 -0.6180328 -0.4446986 11574671 male
-2.507598 -0.1317908 -1.300069 0.05793941 0.2712877 0.960753 2828851 male
-2.731292 -0.008391835 -1.298114 -0.2624687 -0.3248908 0.9086014 3553340 male
-2.424726 0.5721184 -1.515411 0.4243139 0.8971434 0.122848 12564655 male
-2.706824 -0.1386496 -1.354685 0.632329 0.204804 0.7471384 2697257 male
-2.770385 -0.3765404 -1.394485 -0.9763933 0.2153483 -0.01677197 3157296 male
-2.379458 0.5565178 -1.557377 0.7219906 0.5804654 -0.3765497 10853781 male
-2.538507 -0.2641873 -1.353887 -0.943864 -0.2003198 -0.2626652 1579035 male
-2.743653 0.1823267 -1.57937 0.4545428 0.09691267 -0.8854373 16373192 male
-2.58321 0.3635863 -1.513341 0.3178581 -0.7223247 -0.6141771 8224372 male
-2.68434 0.006139943 -1.405583 0.6159629 0.03085886 -0.7871706 3553598 male
-2.641447 0.4042718 -1.298841 -0.1098188 0.4288276 0.8966866 11181211 male
-2.563813 0.6535614 -1.766053 -0.7264308 0.6835232 -0.07137483 4471612 male
-2.42458 0.4983045 -1.538003 -0.006353609 -0.960811 0.2771313 4933187 male
-2.570568 0.6313762 -1.790033 -0.8096993 0.430108 -0.3992423 3551278 male
-2.552075 0.5086197 -1.775538 -0.2349536 -0.8911471 -0.3881415 10459543 male
-2.56484 -0.05587374 -1.303066 -0.5735953 -0.3077824 0.759117 2763565 male
-2.467953 -0.1841616 -1.312273 0.8210412 0.01481019 0.5706773 2631208 male
-2.46404 0.4050245 -1.388738 0.9306728 -0.09718927 0.3527076 4341050 male
-2.595092 0.4925154 -1.38456 -0.1726243 0.6615049 0.7298028 9735047 male
-2.475971 0.05789973 -1.318378 0.9928311 -0.09263124 0.07553869 2303275 male
-2.746033 0.1758425 -1.226724 -0.7171994 -0.1929859 0.6696131 2632496 male
-2.472908 0.6622285 -1.76067 0.5693201 0.8219791 0.01500434 4406587 male
-2.580268 0.505292 -1.719687 -0.9118366 -0.4072284 -0.05214715 15719374 male
-2.740377 0.1540405 -1.379098 -0.4896743 0.2984885 -0.8192216 2829875 male
