# .PCD v0.7 - Point Cloud Data file format
VERSION 0.7
FIELDS x y z normal_x normal_y normal_z rgb label
SIZE 4 4 4 4 4 4 4 4
TYPE F F F F F F U U
COUNT 1 1 1 1 1 1 1 1
WIDTH 247
HEIGHT 1
VIEWPOINT 0 0 0 1 0 0 0
POINTS 247
DATA ascii
1.5481 0.3245104 -1.17285 0.3881642 -0.508857 0.7683705 7894144 male
1.634254 0.2766706 -1.05309 -0.2602819 0.9161928 0.3047032 6580344 male
1.949732 0.300306 -1.383757 0.7985865 0.5630087 0.2127927 526600 male
1.607301 0.1267166 -1.135389 0.2615836 -0.9230031 0.2822044 11778766 male
1.51471 0.3099444 -1.195584 0.5673915 0.4418332 0.6948743 8682892 male
1.862015 0.3864475 -1.449569 0.7036942 0.6599286 0.2632656 527368 male
1.52019 0.1523996 -1.369189 -0.3500507 -0.4425943 -0.8255754 5265248 male
1.672604 0.418066 -1.205215 0.7629308 -0.6352147 0.120162 16644597 male
1.86798 0.5290758 -1.222371 0.5229763 0.108349 -0.8454326 15712955 male
1.746696 0.2645196 -1.321669 0.1473266 0.4670241 0.871885 3948356 male
1.852117 0.2063396 -1.011557 0.2564216 -0.6694387 0.6972087 526600 male
1.90038 0.5644608 -1.107413 0.7685538 0.1238017 0.6276927 526600 male
1.513662 0.3381554 -1.391892 0.1260901 -0.1186961 -0.9848921 8353148 male
1.576048 0.2637691 -1.223924 0.2441038 0.7824776 0.5728369 6120309 male
1.400614 0.3145713 -1.230273 -0.959058 -0.2476302 0.1374296 8946064 male
1.712684 0.2531503 -0.9785362 0.4583151 -0.7313848 -0.5049985 8094355 male
1.762371 0.2071924 -1.407493 0.1520263 -0.7232701 -0.6736232 7896456 male
1.643333 0.5134047 -1.051268 -0.1376278 -0.6880395 0.7125028 14274527 male
1.898797 0.1649707 -1.082745 0.538456 -0.2628527 -0.8006082 526600 male
1.661662 0.5015449 -1.079542 0.8294311 -0.2468309 0.5011171 15196143 male
1.749454 0.4991809 -1.246699 0.4196106 -0.6947452 -0.5841713 15848401 male
1.614803 0.2581485 -1.15967 0.2322493 0.9013841 -0.3654684 3751751 male
2.122915 0.2272066 -1.208845 0.05793692 0.868021 0.4931358 526602 male
1.529239 0.5016171 -1.497674 0.6410276 -0.3549575 0.6805063 13543081 male
1.9543 0.2195574 -1.370791 -0.0209921 -0.7501658 -0.6609165 526600 male
1.653995 0.5878041 -1.277239 -0.1563504 0.9831398 0.09481968 12827851 male
1.562028 0.566741 -1.207813 -0.4191984 0.8984004 -0.1309557 14472937 male
1.582067 0.373647 -1.153834 0.3264653 -0.4949472 0.8052626 6644589 male
1.907679 0.370427 -1.398197 0.5620643 0.6590973 0.4996744 526600 male
1.373966 0.3931087 -1.131258 0.2506349 0.236122 -0.9388443 7496294 male
1.423664 0.2251487 -1.283152 -0.9437407 -0.2456408 -0.2213915 9274774 male
1.687878 0.5010428 -1.1657 0.6531421 -0.2279081 0.7221241 6906729 male
1.79073 0.2801534 -0.8969451 0.5577036 -0.6340858 0.5356323 526600 male
1.52462 0.5147374 -1.094213 0.0459643 -0.4948674 0.867752 16767186 male
1.850879 0.4463176 -1.144075 0.3845762 -0.7036458 0.5974811 14397610 male
1.712526 0.5584213 -1.397687 0.4421045 0.3481425 -0.8266441 10848908 male
1.543087 0.2506119 -1.142023 -0.5334361 0.8354231 0.1323416 9213604 male
1.601616 0.504476 -1.109658 -0.7073033 -0.7012891 0.08896846 526600 male
1.806178 0.288154 -1.455494 -0.2314429 -0.7631708 -0.6033278 526344 male
1.669766 0.5792078 -1.231458 -0.01784226 0.9980571 0.05969581 15197175 male
1.533875 0.5266458 -1.301573 -0.7034847 0.7088946 -0.05077064 11776192 male
1.512871 0.5860685 -1.516995 -0.3304166 0.3707497 -0.8679687 14002348 male
1.758181 0.5499224 -1.258276 0.4625537 0.3570504 -0.8115166 16700621 male
1.429237 0.2154697 -1.293263 -0.9331713 -0.2884113 -0.2145002 8880529 male
1.813667 0.5539206 -1.084726 -0.2454423 -0.2306875 0.9415632 14207184 male
1.717579 0.2860159 -1.391683 -0.1507671 0.8729464 -0.463933 5989232 male
1.657805 0.5302225 -1.436916 0.5911961 -0.4004306 -0.7001017 15514290 male
1.636335 0.1646124 -1.406523 -0.1165394 -0.2227232 -0.967891 2698033 male
1.45989 0.1808183 -1.344553 -0.7900774 -0.4345674 -0.4323528 9344165 male
1.651712 0.4475267 -1.372101 0.3468445 -0.4364274 -0.8301988 986639 male
1.418064 0.2464427 -1.279499 -0.9576328 -0.1690351 -0.2331661 12564681 male
1.991259 0.2382047 -1.355179 0.3229733 0.9244519 0.2026741 526600 male
1.508147 0.2169166 -1.130466 -0.5038006 0.5362489 0.6772164 5526364 male
1.549559 0.2984527 -1.311355 0.869125 -0.2774336 -0.4094537 12827859 male
1.481051 0.5429407 -1.161842 0.6031044 -0.7752301 -0.1878388 16702173 male
1.82851 0.5830952 -1.079701 -0.008271337 0.1306444 0.9913948 723723 male
1.747021 0.343435 -0.9116516 0.3257134 0.4995443 -0.8027243 526600 male
1.683136 0.553835 -1.149216 0.6488844 0.2866142 0.7048414 6579305 male
1.736626 0.5434017 -1.306932 0.9829047 0.1293653 0.131007 7104111 male
1.572297 0.1304148 -1.376878 -0.1595438 -0.4823829 -0.8613086 6908787 male
1.518399 0.2262128 -1.160543 -0.3471547 0.87774 0.3302365 7172995 male
2.012432 0.1649575 -1.328956 0.07432154 0.5104691 0.8566782 526600 male
1.898267 0.3856957 -1.414087 0.5572859 0.7212113 0.4114447 526600 male
1.537372 0.1246619 -1.356981 -0.3714918 -0.6084526 -0.7012698 9739957 male
1.699215 0.2223047 -1.101139 0.8067911 0.0162974 -0.5906121 2894636 male
2.038984 0.1245836 -1.348438 0.250157 -0.7670645 0.5907906 526600 male
1.752618 0.5690317 -1.379405 0.527347 0.7708697 -0.3573025 7302262 male
1.868677 0.2095938 -1.081785 0.3985179 0.9062994 -0.1407303 526600 male
1.923551 0.2272787 -1.347744 -0.8453664 -0.4678526 0.2578171 526600 male
1.955489 0.1612016 -1.333359 -0.6382867 0.4312273 0.6376778 526600 male
1.481753 0.543871 -1.129473 0.6361443 -0.694399 0.3363486 13673894 male
1.339285 0.4199284 -1.133267 -0.3456528 0.5111596 -0.786918 15971757 male
1.644907 0.5568414 -1.093266 0.394417 0.8197938 0.4151785 7894656 male
1.832724 0.6490608 -1.15993 0.1690031 0.9764063 -0.13442 526600 male
1.651252 0.3706519 -1.312685 0.7840731 -0.5992419 -0.1616738 12962002 male
1.547197 0.3121033 -1.3644 0.6392794 -0.4098853 -0.6506273 9801373 male
1.823729 0.3550003 -1.459973 -0.8819681 -0.4493826 0.1420831 526600 male
1.529967 0.2474189 -1.186146 0.04610172 0.9445367 0.3251537 4804697 male
1.618885 0.5778691 -1.113692 -0.2425053 0.9479112 -0.2065323 9341078 male
1.714961 0.5689938 -1.185689 -0.2838314 0.8346279 0.472055 16566973 male
1.814084 0.2886995 -0.958313 0.9450932 0.3042611 0.1192647 526600 male
1.455019 0.4084547 -1.189069 -0.8616443 0.1717872 0.4775544 8091523 male
1.398779 0.5606941 -1.140822 -0.6808525 0.4768597 0.555918 12753046 male
1.624807 0.5477692 -1.057533 -0.3815598 0.2663926 0.8851254 7697278 male
1.805104 0.305664 -0.9222265 0.9553218 0.2323676 0.1826621 526600 male
1.860293 0.3917218 -1.42081 0.2193318 0.3868639 0.8956728 5788496 male
1.704623 0.3088944 -0.874763 -0.7987795 -0.5608439 0.2177278 526600 male
1.731156 0.3237411 -0.9309443 0.4604511 0.8811372 0.1076198 1644826 male
1.90709 0.5233528 -1.167558 0.8514347 -0.4424163 -0.2816499 13413033 male
1.500336 0.1340435 -1.169165 -0.5560477 -0.6512089 0.5164667 5330787 male
1.731903 0.5776798 -1.278126 0.7666416 0.6376899 -0.07491538 6447466 male
1.59454 0.4925759 -1.10494 0.1945542 -0.9792512 0.05670828 12031897 male
1.797911 0.3279103 -1.371458 0.2162717 0.661595 0.7179961 2566703 male
1.478468 0.4217074 -1.587094 -0.6721125 0.2606463 0.6930571 11769752 male
1.602711 0.3117327 -1.29109 0.8233186 -0.5673702 0.01540884 16514559 male
1.976994 0.2533993 -1.358093 0.3469876 0.8817875 0.3194533 526600 male
1.567431 0.1402257 -1.099154 -0.2682081 -0.6742826 0.688046 9278622 male
1.912905 0.376905 -1.446488 0.8337158 0.5404169 0.1134346 526600 male
1.864511 0.5001316 -1.105531 0.2085726 -0.5758353 0.7905133 14924977 male
1.699336 0.3314076 -0.8897954 -0.9818856 -0.06820823 -0.1767713 526600 male
1.716236 0.2144241 -1.293725 0.3668646 0.2451082 0.8974032 921103 male
1.671736 0.5130013 -1.112889 0.977828 -0.07542523 0.1953546 12563391 male
1.863496 0.3198793 -1.474335 -0.2865933 -0.6957194 -0.6586643 526600 male
1.946793 0.1908037 -1.346058 -0.7824343 -0.6052459 -0.1465403 526600 male
1.618913 0.5512946 -1.062356 -0.3661105 0.3134207 0.8762024 7170421 male
1.788437 0.3367742 -0.89482 0.9108314 0.38131 0.1580784 592137 male
1.523502 0.5223493 -1.530171 0.5046855 0.02410514 -0.8629667 11900051 male
1.628851 0.3534018 -1.265767 0.8540472 -0.4404856 0.2767234 14733275 male
1.981684 0.2329611 -1.376986 0.6235156 -0.2073487 -0.7538135 526600 male
1.475737 0.31717 -1.392456 0.02085635 -0.08196748 -0.9964167 5064781 male
1.834077 0.6224005 -1.208161 0.1636026 0.6422507 -0.7488313 5985627 male
1.625749 0.5769489 -1.089717 -0.174789 0.976837 0.123443 7104884 male
1.882693 0.6142498 -1.173643 0.6841096 0.6300681 -0.3674349 4012605 male
1.877872 0.5074181 -1.212337 0.8023297 -0.1383737 -0.5806201 15381936 male
1.742716 0.3125349 -0.9463141 0.5130411 0.1402409 -0.8468302 526600 male
1.741829 0.3103945 -0.8412506 -0.07137749 -0.7294048 0.6803485 526600 male
1.535219 0.3771712 -1.14288 -0.01316163 -0.2831748 0.9589779 920846 male
1.58214 0.5585696 -1.248932 -0.3186347 0.908022 -0.2719703 13222097 male
1.653861 0.2064265 -1.006759 -0.3888247 -0.5422335 0.7448478 3684672 male
1.633047 0.1004118 -1.343133 0.3955688 -0.7768759 -0.4898869 7107457 male
1.744702 0.5930532 -1.154093 -0.9237224 0.3773974 0.06563684 7432812 male
1.84657 0.4552956 -1.218405 0.4718256 -0.3615685 -0.8041447 12427417 male
1.63753 0.261173 -1.366024 -0.3984154 0.8735898 -0.2794746 10133675 male
1.555158 0.2233412 -1.362068 0.2465295 0.767857 -0.5912858 10460324 male
-2.491018 0.3459855 -1.389401 0.8287219 -0.5219949 -0.2018452 4933187 male
-2.582862 0.02838281 -1.358819 -0.7976729 -0.06550353 -0.5995227 2698289 male
-2.691283 -0.2052723 -1.384898 0.9279661 -0.2026696 -0.3127368 1907997 male
-2.484297 0.06145966 -1.291211 0.8801981 -0.177975 0.4399734 2301990 male
-2.484215 0.3547952 -1.394325 0.8420628 -0.5207604 -0.140495 4867906 male
-2.771454 -0.1916308 -1.416278 -0.7044748 -0.129587 -0.6977985 1973534 male
-2.511765 0.5200112 -1.587441 0.5171412 -0.2780178 -0.8094884 4735551 male
-2.503557 0.4102275 -1.524633 0.172265 -0.771013 -0.6130775 7103843 male
-2.559038 0.5767919 -1.75266 -0.6757088 -0.6483983 -0.3507096 13942707 male
-2.664032 0.1173498 -1.382671 0.6751658 0.04640077 -0.7362055 3223604 male
-2.469755 -0.2852967 -1.334977 0.9735075 -0.1690695 0.1539449 2170913 male
-2.533056 0.6057982 -1.804906 -0.4788332 -0.2760067 -0.8333904 6445395 male
-2.709826 0.4088684 -1.359545 -0.9312626 0.3302732 0.1538504 3816504 male
-2.568045 0.3170228 -1.439366 0.1586775 -0.6180231 -0.76998 7169893 male
-2.571102 0.341658 -1.244502 0.01501699 0.6635712 0.7479625 10326926 male
-2.55494 -0.06999257 -1.304366 -0.5501214 -0.2440106 0.7986398 2697772 male
-2.752725 0.04345827 -1.293839 -0.7308828 -0.2455575 0.6367984 2500397 male
-2.400483 0.5134007 -1.487558 -0.5672285 -0.7506287 -0.338834 6840927 male
-2.491237 -0.4483485 -1.417646 -0.3482504 -0.9323535 -0.09715229 2170913 male
-2.431319 0.4695619 -1.515008 0.7779436 -0.6282342 -0.01121098 4867138 male
-2.53927 0.5233388 -1.619323 0.04505874 -0.9866143 -0.1567225 16773865 male
-2.488942 0.1231579 -1.362248 0.7818823 0.1396392 -0.6075863 4079174 male
-2.72557 -0.4002054 -1.457486 0.8622693 0.4517336 -0.2289731 3290168 male
-2.740758 0.272642 -1.492009 0.6844424 -0.3227867 0.6537182 13020845 male
-2.73134 -0.3299991 -1.407681 0.5859462 0.2882637 -0.757345 2632496 male
-2.615007 0.6064533 -1.503457 -0.02455766 0.9549899 0.2956203 4341562 male
-2.546332 0.5925469 -1.446054 -0.3596417 0.823109 0.4394878 10984598 male
-2.452379 0.5216051 -1.403508 0.6313104 0.2045392 0.7480717 5459786 male
-2.665704 -0.02796853 -1.357017 0.9926697 -0.1197854 0.01608253 1973022 male
-2.339479 0.5443847 -1.448579 0.8644979 0.4999897 0.05151495 16309975 male
-2.60551 0.2679078 -1.206524 -0.1497095 0.2480741 0.9571032 9142138 male
-2.615169 0.5014874 -1.600078 0.1214626 -0.2694867 -0.9553136 6904664 male
-2.480461 -0.187032 -1.379071 0.466452 0.04163213 -0.8835664 3026998 male
-2.351606 0.5666305 -1.48222 0.9342613 0.3498125 -0.06919092 10262414 male
-2.504987 0.515465 -1.663293 0.485411 -0.5891809 0.6459429 11050388 male
-2.741595 0.5377319 -1.563313 -0.8523333 0.3075198 0.4230364 8353904 male
-2.481642 0.1241245 -1.275469 0.9161591 -0.07576155 0.39359 2170913 male
-2.504744 -0.0507683 -1.298111 0.5991989 -0.07489025 0.7970899 1974310 male
-2.717848 -0.04285434 -1.435632 0.0108397 0.01698187 -0.9997972 4013896 male
-2.639497 0.5992559 -1.486846 -0.1680895 0.9328273 0.318715 10788248 male
-2.599052 0.538623 -1.395361 -0.06871919 0.6399618 0.7653279 7827307 male
-2.783838 0.2451733 -1.539297 -0.6736023 0.05123251 -0.7373164 14534328 male
-2.57412 0.6660908 -1.689198 -0.8834077 0.3636225 0.2955838 5195844 male
-2.702698 0.2512394 -1.216449 -0.420256 0.1478566 0.8952786 11116701 male
-2.434233 0.6383963 -1.736529 0.9976936 -0.06485119 0.02005368 3947060 male
-2.698158 -0.07746619 -1.421111 0.740208 -0.3419099 -0.5789559 2302499 male
-2.715371 0.4477872 -1.598013 -0.03515556 -0.236318 -0.9710397 7960425 male
-2.775459 0.1180374 -1.356032 -0.9463191 0.07920849 -0.3133794 2040356 male
-2.657232 0.2842867 -1.218294 -0.06959513 0.3533826 0.9328867 9012089 male
-2.676781 0.4428234 -1.526421 -0.836531 -0.4452173 -0.3193706 4538429 male
-2.61456 0.3269779 -1.236718 -0.08306989 0.5970923 0.7978598 10457744 male
-2.68858 -0.1672004 -1.384189 0.9542944 0.005943901 -0.2988096 1973534 male
-2.482546 0.2373873 -1.293231 0.9839689 0.1011186 0.146903 5590860 male
-2.648425 0.2962883 -1.416883 -0.4020544 -0.5492248 -0.7326012 6708823 male
-2.298248 0.4623125 -1.285067 -0.4336382 -0.1700277 0.8849005 12103081 male
-2.442111 0.6846995 -1.750862 0.8938988 0.3989334 -0.2044439 4340793 male
-2.561792 -0.1014044 -1.330534 -0.8935041 -0.2612355 0.3652487 2169889 male
-2.531158 0.6193724 -1.553482 -0.1133241 0.9836387 -0.140045 7958633 male
-2.632702 0.5803354 -1.609292 -0.2129375 0.07199804 -0.9744096 4669500 male
-2.68437 0.1631678 -1.216169 0.1457826 -0.6143362 0.7754603 3947326 male
-2.500707 0.2386185 -1.338597 0.6358476 0.220879 -0.7395343 7959409 male
-2.72724 -0.3886742 -1.434024 0.8507206 0.4703183 -0.2346812 2961461 male
-2.778197 -0.2198971 -1.395314 -0.9254221 -0.1902111 -0.3277407 1908256 male
-2.724164 0.3570407 -1.332611 -0.8655262 0.5006598 0.01429421 4275257 male
-2.592237 -0.01234712 -1.317347 -0.9815266 -0.1714941 0.08482796 2170657 male
-2.786581 -0.4170394 -1.384108 -0.9453024 -0.05798807 0.3210001 2237221 male
-2.705265 0.5294747 -1.63352 -0.06910035 0.2810341 -0.9572071 7104612 male
-2.470701 -0.4525934 -1.399005 -0.2034928 -0.9714121 -0.1222674 526344 male
-2.716289 -0.2649844 -1.397195 0.6922511 -0.1789911 -0.6991073 2170913 male
-2.746249 -0.3635108 -1.34336 -0.7013003 0.2029263 0.6833735 3355187 male
-2.311635 0.4951523 -1.318208 -0.9516565 0.03624781 -0.3050188 16708076 male
-2.315584 0.3264511 -1.364822 0.2495908 0.2251571 -0.9418116 15584956 male
-2.41528 0.508302 -1.539154 0.3107609 -0.8642156 -0.3956755 6248530 male
-2.508301 0.6302512 -1.81549 -0.09325558 0.01667277 -0.9955028 15590106 male
-2.595282 0.4266966 -1.558653 0.2635368 -0.6024544 -0.7533905 5392706 male
-2.505018 0.5064575 -1.582742 0.399937 -0.3261827 -0.8565369 7300452 male
-2.711163 -0.1040799 -1.346633 0.5698491 0.2704406 0.7759732 2369324 male
-2.502358 0.2438771 -1.339243 0.6322301 0.1879659 -0.7516344 8814718 male
-2.328159 0.489181 -1.439072 0.3189679 -0.454132 -0.8318797 15190973 male
-2.467037 0.6391557 -1.803116 0.5984037 0.0969024 -0.7953134 6708568 male
-2.496084 -0.2706206 -1.376506 0.01616141 -0.07333691 -0.9971764 2303529 male
-2.502816 0.4669121 -1.342892 0.4276013 0.3229074 0.844327 5460555 male
-2.284182 0.4254334 -1.354857 0.2392382 0.006871345 -0.9709367 15322042 male
-2.382976 0.5415772 -1.548369 0.3809469 -0.740012 -0.554312 7565675 male
-2.490032 -0.2695343 -1.375997 0.2532634 -0.08680573 -0.9634951 2303529 male
-2.65341 0.1129753 -1.371338 0.7791791 -0.01149976 -0.6266961 3223601 male
-2.476225 -0.1554981 -1.299184 0.731356 0.1789767 0.6580927 2105893 male
-2.548032 -0.05859065 -1.386817 -0.5742463 -0.2044984 -0.7927306 2434605 male
-2.529689 0.5987648 -1.804281 -0.42559 -0.365848 -0.8276646 6510163 male
-2.54111 0.2281826 -1.208648 0.5310061 0.05375404 0.8456614 9012097 male
-2.573746 0.6153746 -1.581126 -0.07383161 0.9972481 0.006709423 3091754 male
-2.38272 0.6050118 -1.491423 0.4996726 0.7563631 0.4221875 9143683 male
-2.666627 0.08213481 -1.387877 0.7354985 -0.004244142 -0.6775131 3157808 male
-2.816752 0.08663471 -1.509067 -0.9599516 0.2241035 0.1681391 16771565 male
-2.741633 0.3284803 -1.34678 -0.8243011 0.4973533 -0.2704953 2697511 male
-2.687524 -0.1667833 -1.377247 0.9892427 0.01551199 -0.1454597 2170657 male
-2.48811 -0.06660286 -1.355778 0.9707781 0.06673673 -0.2305135 2960429 male
-2.778679 -0.2310771 -1.385393 -0.9729161 -0.1902999 -0.1312278 2105377 male
-2.444123 0.6195109 -1.771616 0.9016144 -0.1687426 -0.3982686 5327936 male
-2.492832 -0.1559192 -1.287454 0.3514869 0.1739351 0.9198934 2565929 male
-2.678588 -0.003041188 -1.309582 0.6208816 -0.2652049 0.7376804 2565677 male
-2.435505 0.5654045 -1.563608 0.1077292 0.2923656 -0.9502195 4276281 male
-2.706174 -0.1508977 -1.339789 0.5638816 0.1218321 0.8168198 2697257 male
-2.767581 -0.3586014 -1.384354 -0.9912326 0.04628324 -0.1237582 2697257 male
-2.3742 0.5573487 -1.553968 0.6627353 -0.1318544 -0.7371545 5920082 male
-2.539657 -0.2182777 -1.360332 -0.650013 -0.0518638 -0.7581514 2303013 male
-2.75669 0.2436043 -1.544254 0.490718 0.06595624 -0.8688186 16241606 male
-2.53622 0.4338892 -1.545991 -0.08812144 -0.6696497 -0.7374307 9144705 male
-2.671062 0.03929361 -1.395268 0.7726298 -0.01720678 -0.6346239 3683896 male
-2.695623 0.368124 -1.293261 -0.4762844 0.6711716 0.5680512 4868418 male
-2.558369 0.7086338 -1.735205 -0.7353767 0.6763427 -0.04221168 4471612 male
-2.426727 0.5428156 -1.51447 -0.5807549 -0.7948349 0.1759588 7105892 male
-2.557493 0.6943319 -1.767746 -0.7167282 0.5057725 -0.480099 4998462 male
-2.566774 0.589295 -1.75624 -0.8609601 -0.3074313 -0.4052579 14206391 male
-2.524555 0.0125358 -1.264666 0.3826105 -0.244138 0.8910701 2237737 male
-2.503321 -0.170945 -1.28317 0.09482294 0.06527779 0.9933518 3486517 male
-2.460551 0.4199873 -1.385096 0.9308829 -0.1462577 0.3347627 4341050 male
-2.5816 0.4928617 -1.354268 -0.3270464 0.5712445 0.7528085 9406339 male
-2.482046 0.02276038 -1.318426 0.9511902 -0.2001182 0.2349261 2630952 male
-2.724959 0.1730406 -1.223641 -0.4757919 -0.4101116 0.7780942 3223860 male
-2.467855 0.7183203 -1.726025 0.5528229 0.8276273 0.097057 4406587 male
-2.570459 0.5547546 -1.711026 -0.848975 -0.4844922 -0.2109714 16771030 male
-2.715766 0.1797402 -1.38866 -0.1559952 0.3440371 -0.9259072 3487806 male
