# .PCD v0.7 - Point Cloud Data file format
VERSION 0.7
FIELDS x y z normal_x normal_y normal_z rgb label
SIZE 4 4 4 4 4 4 4 4
TYPE F F F F F F U U
COUNT 1 1 1 1 1 1 1 1
WIDTH 245
HEIGHT 1
VIEWPOINT 0 0 0 1 0 0 0
POINTS 245
DATA ascii
1.446481 0.9257047 -0.7483041 -0.2704464 -0.6544542 0.7060795 7499130 male
1.439922 0.6682377 -0.8083836 0.9947127 0.03581055 -0.09625104 2763050 male
1.60196 0.6561886 -0.9243115 0.8217258 0.4027856 0.4031507 7632517 male
1.349284 0.6287007 -0.7607204 -0.8552448 -0.07807278 0.5123094 3750465 male
1.435561 0.9108927 -0.769226 -0.2244971 -0.6940078 0.6840719 7367800 male
1.715472 0.5402178 -0.9373613 0.8203718 -0.03073941 -0.5710037 526600 male
1.381812 0.8102227 -1.066951 -0.3016151 0.1155562 -0.9464011 5923183 male
1.528308 0.9242042 -0.9535629 0.8332496 -0.4005726 -0.3810994 8025218 male
1.772529 1.048588 -0.5848882 0.9676285 -0.1954456 0.1596749 14199979 male
1.512032 0.6931735 -0.9121069 -0.0382854 0.1372984 0.9897896 4935258 male
1.371681 0.3274 -0.7198901 -0.1381918 0.05515164 0.9888688 526600 male
1.776121 1.160551 -0.6500878 0.6561458 -0.002161281 -0.754631 14141392 male
1.535064 1.035588 -0.9507065 0.05552194 0.4124014 -0.9093088 7762295 male
1.479581 0.863165 -0.8775486 0.7156664 -0.5877769 0.3772796 12104136 male
1.303527 0.9085958 -0.9317561 -0.7550406 0.5470247 -0.3614936 7565691 male
1.371942 0.5951298 -0.7942048 -0.605832 -0.5032247 -0.6162243 6580852 male
1.519884 0.695658 -1.042681 0.451665 -0.09436072 -0.8871836 4078915 male
1.519789 1.014272 -0.6296056 0.6709483 -0.738736 -0.06401178 12104384 male
1.371827 0.2584106 -0.7649201 0.1907521 -0.9729163 -0.1305659 526600 male
1.548539 1.066856 -0.6178612 0.6404105 0.2413441 0.7291279 9603738 male
1.653375 1.041608 -0.6657462 -0.1053698 -0.883492 0.4564417 16245216 male
1.422839 0.7204962 -0.8982461 0.931482 -0.1119475 -0.3461345 2894636 male
1.652196 0.2924203 -0.8973994 0.02162121 0.8147014 0.5794775 526600 male
1.727887 0.7515859 -0.9381324 -0.5698688 -0.278417 0.7731323 2827303 male
1.57955 0.371802 -0.9701926 -0.6481766 0.1798843 -0.7399384 526600 male
1.648978 1.145845 -0.8188424 0.2555998 0.9152178 -0.3115208 11775938 male
1.50067 1.129526 -0.7712629 -0.2527692 0.892513 -0.3735347 11249850 male
1.442212 1.046697 -0.6904092 -0.9049444 -0.3242782 0.2755343 4407110 male
1.567497 0.7035034 -0.9355081 0.7303973 0.4428081 0.5200392 6908535 male
1.44973 1.051971 -0.6514212 -0.7598398 0.4952716 -0.4211289 10066087 male
1.325541 0.8799009 -0.9867311 -0.7105532 0.3945056 -0.5826486 7304319 male
1.61688 1.067174 -0.6533009 -0.4760519 -0.4173954 0.7740514 15516868 male
1.407028 0.4522433 -0.645759 -0.1066399 -0.3350666 0.9361401 526600 male
1.484959 0.9584923 -0.6289902 0.8406517 -0.5173097 0.1602978 13606048 male
1.682979 1.060728 -0.579477 -0.5311402 -0.558969 0.6367446 13150881 male
1.709561 1.093354 -0.8781511 0.1729104 0.5673661 -0.8051072 8619411 male
1.30316 0.7390106 -0.816698 -0.8249668 0.05494063 0.5625045 3355964 male
1.361398 0.6173722 -0.7432132 -0.8436282 -0.0005679781 0.5369273 5000530 male
1.63042 0.6273921 -0.9560311 0.8631194 0.1546794 -0.4807278 591879 male
1.64532 1.149276 -0.8125812 0.2212006 0.9320152 -0.2870854 10329006 male
1.569649 1.138683 -0.8230532 -0.3812615 0.9186289 -0.103733 15197173 male
1.756393 0.7893293 -0.9487038 0.9375982 0.282658 0.2025198 16042440 male
1.811633 1.176299 -0.5935382 0.9525943 0.2421477 -0.1841973 3223601 male
1.364969 0.8968024 -1.022643 -0.6143829 0.5256394 -0.5884189 13621209 male
1.697403 1.167317 -0.5258589 -0.5864631 -0.006838192 0.809947 9735055 male
1.653873 0.6222305 -0.9200739 0.9196357 0.3760084 -0.1135248 5067613 male
1.732625 1.004868 -0.8339941 0.7265435 -0.3909616 0.5650519 12493482 male
1.5206 0.7458285 -1.036928 0.6860658 0.2641801 -0.6778809 4672085 male
1.366496 0.9189976 -1.002412 -0.5882462 0.6235197 -0.5149655 8618641 male
1.650512 0.9910404 -0.8561491 0.5528653 -0.4202439 -0.719538 7564411 male
1.338345 0.9197127 -0.9662945 -0.6092469 0.6258493 -0.4869607 9471896 male
1.647821 0.460304 -0.8866727 0.03571838 -0.3498701 0.9361171 526600 male
1.285008 0.7173893 -0.8736275 -0.9379639 -0.3370712 0.08128199 9277597 male
1.503605 0.8807517 -0.8745247 0.5544095 -0.7668602 0.3233505 11907782 male
1.382971 0.8721547 -0.6748255 0.846917 -0.2699279 -0.4581161 14994898 male
1.65173 1.163601 -0.603706 -0.9946198 0.04597756 0.09282959 11971502 male
1.332949 0.6331241 -0.7927951 -0.9355141 -0.2336886 0.2649586 6383474 male
1.574404 1.13799 -0.6645461 0.003459707 0.8860693 0.4635399 11579321 male
1.679125 1.138114 -0.8093283 0.5530428 0.8104404 -0.1932097 11249847 male
1.413107 0.7655753 -1.077617 -0.01349711 -0.1475299 -0.9889655 9409952 male
1.298964 0.8583258 -0.8534281 -0.8469349 0.09181944 0.5237084 5790561 male
1.609378 0.3236136 -0.9372539 -0.2062282 0.2514807 0.9456359 526600 male
1.657055 0.5636947 -0.9534912 -0.3199813 0.4123831 -0.8529667 526600 male
1.360483 0.7932191 -1.055931 -0.5835895 -0.1075307 -0.8048978 9408927 male
1.326821 0.7258245 -0.9692243 0.07431206 -0.7689444 -0.6349819 591113 male
1.627413 0.2876604 -1.009382 0.1780249 0.09727806 -0.9792059 526600 male
1.696771 1.024818 -0.8206755 0.07965323 -0.9873043 -0.1374254 9013395 male
1.3862 0.2885075 -0.7659657 0.9344701 0.1599249 -0.3181031 526600 male
1.681975 0.4699878 -0.8952307 0.4951684 -0.3853428 0.7786649 526600 male
1.571302 0.3447789 -0.9863151 -0.1758556 0.318697 -0.9314005 526600 male
1.400535 0.9008963 -0.6748037 0.8076106 -0.3605912 -0.4666251 13743290 male
1.340177 0.7581214 -0.6225986 -0.08297333 0.08373387 0.9930277 16638175 male
1.485289 1.099958 -0.6409103 -0.4471171 0.6936836 0.5647029 10131109 male
1.787637 1.214398 -0.5551398 0.7031128 0.6090552 0.3669932 526600 male
1.652487 1.003505 -0.7582754 0.6619152 -0.5740373 0.4820263 15196402 male
1.395309 0.8083048 -1.070766 -0.1591837 0.156479 -0.9747691 7896721 male
1.699306 0.4701215 -0.9399791 0.8277335 -0.3358378 -0.4495222 526600 male
1.363958 0.8578232 -0.8225299 0.2869424 0.1337887 0.9485592 16311255 male
1.432847 1.003659 -0.614368 -0.7553725 0.3286257 0.5669369 15645880 male
1.788072 1.151538 -0.5222084 0.5383483 0.03287325 0.8420811 789516 male
1.420499 0.407054 -0.6943204 0.8701929 -0.4308405 0.2390414 526600 male
1.397959 1.034845 -0.7998875 -0.8722048 0.4875619 0.03926989 8551563 male
1.319 0.8456076 -0.6458999 -0.9738377 0.1444264 0.1754457 15645116 male
1.46611 1.076558 -0.6160274 -0.695616 0.5970775 0.3995207 9210517 male
1.43356 0.4401262 -0.6746712 0.8370311 -0.4334985 0.3338534 526600 male
1.498965 0.673205 -0.9131737 -0.2072578 -0.06641846 0.9760291 3290426 male
1.408354 0.5471011 -0.6408684 -0.5986789 0.1796832 0.780575 526600 male
1.453179 0.6103325 -0.7136741 0.7806271 0.1831514 0.5975591 6055025 male
1.813656 1.138307 -0.5876977 0.9796975 -0.1223136 -0.1588466 15447735 male
1.312156 0.9382616 -0.8855994 -0.7328987 0.6784687 0.0503951 9341595 male
1.647006 1.147402 -0.7524799 0.1223234 0.9604214 0.250255 11118264 male
1.444029 1.021774 -0.6093849 -0.724295 0.2516198 0.6419379 11376021 male
1.575776 0.6152334 -0.8855095 -0.2580766 -0.1168995 0.959026 1184275 male
1.768479 0.6670721 -0.9438598 0.8273996 0.503131 0.2495379 15975885 male
1.427072 0.8125447 -1.07286 0.1363401 0.1822613 -0.9737517 6842485 male
1.637415 0.4445332 -0.8938397 -0.1329398 -0.3040366 0.9433392 526600 male
1.378396 0.629338 -0.7259201 -0.5068701 0.04275334 0.8609616 3423044 male
1.707843 0.4925243 -0.939459 0.8382198 -0.2442361 -0.4875822 526600 male
1.769878 1.13312 -0.5157729 0.2554779 -0.1639437 0.9528134 527368 male
1.392692 0.5331658 -0.6489419 -0.7317053 0.2173669 0.6460333 526600 male
1.481059 0.6497731 -0.9239525 -0.4379855 -0.2894103 0.851123 2632232 male
1.561533 1.106925 -0.6357772 0.3504634 0.1696687 0.9210797 9802140 male
1.664536 0.4776326 -0.9660313 0.2224223 -0.07302471 -0.9722117 526600 male
1.612851 0.3442686 -0.9835224 0.4035113 0.03871724 -0.9141551 526600 male
1.459231 1.078874 -0.6567513 -0.9133253 0.3956569 -0.09639749 6249831 male
1.450677 0.4636087 -0.6986945 0.9367512 -0.3499887 -0.002216578 526600 male
1.755328 0.7710505 -0.936676 0.7120638 0.3084938 0.6307113 16765649 male
1.595903 0.9570322 -0.7700511 0.2147359 -0.8106685 0.5447063 14856926 male
1.6069 0.643552 -0.9045044 0.6389208 0.4150203 0.6477176 8422033 male
1.448686 1.043611 -0.8850624 -0.5546256 0.7589157 -0.3412292 11775682 male
1.703499 1.229566 -0.6297811 -0.3236905 0.8102732 -0.4885507 16643837 male
1.509075 1.054502 -0.586924 0.1056445 0.2920025 0.950565 6841968 male
1.721444 1.203226 -0.6591154 0.0240438 0.4853113 -0.8740107 16116461 male
1.759877 1.049986 -0.5783974 -0.06344652 -0.1661298 0.9840607 12619142 male
1.374234 0.6012797 -0.8210462 -0.3568715 -0.5992008 -0.7166597 7107453 male
1.377166 0.49492 -0.6594012 -0.8123459 0.04158318 0.5816916 526600 male
1.405745 0.9516661 -0.7563772 -0.6969823 -0.2778807 0.6610582 8089716 male
1.449842 1.047889 -0.8755998 -0.4847268 0.7676355 -0.4192561 11643326 male
1.338815 0.6946412 -0.7671283 -0.6557155 0.09969936 0.7483963 3949901 male
1.391463 0.7039176 -1.044354 -0.3852097 -0.7551124 -0.5304891 6250863 male
1.705873 1.227718 -0.5459069 -0.4301778 0.6963039 0.5745501 526344 male
-2.540744 0.3921354 -1.323693 0.9579247 -0.05707128 -0.2812893 5920082 male
-2.577128 -0.05930757 -1.37707 -0.4988019 -0.1586479 -0.8520727 2170913 male
-2.653269 -0.1826818 -1.424143 0.9645467 -0.09916073 0.2445749 2039071 male
-2.527728 0.09395788 -1.257477 0.5258873 -0.1861437 0.8299358 2368036 male
-2.545667 0.3459312 -1.333402 0.9429807 -0.1314839 -0.3057773 6971489 male
-2.701764 -0.2093439 -1.49308 -0.02661476 -0.2328426 -0.9721504 1776155 male
-2.551765 0.6183012 -1.338775 0.5642793 0.4192979 -0.7111809 15193520 male
-2.540494 0.6484108 -1.303041 0.5054969 0.7036502 -0.4993491 5525068 male
-2.631438 0.8476396 -1.37996 -0.7060472 0.07108799 -0.7045878 9799549 male
-2.657605 0.1339317 -1.467274 0.6166335 0.1392019 -0.774846 4212045 male
-2.522895 -0.2901405 -1.283054 0.6065804 -0.1684242 0.7769774 2170913 male
-2.612949 0.8836328 -1.389304 -0.4737872 0.2812265 -0.8345283 9732475 male
-2.756519 0.4009545 -1.318013 -0.9726973 0.0420333 0.2282398 12432045 male
-2.562227 0.4287049 -1.377817 0.7434118 0.01326533 -0.6687026 7958634 male
-2.618059 0.3084654 -1.207407 -0.06367135 0.254648 0.9649356 7958890 male
-2.540253 0.005249761 -1.276009 0.3872976 -0.21635 0.8962107 3025198 male
-2.732001 0.03460957 -1.36536 -0.6572679 -0.2948597 0.6935827 4343114 male
-2.511128 0.6336564 -1.242906 -0.2766665 -0.6580256 -0.7003272 4143927 male
-2.501676 -0.4449681 -1.35969 0.2482064 0.9665636 -0.0644079 2697769 male
-2.519475 0.5497769 -1.259906 0.9418442 -0.2701947 0.1998114 3552307 male
-2.566301 0.7323794 -1.337958 0.7446259 -0.6641716 -0.06639582 12233376 male
-2.556533 0.1614158 -1.383582 0.2672753 0.0332274 -0.9630473 3224633 male
-2.68276 -0.4166812 -1.498156 -0.04663634 0.8730127 -0.4854627 2105378 male
-2.630679 0.609591 -1.661494 -0.1435626 -0.9190167 -0.3671488 10456456 male
-2.700313 -0.3440167 -1.436316 0.9339052 0.2636209 0.2415068 2236707 male
-2.693463 0.6323093 -1.241727 -0.3911802 0.2681817 0.8803732 10459022 male
-2.629233 0.6118334 -1.184675 -0.3934842 0.2319166 0.8895983 9275776 male
-2.52332 0.4747101 -1.274928 0.9860235 -0.09325466 0.1380635 3617327 male
-2.652978 0.08115865 -1.472061 0.6449764 0.04598708 -0.7628177 4344399 male
-2.453668 0.5969919 -1.230224 0.5219551 -0.5311161 0.667442 7959665 male
-2.698561 0.2931526 -1.243413 -0.5483372 0.2626104 0.7939537 11247517 male
-2.653984 0.6003563 -1.417648 0.3866872 0.2816348 -0.8781544 8354158 male
-2.497214 -0.2352791 -1.30265 0.9071048 -0.1769874 0.3818857 2697257 male
-2.444211 0.6453596 -1.274691 0.5452509 0.766114 -0.3402514 8682099 male
-2.54377 0.7409336 -1.353971 0.6540801 -0.7371761 0.1695609 12366244 male
-2.768015 0.7154757 -1.415585 -0.7744204 0.624815 -0.09939462 8813687 male
-2.52056 0.1722727 -1.255839 0.7412153 0.01640897 0.6710669 2565673 male
-2.526356 -0.05812286 -1.296584 0.2924828 0.0393406 0.9554614 1842980 male
-2.65467 -0.1002878 -1.499838 0.5224861 -0.546215 -0.6547195 4013375 male
-2.731623 0.6087714 -1.251129 -0.4416098 0.1257996 0.8883443 6313808 male
-2.742317 0.3923695 -1.389239 -0.7908088 0.08254416 -0.6064719 3025449 male
-2.589422 0.6746971 -1.683622 0.2837673 0.8675538 0.4084441 16242118 male
-2.618627 0.9127634 -1.371617 -0.4603556 0.5741956 -0.6770321 3222825 male
-2.777812 0.2196816 -1.320744 -0.9698374 -0.04313932 0.2399057 8024174 male
-2.522575 0.8724084 -1.293448 0.9270934 0.05230437 0.3711635 5919050 male
-2.655851 -0.1417286 -1.470646 0.8973588 -0.3033859 -0.3204753 2631472 male
-2.718244 0.7200115 -1.452646 0.1459603 0.8659856 -0.4782934 5460043 male
-2.747081 0.1129679 -1.459628 -0.7360585 0.01517571 -0.676748 2040356 male
-2.780596 0.2621924 -1.333701 -0.9975166 0.008222761 0.06995124 6709084 male
-2.701536 0.6179641 -1.421283 -0.01575249 -0.1767238 -0.9841346 5920082 male
-2.682941 0.3310072 -1.246163 -0.5146359 0.3135485 0.7980211 7826791 male
-2.647676 -0.1229916 -1.443887 0.9531914 -0.2633252 0.1486145 1645600 male
-2.511899 0.2397378 -1.277594 0.9458674 0.1696741 0.2766693 7170917 male
-2.734766 0.2982473 -1.430002 -0.3083231 0.3267958 -0.8933878 3881270 male
-2.403628 0.4802382 -1.35334 -0.6250814 -0.7731047 -0.1076223 13152940 male
-2.549112 0.9130405 -1.269279 0.6659498 0.5116381 0.5428973 4340793 male
-2.584461 -0.007095937 -1.280127 -0.4587781 -0.2436721 0.8544865 3158064 male
-2.578588 0.6887542 -1.334986 0.8109234 -0.2418741 -0.532823 13351858 male
-2.643748 0.7061704 -1.352228 -0.3245941 0.007961413 -0.94582 15260880 male
-2.746948 0.169295 -1.291441 -0.5207833 -0.5514348 0.6516938 2763307 male
-2.510346 0.218696 -1.27678 0.9282886 0.1403348 0.344364 1578520 male
-2.700017 -0.3987563 -1.444861 0.8890899 0.1966889 0.4133192 2434341 male
-2.74279 -0.1685883 -1.424581 -0.9177519 0.0797939 0.3890559 2763056 male
-2.53535 0.6160259 -1.326824 0.5669287 0.4730235 -0.6744189 8353909 male
-2.615546 0.01491748 -1.343874 -0.8958658 -0.2228459 -0.3844015 2236706 male
-2.767632 -0.4298092 -1.466894 -0.5955373 -0.8023041 0.04053918 526344 male
-2.714664 0.6539297 -1.406139 0.3214301 -0.5759578 -0.7516352 3684661 male
-2.501469 -0.4606459 -1.37116 0.09742816 -0.9952156 -0.00732024 592137 male
-2.690097 -0.3040574 -1.435778 0.9886794 -0.1078853 0.1042791 2302499 male
-2.781563 -0.4058023 -1.404977 -0.9614032 0.2720194 -0.04134768 2829104 male
-2.41444 0.5155305 -1.350637 -0.7852479 0.3555317 -0.5069351 16708076 male
-2.328907 0.5035111 -1.499257 0.3764488 0.9254355 0.04307479 15387579 male
-2.521795 0.5619422 -1.213216 0.7027082 -0.7079989 -0.07027757 2631207 male
-2.584366 0.937176 -1.350864 0.01074837 0.9144407 -0.4045773 4932930 male
-2.619171 0.6147514 -1.388549 0.5854602 0.3280064 -0.7413828 4209979 male
-2.541407 0.5998906 -1.342157 0.555794 0.3890609 -0.7346597 10260617 male
-2.683033 -0.1440365 -1.39922 0.256316 0.2098191 0.9435456 2302499 male
-2.527823 0.2898579 -1.310169 0.9040829 0.1981784 -0.3786288 6512219 male
-2.42692 0.6222994 -1.259222 0.9201857 0.2522669 0.299366 9340029 male
-2.541893 0.9238464 -1.341783 0.6320302 0.7603925 -0.1494697 6708568 male
-2.517201 -0.3013176 -1.330535 0.7029942 -0.2204396 -0.6761701 2499878 male
-2.652904 0.3267944 -1.226864 -0.4444623 0.3983901 0.8023334 9537152 male
-2.328084 0.4972548 -1.407321 0.9742652 0.1558114 0.1628817 16772842 male
-2.477531 0.6560724 -1.194771 0.4350417 0.3656802 0.8228104 12300970 male
-2.527305 -0.2650729 -1.344616 0.2047385 -0.2324297 -0.9508202 2500137 male
-2.624898 0.1296577 -1.400554 0.9931823 -0.03240111 -0.1119788 2960178 male
-2.499864 -0.134771 -1.299692 0.7521396 0.2047736 0.6263819 2303014 male
-2.534669 -0.04064608 -1.38849 0.05547917 -0.1275981 -0.9902733 2698025 male
-2.610662 0.8785063 -1.392299 -0.4570961 0.2396324 -0.8565278 14140091 male
-2.568776 0.2744505 -1.219485 0.4772489 -0.04810433 0.8774507 7037274 male
-2.699802 0.7068227 -1.281578 -0.3463582 0.7085732 0.6147847 9669252 male
-2.460654 0.6753435 -1.259202 0.450362 0.5809732 -0.6779709 7169374 male
-2.633666 0.0910951 -1.434674 0.9505602 -0.00146275 -0.3105375 3157808 male
-2.496581 0.6994553 -1.758246 -0.2644567 0.960462 0.08703618 15060411 male
-2.57596 0.4301114 -1.389491 0.5993761 0.04765319 -0.7990481 7235686 male
-2.637746 -0.09495715 -1.456346 0.9236518 -0.3818529 -0.03249532 2697257 male
-2.500131 -0.1796992 -1.354871 0.53189 -0.1498584 -0.8334482 2961461 male
-2.744687 -0.1951104 -1.428115 -0.9523124 -0.02789454 0.3038479 2566439 male
-2.517667 0.8874418 -1.330637 0.9536127 0.3006222 0.0157873 6116946 male
-2.566573 -0.1420963 -1.292571 -0.7030638 0.3183478 0.6358899 3224117 male
-2.648518 -0.0329997 -1.392416 0.6001672 -0.09930559 0.7936864 2170145 male
-2.494486 0.6459384 -1.283642 0.3948541 0.2104483 -0.8943166 7104867 male
-2.681987 -0.180541 -1.395872 0.290456 -0.02474537 0.9565685 2565671 male
-2.761059 -0.3847438 -1.44299 -0.9208037 0.08417481 -0.3808355 2697257 male
-2.450058 0.667561 -1.222562 0.8824683 0.3835657 0.2722631 9998727 male
-2.577755 -0.2203803 -1.338624 -0.8309054 -0.1764034 -0.5277105 1710877 male
-2.634499 0.6007589 -1.614273 0.3067563 -0.9516564 -0.01582973 10589073 male
-2.66973 0.4991531 -1.42113 -0.02496746 0.0668016 -0.9974541 6116175 male
-2.671768 -0.2291718 -1.414993 0.7962265 -0.2555488 0.548378 2039327 male
-2.701835 0.3449313 -1.264216 -0.5551522 0.2617907 0.7894758 6445394 male
-2.663686 0.8697609 -1.266402 -0.8654237 0.09527662 0.491899 4932154 male
-2.497774 0.6517635 -1.26559 -0.3979729 0.3112187 -0.8629953 8089971 male
-2.664107 0.9013601 -1.308632 -0.9271283 0.3712984 -0.05070263 6511192 male
-2.595105 0.8322182 -1.397707 -0.2174084 0.05424226 -0.9745725 12958131 male
-2.60342 -0.02697477 -1.325261 -0.9632212 -0.1936178 0.1863258 2828845 male
-2.489187 -0.1904796 -1.30775 0.9393092 -0.04920528 0.3395252 2369066 male
-2.54023 0.3695315 -1.275123 0.948337 -0.06130214 0.3112863 3880755 male
-2.665385 0.6018878 -1.208886 -0.7218285 0.1768913 0.669084 7827563 male
-2.503223 -0.05350922 -1.32675 0.9437918 -0.05345323 0.3261903 3289909 male
-2.746206 0.1508849 -1.308266 -0.4839687 -0.6381849 0.5987441 4407879 male
-2.590783 0.910616 -1.242826 0.116381 0.5006827 0.8577718 4406587 male
-2.628554 0.7731643 -1.373464 -0.7250307 -0.3759868 -0.577031 14273217 male
-2.703806 0.18236 -1.470163 -0.09477288 0.283583 -0.9542532 2961461 male
-2.610497 0.2861467 -1.411694 0.3290778 0.0436759 -0.9432924 7104100 male
