# .PCD v0.7 - Point Cloud Data file format
VERSION 0.7
FIELDS x y z normal_x normal_y normal_z rgb label
SIZE 4 4 4 4 4 4 4 4
TYPE F F F F F F U U
COUNT 1 1 1 1 1 1 1 1
WIDTH 254
HEIGHT 1
VIEWPOINT 0 0 0 1 0 0 0
POINTS 254
DATA ascii
1.338903 0.2035989 -1.31021 0.1748283 0.9525062 0.2493332 12039367 male
1.367333 0.3137559 -1.097823 -0.4685937 0.8742841 -0.1266775 7042435 male
1.737573 0.3693529 -1.239489 0.5548727 0.6790007 0.4807019 526600 male
1.412679 0.2086381 -1.06788 0.5082556 -0.6654933 0.5466212 7764103 male
1.356952 0.2036261 -1.352575 0.6926531 0.4389505 0.5723234 10986423 male
1.641957 0.2948568 -1.305589 0.4735399 0.1074682 -0.8741914 591113 male
1.282044 0.06316981 -1.382476 -0.561641 -0.7068809 -0.4299753 11380921 male
1.333364 0.01356643 -1.303489 -0.3660877 -0.9293585 0.04767057 5855073 male
1.319581 0.5851395 -1.518173 0.3936907 -0.3028672 -0.8679165 11309972 male
1.532899 0.2483139 -1.27646 -0.4817265 0.8680035 -0.120455 132619 male
1.507241 0.3596171 -0.9332137 0.730294 0.6538165 0.1979759 526600 male
1.320566 0.6480911 -1.520444 0.5554482 0.2886728 -0.7798367 15190982 male
1.334586 0.3433589 -1.379346 0.8806489 0.1614466 0.4454127 15245272 male
1.409399 0.1207203 -1.351653 0.1921336 0.7968687 -0.5727869 12633553 male
1.300203 0.06966806 -1.169286 -0.5345424 -0.5299037 0.6583817 12436176 male
1.414576 0.3770666 -1.03188 -0.06130031 -0.526594 -0.8479038 526600 male
1.551656 0.104122 -1.315623 0.6526478 -0.4316033 -0.6227114 3224374 male
1.189267 0.436778 -1.278317 0.1244818 0.7587011 0.6394348 13480629 male
1.694343 0.235581 -0.864153 -0.7158926 0.4120803 0.5636379 986895 male
1.316338 0.3723648 -1.357715 0.7788464 0.3830919 0.4966274 14539397 male
1.354353 0.4955442 -1.448451 0.9923878 -0.05670394 0.1093215 16768477 male
1.42174 0.2299406 -1.164317 0.6998935 0.4613076 -0.545293 3815746 male
1.850769 0.2173098 -1.015883 -0.3679389 0.9075679 0.2023401 526600 male
1.592155 0.2579275 -1.416982 0.9355121 -0.09148486 -0.3412442 13736591 male
1.740785 0.2359808 -1.152861 -0.96064 -0.2776913 -0.007634103 526600 male
1.302025 0.247015 -1.55454 -0.1912379 -0.4717091 -0.8607663 8552078 male
1.173943 0.4240959 -1.471824 -0.7832903 0.345667 -0.5166921 13816290 male
1.135819 0.4100086 -1.36705 -0.9995542 -0.01079071 -0.02783659 7303031 male
1.780307 0.2588219 -1.131829 -0.5215647 0.7452273 0.4154593 526600 male
1.319068 0.4916122 -1.15384 0.1647417 -0.9087062 -0.3835533 9600122 male
1.259324 0.06501388 -1.348952 -0.5886714 -0.7225063 -0.3625611 14406884 male
1.680268 0.2246509 -0.8132399 0.6291606 -0.7630067 0.1482486 526600 male
1.363752 0.4035036 -0.9796957 -0.8307549 -0.2802568 0.480939 526600 male
1.150895 0.3848733 -1.324828 -0.7384543 -0.6383314 -0.2172977 8749712 male
1.393902 0.60918 -1.420524 0.6794777 0.6579297 0.3247131 12295062 male
1.54189 0.338806 -1.46091 0.6361095 0.5348843 -0.5561146 13211015 male
1.323866 0.2097038 -1.221432 -0.3397599 0.7013987 -0.6265805 8358296 male
1.181815 0.2700167 -1.140396 0.1165007 -0.9928055 0.02765386 15313572 male
1.630242 0.3476177 -1.244544 -0.5263273 0.09680828 0.844753 526600 male
1.285267 0.2366229 -1.546051 -0.3509553 -0.4721652 -0.8086349 10196388 male
1.249707 0.2524818 -1.533375 -0.6252937 -0.3820148 -0.6804944 10790069 male
1.559371 0.2949439 -1.408013 -0.8407966 -0.02758428 -0.5406477 16501197 male
1.29933 0.5380145 -1.501571 0.1553041 -0.5871149 -0.7944663 16439509 male
1.226251 0.2441988 -1.496506 -0.836973 -0.364287 -0.4083761 10789043 male
1.225311 0.6416662 -1.415198 -0.4157888 0.3089461 0.8553782 9933206 male
1.647602 0.3230733 -1.279114 -0.5373266 -0.7488155 0.3880148 526600 male
1.47754 0.4494008 -1.390527 -0.6941058 -0.144455 0.7052304 6704979 male
1.533869 0.2902452 -1.444218 0.2466658 -0.8905496 -0.3822009 16435392 male
1.22309 0.3541212 -1.520402 -0.8231645 0.0492073 -0.5656667 13550550 male
1.397591 0.3249889 -1.490217 0.8817345 -0.3494737 -0.3168791 7564411 male
1.223241 0.2168763 -1.463028 -0.6785731 -0.4564606 -0.5754844 12630481 male
1.731907 0.358788 -1.222887 0.4451429 0.696438 0.5628693 526600 male
1.267006 0.1590221 -1.187448 -0.8989763 0.30658 0.3128101 3552566 male
1.419863 0.00393932 -1.25212 0.1606757 -0.8494519 0.5026079 8883624 male
1.200396 0.353084 -1.183866 0.5155831 0.8174596 0.2567757 14527405 male
1.197085 0.6539505 -1.443599 -0.7146718 0.4899889 0.4991543 526600 male
1.479929 0.3547292 -0.9963551 0.5581509 -0.2187334 -0.8003894 526600 male
1.568925 0.3062092 -0.8675304 0.2289698 0.2064136 -0.9512971 526600 male
1.323192 0.4373696 -1.57132 0.1300263 0.5485755 -0.8259287 7499642 male
1.513465 0.07097654 -1.331184 0.6290956 -0.3871723 -0.6740447 3752266 male
1.278449 0.161656 -1.158632 -0.8940115 0.1721613 0.413647 4802899 male
1.847393 0.198376 -0.9883068 -0.4413391 -0.05733804 0.8955067 526600 male
1.658405 0.3468588 -1.30001 0.4425246 0.5261564 -0.7261758 6777717 male
1.362457 0.03389107 -1.396616 0.005120546 -0.8167146 -0.5770192 7237501 male
1.345846 0.06731262 -1.152646 0.01577982 -0.5903153 0.8070184 9410213 male
1.883415 0.1483815 -1.102862 -0.1685737 -0.738138 0.6532497 526600 male
1.523983 0.3219963 -1.427722 -0.1221056 0.8385426 0.530977 14195360 male
1.62233 0.3094383 -0.7811328 -0.02712543 0.8216721 0.5693145 526600 male
1.78114 0.2397465 -1.127838 -0.7884873 0.4885646 0.3736205 526600 male
1.785823 0.2185664 -1.130027 -0.7722161 0.4506223 0.447908 526600 male
1.228852 0.3765829 -1.256373 0.9501718 -0.1988543 -0.2400636 3749951 male
1.21703 0.3062415 -1.140632 -0.1815555 -0.1027979 -0.9779929 14594484 male
1.392258 0.227167 -1.399673 0.9719706 0.08340324 0.2198114 11840959 male
1.245245 0.6755921 -1.526136 -0.2188369 0.6546892 -0.7235279 526600 male
1.692595 0.273865 -0.815616 0.4686508 0.613613 -0.6354884 526600 male
1.28229 0.05958249 -1.374231 -0.5622611 -0.7211545 -0.4047205 11973317 male
1.689466 0.3941348 -1.289202 0.5407824 0.7566317 0.3675092 526600 male
1.245407 0.1926506 -1.28557 -0.3878183 0.8572999 0.3385762 9142668 male
1.310392 0.4810145 -1.168066 0.7651927 -0.4884343 0.4194188 13027795 male
1.251502 0.4894003 -1.454613 -0.9789882 0.195942 -0.05646917 16105647 male
1.38642 0.3647901 -0.9855486 -0.7009561 -0.7029885 0.1202818 526600 male
1.22596 0.07828677 -1.318028 -0.7052171 -0.6553348 -0.2705644 10526128 male
1.159801 0.31437 -1.136172 -0.6284451 0.7093685 0.3191442 14526108 male
1.204259 0.4067152 -1.235901 0.2319134 0.8909668 0.3903773 14592677 male
1.41918 0.4218983 -0.945203 -0.07351616 0.413936 0.9073325 526600 male
1.542728 0.2616664 -1.260884 -0.5609298 0.8105205 0.1685658 5791079 male
1.197856 0.3497019 -1.270201 0.468002 -0.7889688 -0.3981235 657673 male
1.456685 0.4028251 -1.024022 0.6799052 0.2090679 -0.7028652 526600 male
1.31469 0.6889089 -1.487581 0.5186299 0.7693527 -0.3729872 13478563 male
1.218681 0.1143333 -1.248831 -0.810288 -0.1737195 0.5596918 8354695 male
1.747003 0.1852695 -0.8891693 0.6975027 -0.3656657 -0.6162618 526600 male
1.158586 0.407831 -1.263495 -0.8106861 0.3687007 0.4548053 16505041 male
1.599556 0.3187799 -1.267247 -0.4041461 0.9026569 0.1479073 921358 male
1.540671 0.542954 -1.379567 -0.7554302 -0.4751826 -0.4511393 789004 male
1.145431 0.3326542 -1.378719 -0.884789 -0.3642877 0.2905903 7829637 male
1.737726 0.3426707 -1.20701 0.4420872 0.6791974 0.5858752 526600 male
1.375774 0.136761 -1.096492 0.04942596 -0.6613277 0.748467 7436676 male
1.620966 0.3232233 -1.287695 -0.102001 0.8488422 -0.5187125 7831440 male
1.319672 0.6705959 -1.428899 0.6736949 0.360022 0.6453831 13149343 male
1.174732 0.3649302 -1.308912 -0.08904956 -0.8992922 -0.4281865 11902620 male
1.537845 0.0677328 -1.251994 0.7345342 -0.6617528 0.150142 12830671 male
1.222941 0.4700646 -1.41216 0.1402445 0.8683877 0.4756409 11511479 male
1.680299 0.4020993 -1.259833 -0.09108576 0.6631315 0.7429401 526600 male
1.813688 0.1969407 -1.14121 -0.1698485 -0.7286967 -0.66344 526600 male
1.185232 0.4197747 -1.254434 -0.1108015 0.8532236 0.5096397 15711935 male
1.330187 0.2579785 -1.084885 -0.8029463 0.2655274 0.5336407 3224642 male
1.526209 0.3387955 -1.475384 0.7146208 0.07647091 -0.6953197 14791595 male
1.343815 0.4746 -1.447888 0.9586527 -0.0814339 0.2726783 15060438 male
1.758726 0.3022042 -1.21342 0.9782085 -0.09359355 -0.1853331 526600 male
1.282375 0.3053609 -1.574542 -0.4229003 -0.3788758 -0.8231698 10921143 male
1.247525 0.5505999 -1.516976 -0.08114845 -0.7322324 -0.6762031 13616328 male
1.193142 0.4334413 -1.274256 0.1827249 0.7877191 0.5883113 13086128 male
1.245723 0.5581419 -1.523409 -0.0772461 -0.6768147 -0.7320894 10590109 male
1.290399 0.5593426 -1.532758 0.6162665 -0.1099554 -0.779824 15040132 male
1.381792 0.3611651 -1.03196 -0.2669138 -0.9570858 0.1128878 526600 male
1.408391 0.08356607 -1.217305 0.9732949 0.1736031 -0.1501967 526600 male
1.290196 0.2492667 -1.302091 0.2485683 0.2552802 0.9343692 8618379 male
1.165251 0.3427565 -1.473909 -0.7267607 -0.1613492 -0.6676716 13486295 male
1.379239 0.1468969 -1.089413 0.05427542 -0.670202 0.7401915 10331578 male
1.419863 0.1262292 -1.31854 -0.5168854 0.5647199 -0.6433668 7962513 male
1.195431 0.5620308 -1.465035 -0.7887854 -0.6099704 0.07585308 9735828 male
1.398612 0.6028075 -1.430481 0.8732424 0.3449936 -0.3441325 13281961 male
1.638822 0.3787589 -1.254585 -0.3085541 0.6328713 0.7101185 1908256 male
1.375953 0.202815 -1.372604 0.9309388 0.2578331 0.2586023 12433102 male
1.844023 0.1562582 -1.11947 -0.973233 -0.2213462 0.0618324 526602 male
1.493175 0.318127 -1.423377 -0.6907871 -0.1076441 0.7150006 7563635 male
1.408883 0.1065884 -1.141333 0.6625524 -0.5903597 0.4609768 2828851 male
1.45362 0.4076505 -0.9405162 0.3954107 0.5935404 0.7009709 526600 male
1.317407 0.2024697 -1.5318 0.03265217 -0.5900958 -0.8066726 7038572 male
-2.512927 0.3820877 -1.444653 0.8516948 -0.4677109 -0.2363526 5065029 male
-2.616607 0.03028395 -1.376638 -0.7499747 -0.07187115 -0.6575507 2698289 male
-2.730813 0.01335161 -1.420082 -0.08709332 -0.231195 -0.9690015 4145735 male
-2.530516 0.02911256 -1.305378 0.8047088 -0.2145164 0.5535582 2696747 male
-2.535085 0.3558816 -1.450357 0.71407 -0.5562885 -0.4250265 5788495 male
-2.775189 -0.1520382 -1.324603 -0.9441909 0.1100921 0.3104569 1908001 male
-2.536769 0.5677 -1.577696 0.4307595 -0.03667012 -0.9017217 7893612 male
-2.555373 0.4242713 -1.533288 0.2096814 -0.495594 -0.8428646 16443061 male
-2.564182 0.7126266 -1.724496 -0.4609652 -0.05152332 -0.8859214 15389122 male
-2.665204 0.06577852 -1.350711 0.9863709 -0.1505588 -0.06636888 2434343 male
-2.513527 -0.3558851 -1.378448 0.8651041 0.1350485 -0.4830704 1842978 male
-2.571763 0.7702978 -1.728889 -0.5490581 0.1637418 -0.8195878 5195076 male
-2.74496 0.4100676 -1.402036 -0.9537294 0.2709089 0.130418 3816504 male
-2.576015 0.3506759 -1.49293 0.407343 -0.5401439 -0.7364215 7958634 male
-2.588256 0.302738 -1.252571 0.2814946 0.3955008 0.8742655 7761257 male
-2.558021 -0.01104582 -1.289256 0.4761861 -0.1943471 0.8575991 2302499 male
-2.761765 0.001344251 -1.315721 -0.7700855 -0.2227532 0.5977875 2499886 male
-2.458096 0.5585269 -1.532159 -0.6496466 -0.7586681 0.04880679 8618107 male
-2.521461 -0.4479226 -1.429532 -0.6439457 -0.724821 -0.2448851 2105120 male
-2.462556 0.5437801 -1.443827 0.4836863 -0.8061046 0.3409444 2500390 male
-2.548199 0.6082664 -1.639918 0.5273388 -0.7110478 -0.4651075 16704477 male
-2.538 0.1311203 -1.398336 0.5055757 0.09373529 -0.8576754 3752010 male
-2.659579 -0.4438383 -1.468302 0.9319714 0.3523203 -0.08543932 2039839 male
-2.566164 0.3409058 -1.740115 0.2688046 -0.9430162 0.1961239 8747128 male
-2.694423 -0.24168 -1.360519 0.8407393 -0.08550902 -0.5346458 2434343 male
-2.657535 0.6288309 -1.485488 -0.1550051 0.806132 0.5710734 12695474 male
-2.57955 0.5944527 -1.411191 -0.345901 0.556879 0.7551413 8880253 male
-2.511548 0.5264335 -1.39 0.4038354 0.1520184 0.9021128 7959921 male
-2.67264 0.04424369 -1.37615 0.9526204 -0.05328449 -0.2994585 2697773 male
-2.376155 0.5147455 -1.533718 0.7802266 -0.05601189 0.6229843 4339769 male
-2.631793 0.2649713 -1.235531 -0.1546087 0.2006171 0.967393 11378583 male
-2.635988 0.5645805 -1.600865 0.3639576 0.1294127 -0.9223814 7036250 male
-2.530415 -0.2115451 -1.28674 0.489902 -0.1190006 0.8636174 2565671 male
-2.441532 0.5495532 -1.571971 -0.6019304 -0.008984892 -0.7984983 7236453 male
-2.489525 0.6356543 -1.696718 0.7843071 -0.6189166 0.04248416 11510936 male
-2.740409 0.5559875 -1.643429 -0.9402073 -0.1883261 -0.2838026 8944505 male
-2.515864 0.1288378 -1.294185 0.8831142 -0.08096185 0.4621198 2170913 male
-2.5321 -0.03046995 -1.322192 0.9211391 -0.05579485 0.3852139 1908771 male
-2.724079 -0.05299402 -1.415872 -0.180457 -0.03312533 -0.9830251 3224633 male
-2.683959 0.620191 -1.484165 -0.3045902 0.79778 0.5203576 8221804 male
-2.64025 0.5471249 -1.405274 -0.1857855 0.4315436 0.8827538 7235170 male
-2.53958 0.4025877 -1.784987 -0.1469932 0.9791048 -0.1405233 16438725 male
-2.593675 0.7941442 -1.700883 -0.7405539 0.3765044 -0.5566188 3222825 male
-2.692678 0.2421903 -1.242796 -0.02071941 0.006909702 0.9997617 2170913 male
-2.475579 0.785025 -1.642132 0.9451899 0.2843215 0.1605539 3947060 male
-2.713446 -0.08929969 -1.408786 0.3278694 -0.3843657 -0.8629977 3948098 male
-2.64776 0.5522691 -1.672715 0.5889242 0.5795901 -0.5632439 8353392 male
-2.806844 0.1192211 -1.35724 -0.9892259 -0.1095553 -0.09710878 2237478 male
-2.701585 0.2778095 -1.249849 -0.1246378 0.2941683 0.9475921 9537926 male
-2.729746 0.4601956 -1.512625 -0.81511 -0.2436284 -0.5255866 3946035 male
-2.589723 0.2382758 -1.232898 0.3153612 0.09541307 0.9441631 4671813 male
-2.679974 0.03085572 -1.39442 0.8625142 -0.01040786 -0.505926 3355187 male
-2.513253 0.2443669 -1.320204 0.9760977 0.1073136 0.1889909 5590860 male
-2.64132 0.2993357 -1.468635 0.05818304 -0.5868093 -0.8076322 7893357 male
-2.345875 0.3525327 -1.587708 -0.6747172 -0.7347596 0.06989366 13152940 male
-2.490077 0.8124583 -1.640543 0.7631307 0.6369535 0.1091877 3354670 male
-2.573913 -0.01042515 -1.283183 0.1341053 -0.2072592 0.9690509 2632496 male
-2.525258 0.6622617 -1.516988 0.3774695 0.9249364 -0.04482675 5327170 male
-2.696785 0.6425339 -1.562833 -0.5205758 0.8213624 -0.2331626 4933187 male
-2.777844 0.1323825 -1.287205 -0.6384938 -0.267836 0.7215192 3355963 male
-2.528543 0.242893 -1.367566 0.6762847 0.1720428 -0.7162684 7959409 male
-2.733769 -0.396215 -1.360826 0.9491258 0.140683 0.2817244 1777186 male
-2.763727 -0.1590184 -1.303447 -0.6777999 0.1099012 0.7269865 2696233 male
-2.738576 0.3519275 -1.444632 -0.7907354 -0.1962331 -0.5798538 3552559 male
-2.631073 -0.007496907 -1.333324 -0.990804 -0.1333221 0.02308679 2170657 male
-2.771451 -0.4555924 -1.346409 0.2001882 -0.9757624 0.08838817 789004 male
-2.668168 0.5842898 -1.67114 0.6654566 0.2861867 -0.6893946 6511189 male
-2.520725 -0.450228 -1.397869 -0.2583594 -0.9258937 -0.2756289 986895 male
-2.696406 -0.2224891 -1.365513 0.766071 -0.06347182 -0.6396146 2434858 male
-2.788631 -0.436943 -1.373773 -0.9793413 0.07684749 0.1870441 2171169 male
-2.367921 0.3996539 -1.565087 -0.6742795 -0.6318473 0.3822517 12167334 male
-2.303702 0.3721164 -1.726133 0.8403617 0.5410637 -0.03228796 15519939 male
-2.465409 0.5208381 -1.518108 0.7755963 -0.627981 -0.06395596 5328201 male
-2.551448 0.8147963 -1.714954 -0.214043 0.7204562 -0.6596428 15590106 male
-2.62955 0.4533339 -1.572206 0.2090318 -0.6144345 -0.7607734 16571565 male
-2.718331 0.347821 -1.463144 -0.5783965 -0.3000821 -0.7585568 5130566 male
-2.754529 -0.1656276 -1.294794 -0.4579336 0.08419282 0.8849908 3093047 male
-2.564126 0.2380262 -1.38869 0.4311706 0.1011641 -0.8965813 1775894 male
-2.352105 0.4913222 -1.594003 0.7114733 0.6464189 -0.2755878 16373704 male
-2.57174 0.6634955 -1.553623 -0.0969625 0.7299571 0.6765804 14991799 male
-2.537094 -0.218753 -1.375491 0.0460811 -0.003313272 -0.9989324 2302506 male
-2.577697 0.4449626 -1.340544 0.2682907 0.2504169 0.9302213 8157553 male
-2.290849 0.3684682 -1.671212 0.9835849 0.09719488 -0.1520343 16771551 male
-2.404662 0.6067426 -1.559493 0.6750612 0.5650437 -0.4743608 7565162 male
-2.518547 -0.2917655 -1.36438 0.7486789 -0.04701813 -0.6612635 2696233 male
-2.685356 0.08548657 -1.404046 0.7465421 -0.02627208 -0.6648196 3157808 male
-2.536098 -0.1539672 -1.286036 0.4773033 0.2145279 0.85215 2434085 male
-2.601727 -0.07253995 -1.372925 -0.6533582 -0.2386396 -0.7184527 2235938 male
-2.51818 0.8094616 -1.719195 0.3118612 0.6866021 -0.6567498 7168860 male
-2.57932 0.2113203 -1.233619 0.3873897 0.01561491 0.9217839 3225149 male
-2.693871 -0.4628526 -1.464079 -0.5825859 -0.8125713 -0.01793087 395529 male
-2.385044 0.5632076 -1.527239 0.9069919 0.1693451 0.3856011 10130314 male
-2.672559 -0.06595223 -1.340344 0.9864877 -0.1367197 0.09027714 1775899 male
-2.406427 0.3885712 -1.887111 -0.5629206 0.1158697 -0.8183488 15716298 male
-2.696999 0.3167251 -1.461053 -0.4883211 -0.4370917 -0.7553102 6840159 male
-2.694529 0.02256412 -1.411301 0.5839763 -0.07396357 -0.8083943 3619391 male
-2.529008 -0.0374988 -1.351619 0.9790769 -0.1516147 -0.1357262 3289651 male
-2.767969 -0.2170476 -1.371668 -0.8357608 -0.1419384 -0.5304316 1973793 male
-2.474772 0.7742088 -1.685982 0.9445168 0.2210145 -0.2429833 4999492 male
-2.560542 -0.1384389 -1.284172 -0.02084711 0.241945 0.9700661 2828851 male
-2.670366 0.02658395 -1.337205 0.9842544 -0.06772812 0.1632681 2170913 male
-2.481433 0.5875598 -1.566343 -0.3056744 0.3350796 -0.8912268 6840153 male
-2.710205 -0.1243377 -1.303666 0.4898204 0.2461546 0.8363517 2435117 male
-2.754752 -0.3861955 -1.400308 -0.564765 0.4847718 -0.6678602 2368804 male
-2.399932 0.6055046 -1.539086 0.8285241 0.5512698 -0.09823269 10326668 male
-2.594429 -0.2072881 -1.348143 -0.8047389 -0.04259645 -0.592099 1710876 male
-2.607787 0.3711924 -1.687202 0.2488808 -0.6521347 0.7160859 5721159 male
-2.564039 0.4753934 -1.560133 -0.05797848 -0.4638147 -0.8840331 7630953 male
-2.718607 0.01027717 -1.418616 0.09858781 -0.177796 -0.9791167 3948357 male
-2.660022 0.4113562 -1.333374 -0.09343092 0.4073444 0.9084831 10459023 male
-2.615887 0.7973713 -1.631923 -0.9287572 0.3573925 0.09839135 5327945 male
-2.447718 0.5807874 -1.569375 -0.1595177 -0.3055287 -0.9387261 4143671 male
-2.607494 0.8048862 -1.663257 -0.8263881 0.4963528 -0.2659264 5196100 male
-2.595141 0.7323782 -1.699191 -0.8690552 -0.1533001 -0.4703642 7168860 male
-2.615854 -0.08028881 -1.326327 -0.8421882 -0.2774632 0.4623132 2697257 male
-2.518732 -0.1895813 -1.294801 0.7745928 0.02363993 0.6320184 2631208 male
-2.503148 0.3995125 -1.42005 0.9313414 -0.3303978 0.153104 3553590 male
-2.633111 0.497733 -1.382523 -0.2477417 0.3931262 0.8854806 10196371 male
-2.509443 0.05529451 -1.336237 0.9735862 -0.1535248 0.1689982 2499369 male
-2.774785 0.1471513 -1.28069 -0.6289455 -0.2907324 0.7210428 2697265 male
-2.559623 0.7693989 -1.564726 -0.1876429 0.152868 0.970269 6313295 male
-2.584537 0.6654982 -1.675999 -0.8421484 -0.5068238 -0.184163 13614004 male
-2.743837 0.1424752 -1.428676 -0.1377653 0.08147897 -0.987108 3619135 male
-2.668641 0.1973827 -1.417395 -0.2186606 -0.4885191 -0.8447111 2565671 male
-2.744977 -0.4544928 -1.409861 0.4244606 -0.9053611 -0.01243535 592137 male
