# .PCD v0.7 - Point Cloud Data file format
VERSION 0.7
FIELDS x y z normal_x normal_y normal_z rgb label
SIZE 4 4 4 4 4 4 4 4
TYPE F F F F F F U U
COUNT 1 1 1 1 1 1 1 1
WIDTH 249
HEIGHT 1
VIEWPOINT 0 0 0 1 0 0 0
POINTS 249
DATA ascii
1.330213 0.218732 -1.250103 0.9235308 0.3324486 0.1912291 5726575 male
1.326901 0.3088757 -1.092221 0.2756291 0.8955142 -0.3494036 6777463 male
1.676078 0.3426085 -1.131585 0.3513419 0.6991396 0.6227059 526600 male
1.288926 0.1858827 -1.062761 -0.3361488 -0.6906338 0.6403351 4212814 male
1.339278 0.2319249 -1.257221 0.9331275 0.3560014 0.05036011 4541526 male
1.705761 0.311894 -1.213284 0.8232082 -0.4572297 -0.3365549 526600 male
1.264107 0.1868758 -1.436372 -0.3677292 -0.3075362 -0.8776085 8815761 male
1.243914 0.1267177 -1.379294 -0.5266992 -0.6353725 -0.5647033 9343134 male
1.22731 0.6308665 -1.109808 0.8614174 0.2709365 0.4295969 9470079 male
1.641974 0.341355 -1.132454 -0.457089 0.7535207 0.4725211 526600 male
1.46447 0.2809865 -0.8532218 0.8004202 0.5312299 -0.2777089 526600 male
1.162961 0.6172512 -1.05212 0.09347454 0.06928161 0.9932083 14925754 male
1.36058 0.3447767 -1.376585 0.9936291 -0.06965964 0.08859253 9340563 male
1.325116 0.272285 -1.353901 0.9601872 0.15058 0.2353001 12498378 male
1.171039 0.145567 -1.239681 -0.9025543 -0.2833 0.3242482 4343122 male
1.394285 0.3211172 -0.9645793 0.5374301 -0.2443945 -0.8071185 526600 male
1.517552 0.1696036 -1.280244 0.7110306 -0.3041363 -0.6339846 3685446 male
1.032328 0.4364383 -1.241857 -0.7437154 -0.137083 0.6542902 12759733 male
1.537939 0.2129812 -0.6660058 -0.4764338 -0.7796832 0.406331 920846 male
1.169397 0.4848604 -1.214342 -0.1193219 0.1839591 0.9756646 13616087 male
1.26709 0.5962924 -1.222754 0.7627655 0.5828565 0.2801198 16039605 male
1.316029 0.2479113 -1.183267 0.5654044 0.6776763 -0.4701837 3751751 male
1.623308 0.1919969 -0.8363469 0.6742681 0.4110492 -0.6135154 526600 male
1.441364 0.5574362 -1.561562 0.7152913 0.4232747 -0.5560548 15387081 male
1.628692 0.2419864 -1.113 -0.606768 -0.66048 -0.4422655 526600 male
1.283131 0.4292874 -1.464361 -0.01752427 0.1436176 -0.989478 10591146 male
1.123195 0.5401316 -1.30097 -0.6324679 0.7250423 -0.2725767 13881059 male
1.154042 0.4595191 -1.208072 0.05200785 0.1816401 0.9819887 12433093 male
1.572501 0.3010966 -1.193287 -0.2754537 0.8670632 0.4151225 855565 male
1.084355 0.1060034 -1.189589 0.4124981 0.9098086 0.04575735 1841690 male
1.189726 0.2136707 -1.401718 -0.5992092 -0.3640486 -0.7130336 9998752 male
1.644444 0.2217 -0.7547337 0.4430313 -0.797821 0.4089071 526600 male
1.317939 0.3172839 -0.9393309 -0.7721713 -0.6352627 -0.01388246 526600 male
1.039198 0.4652008 -1.289297 -0.7417966 0.3382507 -0.5790719 9999520 male
1.163774 0.5205938 -1.080525 -0.5220001 -0.6386552 0.5653631 12163729 male
1.396858 0.5813418 -1.392091 0.8674596 0.2937101 0.4015572 16300982 male
1.201642 0.220908 -1.137697 -0.8807707 0.2408612 0.4077117 4474698 male
0.9861933 0.3010577 -1.391083 0.3369604 -0.2246773 -0.9143182 13345956 male
1.61545 0.2659489 -1.202791 -0.6239659 -0.7298626 0.2792262 526600 male
1.250665 0.3952117 -1.465749 -0.3020432 0.05139147 -0.951908 8026243 male
1.236225 0.41574 -1.458604 -0.4273591 0.07936203 -0.900592 14277097 male
1.362545 0.5941817 -1.514619 -0.3609803 0.6065413 -0.7083789 16305859 male
1.249434 0.5902815 -1.164079 0.9125996 0.2947378 0.283358 12494242 male
1.196384 0.5206469 -1.386765 -0.7007467 0.4344721 -0.5658517 12497862 male
1.090266 0.6198787 -1.161652 -0.9156252 -0.2669156 -0.3006437 9735055 male
1.634849 0.2470321 -1.223668 0.1783589 -0.887399 -0.4251014 592137 male
1.343316 0.6182546 -1.382872 -0.02493612 0.9267788 -0.3747789 13870753 male
1.337225 0.5520285 -1.404868 -0.5881748 -0.78857 -0.179465 1972766 male
1.206218 0.5365523 -1.386546 -0.6843707 0.4472306 -0.5758658 11907782 male
1.357606 0.4593825 -1.377779 0.9892007 0.1460817 -0.01191539 526600 male
1.187047 0.4011837 -1.425212 -0.4303922 0.04427933 -0.9015553 12300999 male
1.673845 0.2253317 -1.03811 0.8920058 -0.3626283 0.2698632 526600 male
1.211704 0.2366086 -1.217605 -0.3947124 0.8981956 -0.1935116 4869467 male
1.094733 0.4160532 -1.343813 -0.8247505 -0.2261727 -0.5182979 9276053 male
1.086238 0.4102126 -1.274183 0.91755 -0.2278885 -0.3258354 526857 male
1.083632 0.6432663 -1.145908 -0.9949312 0.07873886 -0.06254721 723723 male
1.317421 0.3165477 -0.9990151 -0.2792614 -0.9594274 -0.03888728 526600 male
1.544846 0.2621519 -0.7397814 0.5324314 0.605959 -0.5910419 526600 male
1.321732 0.5410222 -1.26418 0.332554 0.1846512 0.9248306 12498118 male
1.378971 0.1569797 -1.34757 0.3575063 0.4540677 -0.8160954 6117988 male
1.198326 0.1745265 -1.150439 -0.8297116 -0.1594371 0.5349379 3420989 male
1.68686 0.1326921 -0.8926677 -0.6967606 0.07366498 0.713511 526600 male
1.722952 0.3236132 -1.202527 0.9075493 -0.4168004 0.05130127 526600 male
1.277621 0.1748487 -1.435301 -0.2693376 -0.3699401 -0.8891578 7565179 male
1.280926 0.09629389 -1.182146 0.3972871 -0.7755705 0.4905644 4738131 male
1.660893 0.1322852 -0.8639676 -0.1644448 -0.9863739 0.004946589 526602 male
1.378429 0.5806088 -1.335637 0.9240131 0.01972589 0.3818517 14204354 male
1.636781 0.2211754 -0.7471219 0.9315538 -0.2003736 -0.3034105 526600 male
1.643319 0.2376697 -1.116981 -0.1510456 -0.9034178 -0.4012749 526600 male
1.673476 0.1989301 -0.9815575 -0.2006665 0.9605641 0.1924823 526600 male
1.085669 0.3955996 -1.264794 0.9484146 -0.3169634 -0.00663802 1185045 male
1.03833 0.2198164 -1.318709 0.8363345 0.5193237 -0.1756347 14726841 male
1.207952 0.4932359 -1.215988 -0.01207978 0.01314368 0.9998406 14735853 male
1.1734 0.7126622 -1.148915 0.2556136 0.9667535 0.007028528 9275789 male
1.176132 0.582138 -1.268406 -0.5167371 0.8401983 -0.1644678 8285811 male
1.237661 0.1829892 -1.418311 -0.5449013 -0.3744948 -0.7502241 11644352 male
1.680048 0.3441328 -1.137343 0.3593086 0.6967784 0.6208036 526600 male
1.134202 0.2429337 -1.326048 -0.9678791 -0.07346571 0.240443 7236726 male
1.085744 0.1272361 -1.196511 0.1641371 -0.1590168 -0.9735363 14080999 male
1.178964 0.5830376 -1.256207 -0.6938432 0.6696855 -0.2647697 15644328 male
1.376949 0.3569034 -0.8797758 0.04640776 0.5340895 0.8441532 526600 male
1.145006 0.2056687 -1.345289 -0.8748448 -0.1946205 -0.4435871 10262181 male
1.006092 0.3793953 -1.305306 -0.9387351 0.2404523 -0.2468992 14460827 male
1.049851 0.3675485 -1.252704 0.1312 -0.2915033 0.9475297 16368323 male
1.352913 0.2983347 -0.8910911 -0.6880089 -0.4564148 0.5642067 526600 male
1.531944 0.2808145 -1.200441 -0.3424925 0.8897301 0.3017933 2829871 male
1.104526 0.4296935 -1.266476 0.05609911 -0.9938582 0.09538785 526600 male
1.378955 0.3604819 -0.9763575 0.6657652 0.1988235 -0.7191842 526600 male
1.119831 0.6264874 -1.059552 -0.4785891 0.09191416 0.8732149 14786449 male
1.146148 0.2263065 -1.265925 -0.9093931 0.1765966 0.3765871 7039091 male
1.269725 0.6068046 -1.265665 0.3612343 0.6742384 0.6441369 7434105 male
1.011532 0.3900321 -1.275378 -0.9527787 0.1212921 0.27839 14787995 male
1.648111 0.3088808 -1.092581 -0.0805653 0.7237867 0.6853044 526600 male
1.535554 0.4848419 -1.518017 0.7154043 0.4614767 0.5246292 16573417 male
1.120971 0.407477 -1.259447 -0.2085988 -0.9681581 0.1384067 526600 male
1.669448 0.184338 -1.017368 0.523427 -0.8142489 -0.2510438 526600 male
1.24883 0.1830358 -1.089868 -0.6138416 -0.3889412 0.6869666 5394778 male
1.611049 0.3205565 -1.189502 -0.1726662 0.82512 0.5379251 657674 male
1.115918 0.568991 -1.088254 -0.5262273 -0.7729263 0.3544994 13215134 male
1.095537 0.4538872 -1.264075 0.4571006 -0.8290436 -0.3220959 526600 male
1.377411 0.09104186 -1.20777 -0.06608912 -0.508424 0.858567 4343122 male
1.353019 0.08330771 -1.346512 0.2114311 -0.7373025 -0.6416245 6843516 male
1.71632 0.3175614 -1.146784 0.7820753 0.2857845 0.5537918 526600 male
1.64484 0.186314 -1.009823 -0.6630806 0.7474973 -0.03964731 526600 male
1.047652 0.4016243 -1.241928 -0.2262814 -0.2080109 0.9515924 16180452 male
1.341347 0.3937889 -0.9113609 -0.101576 0.618193 0.7794355 526600 male
1.371955 0.5895836 -1.572931 -0.06075728 -0.1149807 -0.991508 16769485 male
1.310279 0.4542365 -1.258232 0.3638237 -0.1735628 0.9151548 10851249 male
1.68708 0.2971359 -1.101195 0.570406 0.4544713 0.684173 526600 male
1.274294 0.5327765 -1.427863 -0.08945915 0.4008062 -0.9117848 10394798 male
1.181143 0.6952837 -1.105585 0.3678543 0.7941908 0.4836777 3552566 male
1.087232 0.4314641 -1.229698 0.4860848 -0.5113792 0.7086698 14275035 male
1.177293 0.6755762 -1.079292 0.3712892 0.6159616 0.6947918 4211520 male
1.229957 0.59407 -1.089992 0.8508098 0.1495231 0.5037513 15975353 male
1.334724 0.3055413 -1.009812 0.2629325 -0.948543 -0.176444 1381653 male
1.305424 0.3426879 -0.9809151 -0.7309778 -0.679847 -0.05898872 526600 male
1.28193 0.2771381 -1.308939 0.7536947 0.2720886 0.5982575 13551583 male
1.147556 0.5211862 -1.355982 -0.3164538 0.687023 -0.6541073 12499400 male
1.259872 0.1211815 -1.140644 -0.1588496 -0.7465942 0.6460371 3026230 male
1.415551 0.1520492 -1.343339 0.4845367 0.1163358 -0.8670006 2764082 male
1.160125 0.6399598 -1.227372 -0.02782688 0.1756173 -0.9840652 7432812 male
1.183222 0.5515532 -1.054924 0.7288486 0.243696 0.6398375 14592164 male
1.504953 0.2464588 -1.17481 -0.5414913 0.5465696 0.638787 3553084 male
1.332648 0.1899733 -1.434829 0.3727736 -0.1321186 -0.9184685 5591389 male
-2.536294 0.3403169 -1.422585 0.8074594 -0.582896 -0.09078419 5065029 male
-2.603677 0.05046459 -1.371001 -0.0424116 -0.04037751 -0.9982841 3223601 male
-2.730675 -0.006511343 -1.383943 0.4400948 -0.02617259 -0.89757 4343114 male
-2.612957 0.1141048 -1.215673 0.1817809 -0.2996216 0.9365804 1908003 male
-2.552406 0.3265474 -1.438743 0.6829306 -0.684074 -0.2562199 5788496 male
-2.780728 -0.1882919 -1.369832 -0.3779543 -0.02281663 -0.9255432 2566703 male
-2.792537 0.3462815 -1.324148 -0.7061527 0.6930177 0.1451719 5854288 male
-2.556074 0.397229 -1.551288 0.04462977 -0.6646539 -0.7458174 16441008 male
-2.57579 0.6072093 -1.753681 -0.8607737 -0.1906326 -0.4719406 14205367 male
-2.705927 0.04805123 -1.339674 0.9708583 -0.05587327 -0.233051 2566444 male
-2.551978 -0.3377667 -1.355622 0.305625 0.16483 -0.9377764 2302504 male
-2.568718 0.6405392 -1.776687 -0.7444617 -0.09973761 -0.6601738 13482420 male
-2.766557 0.3798098 -1.431547 -0.9714764 0.0212691 -0.236181 3485741 male
-2.63947 0.2946784 -1.453445 0.1640161 -0.7140246 -0.6806377 7235428 male
-2.656241 0.3375955 -1.254693 -0.09088553 0.7280443 0.6794789 8814461 male
-2.629884 -0.0956383 -1.284573 -0.702217 -0.1382212 0.6984171 2302507 male
-2.799214 0.003992254 -1.28657 -0.7879733 -0.2640493 0.556216 2235940 male
-2.456826 0.4818534 -1.557532 0.02090952 -0.9058067 -0.4231749 4867394 male
-2.550444 -0.438325 -1.395478 -0.8413779 -0.2401518 -0.4841599 2698031 male
-2.476752 0.4387116 -1.524169 0.8038125 -0.5929213 -0.04826975 4801601 male
-2.524011 0.5263949 -1.677943 0.614827 -0.7873849 -0.04486543 13416877 male
-2.582029 0.1235966 -1.365127 0.362969 0.1200132 -0.9240403 4144968 male
-2.654745 -0.4540201 -1.457337 0.9593304 -0.274204 -0.06706369 2631464 male
-2.503626 0.3217296 -1.812494 0.418658 0.5689934 0.7077938 16376023 male
-2.730836 -0.2039037 -1.348811 0.7316582 0.005664833 -0.6816484 2237482 male
-2.611738 0.592578 -1.540247 -0.08912755 0.9687186 0.2316045 6446426 male
-2.615613 0.5689214 -1.481604 -0.2986595 0.8566336 0.4206917 8288882 male
-2.497407 0.4136046 -1.46987 0.9221174 -0.3843082 0.04479998 3356211 male
-2.732915 0.04971764 -1.386073 0.5541472 -0.04136567 -0.8313904 3686215 male
-2.363646 0.4459474 -1.557673 0.8093961 0.1534847 0.5668514 7827567 male
-2.691201 0.2812797 -1.219894 -0.2002452 0.374462 0.905362 9735305 male
-2.647443 0.4808196 -1.621023 0.4592782 -0.225046 -0.8593125 4340793 male
-2.536787 -0.2143096 -1.304848 0.994756 0.002539393 0.1022465 2302499 male
-2.431445 0.4660119 -1.596391 -0.5507315 -0.08133847 -0.83071 7236453 male
-2.50543 0.5159305 -1.712447 0.2003231 -0.8639746 0.4619723 11774106 male
-2.747947 0.4870746 -1.612884 -0.8860212 -0.436376 0.1566609 6776159 male
-2.591274 0.193435 -1.349852 0.4108027 0.2757091 -0.8690373 3027253 male
-2.45541 0.4874033 -1.506985 -0.03468509 -0.9982347 0.04821217 526600 male
-2.800502 -0.08880682 -1.339487 -0.9541774 -0.03901906 -0.2966873 2499878 male
-2.65444 0.5896763 -1.536889 -0.1102958 0.9399046 0.323132 5982787 male
-2.654237 0.5570988 -1.465551 -0.0274103 0.7878498 0.6152572 6183254 male
-2.543957 0.2914484 -1.834021 -0.401069 -0.3223585 -0.8574548 16772323 male
-2.58256 0.6703256 -1.7583 -0.8389106 0.1252174 -0.5296696 8090995 male
-2.725793 0.266096 -1.218994 -0.08458108 0.2484936 0.9649338 10985372 male
-2.456567 0.6844289 -1.699492 0.945956 0.2653407 0.1864456 3881270 male
-2.743805 -0.07165048 -1.391374 0.2673082 -0.1866637 -0.9453589 4145994 male
-2.643644 0.4722909 -1.694623 0.6827784 0.5331662 -0.4995474 8550515 male
-2.846175 0.1268628 -1.31629 -0.9925127 -0.1124505 -0.04768181 1972767 male
-2.76653 0.2840807 -1.234053 -0.4038757 0.4081246 0.8187301 9866635 male
-2.742364 0.4214342 -1.515657 -0.825076 -0.2742606 -0.493995 3946035 male
-2.647182 0.2773222 -1.210247 0.03304312 0.372954 0.9272614 9339773 male
-2.719662 0.008954283 -1.374682 0.7341985 0.00120992 -0.6789341 3487807 male
-2.551926 0.2133476 -1.269295 0.9541323 0.09235635 0.2847843 2303014 male
-2.772589 0.285878 -1.406476 -0.3667863 -0.05145178 -0.9288814 4209719 male
-2.333953 0.302232 -1.597355 -0.9850219 -0.09370732 -0.1447453 16373971 male
-2.464648 0.7052642 -1.718398 0.8267512 0.5545875 -0.09442097 3354670 male
-2.621039 -0.03750938 -1.259282 -0.2325564 -0.2460783 0.9409374 3092015 male
-2.582627 0.5937303 -1.587618 -0.05444546 0.9512311 0.3036367 2763050 male
-2.689924 0.5845124 -1.601215 -0.4148642 0.8153149 -0.4039176 4933187 male
-2.816448 0.1284381 -1.254956 -0.6670502 -0.2840623 0.6887329 3355963 male
-2.553386 0.2007493 -1.261802 0.9330449 0.07890057 0.3510017 2699056 male
-2.759318 -0.3983811 -1.337373 0.943644 0.1679242 0.2851973 1777186 male
-2.810446 -0.1924232 -1.322945 -0.9946808 -0.09135828 -0.04758257 1973534 male
-2.50963 0.5646122 -1.569507 0.622027 0.2063751 -0.7553092 4998721 male
-2.665104 -0.01295786 -1.303648 -0.9886693 -0.1497598 -0.01026225 2170657 male
-2.795574 -0.4583752 -1.322378 0.2286216 -0.9683179 0.1004619 789004 male
-2.683585 0.5120987 -1.704171 0.2582553 0.4709778 -0.8434952 5722700 male
-2.552347 -0.4179369 -1.389785 -0.7832371 0.3073862 -0.5404198 2565671 male
-2.776487 -0.3663954 -1.305198 -0.6181152 -0.264456 0.7402682 3026994 male
-2.812771 -0.4405717 -1.349939 -0.9810393 0.05562751 0.1856548 2171169 male
-2.344436 0.3241723 -1.597424 -0.9607716 -0.02119132 -0.2765306 16704479 male
-2.324359 0.3298591 -1.785874 -0.9146411 0.1084378 0.3894525 14664898 male
-2.450757 0.5094991 -1.594269 -0.03040439 0.01216605 -0.9994638 7761765 male
-2.524025 0.7149721 -1.771549 -0.02978975 0.7543468 -0.6557999 10786699 male
-2.628083 0.4136747 -1.587196 0.3424587 -0.546942 -0.763922 5392706 male
-2.782885 0.3459819 -1.377192 -0.9143831 0.2921104 -0.2803127 3092015 male
-2.80212 -0.2333515 -1.338146 -0.927784 -0.218025 -0.3027905 1908256 male
-2.565992 0.2381148 -1.329618 0.6995407 0.1142665 -0.7053978 8814718 male
-2.333875 0.4070601 -1.619466 0.4421749 0.7762973 -0.4492705 16636876 male
-2.555641 0.5983554 -1.603448 0.01971614 0.7406999 0.6715468 16772834 male
-2.546326 -0.2782448 -1.339241 0.7855473 -0.04035902 -0.6174843 2367780 male
-2.632241 0.3995477 -1.307454 -0.03181294 0.4604456 0.8871179 11181211 male
-2.257186 0.3036371 -1.662155 0.9974508 0.02390196 -0.06723779 16507872 male
-2.39952 0.5281984 -1.548322 0.7932886 0.6027557 0.08590156 11314587 male
-2.539649 -0.276502 -1.320518 0.9921424 -0.06268557 -0.1082776 2499624 male
-2.704556 0.0641778 -1.34371 0.9509826 -0.06448619 -0.3024465 2828590 male
-2.560368 -0.1390203 -1.276423 0.7252161 0.2854583 0.6265583 2170403 male
-2.577997 -0.05421384 -1.36249 0.6559851 0.07215116 -0.7513175 3554629 male
-2.497995 0.6658596 -1.797508 0.2971132 0.2041999 -0.9327522 9932935 male
-2.596555 0.3474839 -1.270532 0.4053198 0.7162209 0.5681053 6510423 male
-2.71281 -0.4658557 -1.436214 -0.7496747 -0.6617246 0.01041847 264457 male
-2.391855 0.505562 -1.587936 0.6868777 0.4540933 -0.5674491 11575697 male
-2.705115 -0.02971072 -1.328782 0.9960607 -0.03999959 -0.07914108 2368805 male
-2.435062 0.3474814 -1.881766 -0.798907 0.2460918 -0.5488048 16573651 male
-2.793803 0.3262014 -1.381319 -0.7243401 0.4627703 -0.511053 2697513 male
-2.726469 0.007737776 -1.38047 0.5803587 -0.01980294 -0.8141203 3948873 male
-2.559019 -0.0006839253 -1.296522 0.9207953 -0.2028678 0.333138 2171174 male
-2.775599 -0.1470559 -1.276076 -0.2695611 0.1931103 0.9434222 2763824 male
-2.451545 0.66777 -1.730042 0.986092 0.1333625 -0.0991832 4077361 male
-2.575965 -0.1426315 -1.264347 0.3556252 0.2770964 0.8926077 2303014 male
-2.75635 0.02074801 -1.259738 0.08384031 -0.2430743 0.9663777 3749945 male
-2.464674 0.5608793 -1.558365 0.3016549 0.7953115 -0.5258174 6514010 male
-2.782372 -0.2039668 -1.276241 -0.4319262 -0.1523116 0.8889551 3224117 male
-2.779468 -0.3894417 -1.377044 -0.5673314 0.4645252 -0.6799645 2368804 male
-2.410437 0.5340723 -1.529334 0.6911319 0.6560713 0.3031623 10854552 male
-2.608566 -0.1319635 -1.348389 -0.4299543 -0.2994552 -0.8517431 2170913 male
-2.595965 0.283331 -1.711868 0.6036887 -0.01828323 0.7970105 14599101 male
-2.611659 0.3929381 -1.54728 0.4542958 -0.6593238 -0.599089 16245433 male
-2.720548 -0.02936909 -1.376683 0.72282 -0.03607054 -0.6900946 3158072 male
-2.69284 0.4113372 -1.327335 -0.06838195 0.48849 0.8698862 11051415 male
-2.590943 0.6977286 -1.681888 -0.8892335 0.3588735 0.2836792 4472124 male
-2.420102 0.5200427 -1.597868 0.2485113 0.2484279 -0.9362297 5854030 male
-2.589484 0.7048965 -1.717445 -0.8710222 0.4601318 -0.172045 4998462 male
-2.574877 0.617426 -1.759082 -0.8560103 -0.1915671 -0.4801547 12363936 male
-2.634293 -0.03461122 -1.264632 -0.4987317 -0.2722583 0.8228867 3093047 male
-2.547617 -0.1600511 -1.286654 0.8984823 0.217192 0.3815197 2303016 male
-2.521429 0.3712146 -1.403046 0.8983281 -0.306398 0.3148448 3355441 male
-2.652061 0.4381474 -1.34635 -0.3614704 0.6027377 0.7113695 8551031 male
-2.541933 0.09199417 -1.290505 0.9786881 -0.05480398 0.1979052 2302501 male
-2.826739 0.1696387 -1.25672 -0.8491422 -0.1492578 0.5066359 3814714 male
-2.534146 0.6928535 -1.631973 -0.122125 0.4345943 0.8923081 6313295 male
-2.553663 0.5560954 -1.750164 -0.656961 -0.5088472 -0.5563066 16574427 male
-2.708856 0.1545405 -1.355163 0.7945308 -0.03437552 -0.6062502 3026482 male
-2.703235 0.2461326 -1.409556 -0.209862 -0.4201095 -0.8828738 7497829 male
-2.767465 -0.4579057 -1.385537 0.4463907 -0.89483 -0.003811091 592137 male
