# .PCD v0.7 - Point Cloud Data file format
VERSION 0.7
FIELDS x y z normal_x normal_y normal_z rgb label
SIZE 4 4 4 4 4 4 4 4
TYPE F F F F F F U U
COUNT 1 1 1 1 1 1 1 1
WIDTH 252
HEIGHT 1
VIEWPOINT 0 0 0 1 0 0 0
POINTS 252
DATA ascii
1.343462 0.2020852 -1.312972 0.2145883 0.9480991 0.2346485 11381436 male
1.390458 0.3334869 -1.094071 -0.2877746 0.9044205 -0.3149751 8094610 male
1.739235 0.3663427 -1.251492 0.5664434 0.6793644 0.4664825 526600 male
1.430724 0.2165428 -1.079738 0.7496827 -0.578289 0.3218035 3884115 male
1.348017 0.2040057 -1.328484 0.438138 0.8908307 0.1202326 13288666 male
1.641995 0.291847 -1.315331 0.4494182 0.1124115 -0.8862205 591113 male
1.280922 0.062329 -1.38458 -0.5747323 -0.6974766 -0.4280293 11380921 male
1.333771 0.01127824 -1.307356 -0.3700097 -0.9280323 0.04299816 5855073 male
1.327264 0.5795059 -1.505571 0.4027906 -0.338588 -0.8503633 10980486 male
1.531255 0.2407576 -1.291146 -0.4328713 0.8698826 -0.2364881 9607331 male
1.515541 0.3559373 -0.9406049 0.7371855 0.6502846 0.1835412 526600 male
1.323295 0.6365899 -1.514394 0.5405408 0.1280309 -0.8315189 14135726 male
1.331672 0.3583315 -1.370425 0.8810838 0.2734756 0.3858788 14666605 male
1.40915 0.1181381 -1.355458 0.181459 0.802157 -0.5688732 12633553 male
1.304042 0.06596183 -1.171362 -0.5209862 -0.5332396 0.666505 12436176 male
1.390132 0.3989757 -1.041236 -0.287323 -0.4821963 -0.8276063 526600 male
1.551895 0.1009827 -1.32363 0.6361179 -0.4274121 -0.6423962 3224374 male
1.145611 0.4053235 -1.31116 -0.9741069 -0.2024579 0.1006308 9078165 male
1.691699 0.2231819 -0.8700826 -0.6217752 -0.3362271 0.7073522 657930 male
1.318719 0.3705805 -1.354864 0.7916368 0.3671781 0.4883559 14539397 male
1.34984 0.4807111 -1.446439 0.9846011 -0.08743255 0.1513815 15386054 male
1.435207 0.2349295 -1.148508 0.7863425 0.3359168 -0.5184838 3684672 male
1.860526 0.2135502 -1.030028 -0.3589959 0.9084579 0.2140703 526600 male
1.576117 0.2711273 -1.438447 0.8209965 -0.2548576 -0.5108936 14262167 male
1.746063 0.2328677 -1.164958 -0.9604802 -0.2779377 0.01511973 526600 male
1.299774 0.2487456 -1.553493 -0.2108648 -0.4553412 -0.8649859 8552078 male
1.194366 0.4318363 -1.481673 -0.6575494 0.3545547 -0.6647704 13420763 male
1.138467 0.4108136 -1.359846 -0.9999541 0.002953202 -0.009109288 7303031 male
1.786232 0.2556804 -1.144817 -0.5100399 0.7448178 0.4302393 526600 male
1.32527 0.4847189 -1.144712 0.4956303 -0.8515651 -0.1708433 11309967 male
1.258962 0.06377232 -1.350536 -0.6002093 -0.7142288 -0.3600362 14406884 male
1.678938 0.2303007 -0.7888833 0.6043123 -0.7881463 -0.1167559 526600 male
1.375162 0.3843046 -1.014436 -0.7692716 -0.6022516 -0.213341 526600 male
1.145358 0.4020819 -1.315203 -0.9625087 -0.2683747 0.03939718 9736604 male
1.38786 0.628967 -1.423886 0.8212378 0.3327578 0.4635091 12882323 male
1.534325 0.3491789 -1.472184 0.6007038 0.5833883 -0.5466379 14065818 male
1.398111 0.173416 -1.23711 0.5327947 0.5291741 -0.6603821 7041403 male
1.197781 0.2443369 -1.08458 0.6495199 -0.478566 0.5908456 16567753 male
1.631912 0.3443135 -1.253821 -0.5033352 0.09317759 0.8590527 526600 male
1.283058 0.2383766 -1.544847 -0.3696034 -0.455286 -0.8100049 10196388 male
1.234617 0.2381329 -1.506475 -0.7987081 -0.3666281 -0.477126 12434125 male
1.569057 0.2789828 -1.421623 -0.8342944 -0.03257439 -0.550356 16041157 male
1.304801 0.5076313 -1.496552 -0.1593666 -0.1636212 -0.9735658 16768472 male
1.224995 0.2456357 -1.494112 -0.8475658 -0.349373 -0.3994632 10789043 male
1.228858 0.6406342 -1.405559 -0.4053004 0.2912626 0.8665435 9933206 male
1.648334 0.3198511 -1.288931 -0.5246995 -0.7513251 0.4002512 526600 male
1.492335 0.4455968 -1.386596 -0.351941 0.2087367 0.9124509 3417640 male
1.542904 0.2836719 -1.445261 0.1683285 -0.9308874 -0.3242131 16368828 male
1.224941 0.3391797 -1.525603 -0.861784 -0.003511352 -0.5072631 13946334 male
1.397188 0.3247629 -1.489643 0.8726958 -0.351409 -0.3389894 7564411 male
1.222346 0.217854 -1.461105 -0.6936219 -0.4386822 -0.571355 12630481 male
1.734068 0.3557429 -1.234746 0.4589925 0.6964732 0.5515895 526600 male
1.278597 0.1528805 -1.173339 -0.8943279 0.2291197 0.3842936 3685184 male
1.421641 0.0007801049 -1.25783 0.1696243 -0.8556498 0.4889692 8883624 male
1.223541 0.348695 -1.194347 0.9559994 0.2876682 0.05755225 13081503 male
1.200215 0.6533509 -1.433339 -0.7097156 0.4777579 0.5177364 526600 male
1.45945 0.3581451 -1.021237 0.2987835 -0.447698 -0.84279 526088 male
1.619529 0.2908568 -0.8213115 0.2523915 0.6097785 -0.7513114 526600 male
1.321894 0.4394737 -1.567285 0.1114165 0.5662082 -0.8166974 7499642 male
1.405389 0.1240884 -1.309135 -0.4032945 0.6990447 -0.5904999 5989235 male
1.282607 0.1573015 -1.159408 -0.8841439 0.1672488 0.4362536 4802899 male
1.857668 0.1945042 -1.002418 -0.4255838 -0.05870865 0.9030126 526600 male
1.706572 0.3737915 -1.320418 0.8350606 0.0004569847 -0.5501578 526600 male
1.360897 0.03280644 -1.40086 -0.01172745 -0.8083357 -0.588605 7237501 male
1.350098 0.06347843 -1.155728 0.03363013 -0.5941239 0.8036702 9410213 male
1.912062 0.1461463 -1.12385 0.3975949 -0.7123062 -0.5783927 526600 male
1.52435 0.3538251 -1.452362 0.3666708 0.9258478 0.09142396 16369342 male
1.636441 0.303532 -0.7904878 0.001419425 0.8111739 0.5848032 526600 male
1.787484 0.2366365 -1.140865 -0.778133 0.4893855 0.3937141 526600 male
1.792464 0.2155137 -1.143205 -0.7603369 0.4517573 0.4666938 526600 male
1.235089 0.3856568 -1.247077 0.9931344 0.07810977 -0.08707982 13282996 male
1.234637 0.3456885 -1.130876 -0.7543778 0.5963454 -0.2743836 14923449 male
1.392654 0.2254282 -1.400703 0.9766699 0.0702709 0.2029233 11840959 male
1.247209 0.6767098 -1.516071 -0.2303439 0.6674325 -0.7081494 526600 male
1.692182 0.2755306 -0.8208031 0.1979179 0.9216333 -0.333797 526600 male
1.322569 0.04060327 -1.396361 -0.4388945 -0.7566324 -0.484643 10460328 male
1.682142 0.3869753 -1.297846 0.4346883 0.8287386 0.3524747 527368 male
1.226573 0.1786475 -1.281173 -0.6788064 0.6731846 0.293333 4934223 male
1.315972 0.4632416 -1.157781 0.6308138 -0.775738 -0.0174503 15133430 male
1.242606 0.4794236 -1.449154 -0.8032831 0.5768957 -0.1480798 13082517 male
1.43156 0.4043888 -0.9430039 -0.1694966 0.2323739 0.9577438 526600 male
1.224344 0.07515219 -1.296214 -0.7749342 -0.6319411 -0.01128158 10196131 male
1.157489 0.2953564 -1.112738 -0.682963 0.6908354 0.2372933 15315884 male
1.209372 0.4065738 -1.229261 0.2469387 0.8894058 0.38468 14592677 male
1.427164 0.4184734 -0.949598 -0.04682615 0.4038929 0.913607 526600 male
1.544091 0.2583387 -1.268012 -0.5575383 0.8086667 0.1876414 5791079 male
1.20467 0.3432303 -1.250463 0.4636312 -0.7863466 -0.4082954 3486257 male
1.469377 0.3906951 -1.024059 0.6907443 0.1352135 -0.7103447 526600 male
1.317109 0.6895423 -1.478197 0.5109697 0.7778166 -0.365939 13478563 male
1.212184 0.1025127 -1.270934 -0.8793938 -0.3174171 0.3548421 7696502 male
1.751707 0.1794485 -0.8901784 0.4466317 -0.2794413 -0.8499604 526600 male
1.166796 0.3992679 -1.242716 -0.7993923 0.3866013 0.4599036 14397868 male
1.600624 0.3155619 -1.27574 -0.40159 0.9013109 0.1623702 921358 male
1.543844 0.544658 -1.376797 -0.7798644 -0.5763774 0.2441323 854540 male
1.151866 0.3310103 -1.363167 -0.8291891 -0.3257303 0.4542525 9472664 male
1.743133 0.3289686 -1.208376 0.4702414 0.6715267 0.5726472 526600 male
1.401748 0.1245235 -1.113607 0.3583632 -0.6863548 0.632845 4935259 male
1.621441 0.3201203 -1.296764 -0.11762 0.8505839 -0.5125158 7831440 male
1.323118 0.6632074 -1.415636 0.4707935 0.6763687 0.5664617 12029830 male
1.181759 0.3582174 -1.290585 -0.06426732 -0.9223837 -0.3808912 12622999 male
1.539719 0.06440636 -1.259967 0.7399906 -0.6606404 0.126365 12830671 male
1.228454 0.4727052 -1.41144 0.06859832 0.8572826 0.5102555 7368056 male
1.70094 0.4006797 -1.275821 0.1950608 0.6723543 0.7140666 526600 male
1.820346 0.1939211 -1.155063 -0.186039 -0.7263423 -0.6616771 526600 male
1.199435 0.4102314 -1.232383 0.04035404 0.8959063 0.4424064 15116968 male
1.336602 0.2316365 -1.083962 -0.7244455 0.07654418 0.6850691 4212304 male
1.564966 0.311176 -1.461556 0.6933248 0.2562368 -0.6735306 16106939 male
1.347356 0.4754754 -1.447128 0.9822724 -0.06584977 0.1755129 15720163 male
1.761278 0.2991821 -1.226064 0.9730507 -0.09130959 -0.2117426 526600 male
1.280264 0.3076242 -1.572212 -0.4415094 -0.3603543 -0.8217142 10921143 male
1.249997 0.5515954 -1.509316 -0.08803621 -0.7195057 -0.688884 13616328 male
1.197919 0.4333062 -1.267522 0.1999548 0.7871017 0.5835142 13086128 male
1.258657 0.5694967 -1.523668 -0.006807059 -0.5775134 -0.8163528 14933987 male
1.295923 0.5721496 -1.523535 0.4475754 -0.3558635 -0.8203886 11427676 male
1.387295 0.3797603 -1.036605 -0.2323545 -0.9243216 -0.3027224 526600 male
1.416984 0.07496701 -1.215294 0.9323484 0.31178 -0.1830838 526600 male
1.291538 0.2512668 -1.300704 0.2620532 0.2416963 0.9342971 8552586 male
1.165239 0.3443799 -1.468675 -0.7405228 -0.1428237 -0.6566791 13486295 male
1.404776 0.1358776 -1.105638 0.3726546 -0.6929196 0.6172447 8028049 male
1.420059 0.1228907 -1.322732 -0.5351379 0.5668213 -0.6263713 7962513 male
1.205588 0.5568521 -1.441561 -0.729427 -0.6377739 0.2473474 7432812 male
1.40024 0.599876 -1.42849 0.8275114 0.2722604 -0.4910184 13280930 male
1.560824 0.2593087 -1.238215 -0.5405999 0.5928879 0.5968547 4144964 male
1.354439 0.2617926 -1.347538 0.7515078 0.3656182 0.549144 12051373 male
1.852233 0.1534419 -1.134285 -0.9735616 -0.2152747 0.07638463 526602 male
1.486948 0.3215797 -1.434685 -0.6532847 -0.3120951 0.689794 14935538 male
1.413293 0.1028933 -1.145765 0.6765359 -0.5873708 0.4441786 2828851 male
1.475259 0.3873927 -0.9393784 0.409699 0.5308236 0.7418712 526600 male
1.342079 0.1969741 -1.52111 0.3782015 -0.525293 -0.7622539 4210502 male
-2.467178 0.2844161 -1.325616 0.9881471 0.05858678 0.1418912 3748913 male
-2.474246 0.01451624 -1.368259 0.5522316 0.1569884 -0.8187767 3289659 male
-2.659671 -0.01612282 -1.407508 0.3407209 0.2200735 -0.9140445 4869458 male
-2.471565 0.0238136 -1.236133 0.7237382 -0.3859475 0.5720557 2565671 male
-2.472785 0.2563575 -1.311956 0.988692 0.04541398 -0.1429197 4340793 male
-2.744622 -0.1695881 -1.465722 -0.9839571 0.06638292 -0.165596 2434090 male
-2.705026 0.270852 -1.282446 -0.7260557 0.6683254 0.1618159 5853514 male
-2.49147 0.2508048 -1.529423 0.3745453 -0.8603237 -0.345773 8748397 male
-2.58247 0.2806562 -1.820032 -0.1030246 -0.993147 0.05518272 10983569 male
-2.614594 0.002616608 -1.323455 0.9619473 -0.1690328 -0.2146755 3157808 male
-2.50446 -0.3565697 -1.415183 -0.4769403 0.1733484 -0.8616719 2697257 male
-2.605372 0.3221137 -1.848453 -0.8451288 -0.2877519 -0.4505067 9732475 male
-2.679956 0.3240067 -1.330017 -0.8208544 0.5087484 0.2595639 12432045 male
-2.530401 0.2020084 -1.386867 0.4718623 -0.792269 -0.3868538 8419702 male
-2.542462 0.3282047 -1.281531 0.06821209 0.6222523 0.7798393 8616306 male
-2.518592 -0.105668 -1.352061 -0.4704387 -0.2507482 0.8460574 2500398 male
-2.700777 -0.06104 -1.301913 -0.4253589 -0.4872064 0.7626925 4013120 male
-2.439816 0.3826189 -1.598483 -0.2872194 -0.9386293 -0.1909977 7696237 male
-2.538731 -0.4639657 -1.43863 -0.7833678 -0.608574 -0.1263831 2105120 male
-2.441068 0.3070757 -1.550005 0.8170588 -0.5322405 -0.2216641 5592141 male
-2.552918 0.2818135 -1.667731 0.4719946 -0.8629022 0.1806129 16706530 male
-2.545926 0.08696839 -1.334301 -0.4501552 0.2984985 -0.8415815 2829363 male
-2.710288 -0.4452713 -1.518332 0.8892578 -0.1615034 -0.4279456 2302755 male
-2.680315 -0.01021635 -1.581815 0.2509631 -0.06594273 0.965748 10061955 male
-2.67196 -0.2579316 -1.454631 0.6251674 -0.3902048 -0.6759483 2368808 male
-2.677824 0.3838503 -1.511594 -0.4956128 0.8351802 0.2384159 9210244 male
-2.584266 0.4291458 -1.529539 -0.5939115 0.8033411 0.0437305 10984598 male
-2.452677 0.3826064 -1.48258 0.9399345 0.102178 0.3257039 3223600 male
-2.62452 -0.03811224 -1.355499 0.9871347 -0.08712632 -0.134069 2565928 male
-2.410101 0.4465735 -1.55954 0.5058601 0.7792602 0.3699449 8682108 male
-2.536483 0.1467322 -1.161127 0.2333975 -0.05661921 0.9707318 3289402 male
-2.560906 0.282975 -1.622846 0.4611639 -0.7025331 -0.5420104 8551282 male
-2.443965 -0.2316803 -1.421088 0.9211687 -0.1826273 -0.3436509 2631465 male
-2.404239 0.3468463 -1.550124 -0.04527795 -0.7775083 -0.6272408 11116698 male
-2.516909 0.2545543 -1.742357 0.7316639 -0.665875 0.145872 14535356 male
-2.73586 0.2556165 -1.608409 -0.9251913 0.07974974 0.3710273 8682875 male
-2.502051 0.1431288 -1.310409 0.2985789 0.490014 -0.8189853 3027253 male
-2.442263 0.4351522 -1.547019 -0.7075561 0.3395556 0.6197311 4209464 male
-2.72915 -0.09515818 -1.442044 -0.9602622 0.06023268 -0.2725227 2565678 male
-2.611114 0.4011931 -1.596949 -0.3885117 0.8828091 -0.2640207 16243391 male
-2.619509 0.3949271 -1.455463 -0.2544932 0.8833541 0.3935974 7827307 male
-2.717772 -0.0721726 -1.621998 -0.9576119 -0.1832597 -0.2222513 16576489 male
-2.611116 0.3551337 -1.847825 -0.8990451 0.0008938725 -0.4378554 6972770 male
-2.679096 0.1854046 -1.18617 -0.4589589 0.2491518 0.8528075 11116701 male
-2.474374 0.3642001 -1.822531 0.9963441 0.01615182 -0.08389014 3881270 male
-2.677746 -0.06252118 -1.443349 -0.02519977 0.3056103 -0.9518233 3818051 male
-2.648648 0.1839775 -1.633287 0.979476 -0.1325025 -0.1518884 8222581 male
-2.741626 0.04483622 -1.33155 -0.9423929 0.1499682 -0.2990074 2368293 male
-2.63496 0.2228929 -1.193352 -0.1071116 0.4906158 0.8647678 9012089 male
-2.697389 0.2536842 -1.480934 -0.7540712 -0.6521333 -0.07809511 2500646 male
-2.576847 0.2541373 -1.205109 -0.1273722 0.65824 0.7419546 10788246 male
-2.63568 -0.02567388 -1.390816 0.8422681 0.1067986 -0.5283736 3619136 male
-2.452746 0.1713227 -1.243108 0.973103 0.1046469 0.2052313 4013626 male
-2.614604 0.1977187 -1.379265 -0.3657241 -0.7961041 -0.4821455 6116687 male
-2.37294 0.3523654 -1.444265 -0.8875839 -0.4569851 -0.05796075 16770787 male
-2.50553 0.3848538 -1.739439 0.7013845 0.2822266 0.654529 5261639 male
-2.523569 -0.1490511 -1.393453 -0.9483792 0.1084394 0.2980239 1973534 male
-2.526129 0.3683243 -1.655774 0.8244677 0.3238866 -0.4640589 4275000 male
-2.657966 0.3269249 -1.665917 -0.1437103 -0.1858271 -0.9720165 7235685 male
-2.668177 0.08971249 -1.173258 -0.05179515 -0.6671748 0.7430984 4014149 male
-2.456345 0.1626012 -1.278499 0.8683391 0.254364 -0.4257773 2105891 male
-2.675279 -0.4017568 -1.363464 0.9960285 -0.07328124 0.05057216 2302243 male
-2.744895 -0.1892058 -1.437316 -0.9716616 0.06530084 0.227178 1973534 male
-2.52461 0.3045444 -1.62498 0.5565696 -0.5312201 -0.6387767 5393220 male
-2.560262 -0.07516923 -1.344416 -0.9721832 -0.1548963 0.1756908 2301475 male
-2.725237 -0.4194328 -1.331992 -0.7868711 -0.4040913 0.4664165 3026222 male
-2.661394 0.2017011 -1.661585 0.6573091 -0.4604929 -0.5965663 7300455 male
-2.529681 -0.461971 -1.420464 -0.4678854 -0.8828105 -0.04158136 1973790 male
-2.71803 -0.3625483 -1.376294 -0.9735467 0.1164576 0.196583 2170914 male
-2.712622 -0.3910788 -1.338695 -0.7934621 0.3574633 0.492583 3028022 male
-2.357936 0.3505333 -1.451041 -0.5426346 -0.649809 -0.5322556 16374993 male
-2.331976 0.256721 -1.372304 0.08141613 -0.5145329 0.8535967 13615038 male
-2.421233 0.3673227 -1.630342 0.2826526 -0.53211 -0.7981019 5721678 male
-2.546137 0.3872894 -1.885886 -0.03077725 0.3120415 -0.9495699 7169118 male
-2.5928 0.2111669 -1.503445 0.2484448 -0.9464591 -0.2061321 16769976 male
-2.695939 0.2604025 -1.347849 -0.9661143 -0.2142682 -0.1439185 2894630 male
-2.743837 -0.2261987 -1.434044 -0.9861014 -0.1002468 0.132495 1907998 male
-2.459278 0.2064322 -1.244861 0.9422587 0.1366551 0.3057355 3421487 male
-2.377776 0.4080662 -1.543677 0.8740845 0.4850695 0.02615798 10525079 male
-2.519983 0.3395036 -1.884553 0.438359 -0.08942136 -0.8943408 6708568 male
-2.467373 -0.2667739 -1.437001 0.4152139 -0.2778905 -0.8662416 2302505 male
-2.552651 0.335087 -1.288992 -0.0100605 0.6378882 0.7700634 11181211 male
-2.287544 0.3521192 -1.36981 0.9615991 -0.1499176 0.2298959 16637396 male
-2.395564 0.4334403 -1.605284 0.8799217 0.4207779 -0.2206442 10590864 male
-2.457018 -0.2865755 -1.416769 0.8625649 -0.2696944 -0.4280738 2499884 male
-2.616838 0.02919325 -1.334383 0.8948501 0.04139313 -0.4444436 3091247 male
-2.453004 -0.1426979 -1.379495 0.7757148 0.2734227 0.5687766 2303011 male
-2.504378 -0.08827528 -1.436569 -0.1636691 0.06409992 -0.9844307 4342083 male
-2.606477 0.3161655 -1.841793 -0.8611253 -0.3224432 -0.3930571 14074813 male
-2.518593 0.3161414 -1.274294 0.3100467 0.5501803 0.7753534 9538433 male
-2.602531 0.3786063 -1.652013 -0.1877015 0.8962775 -0.4018145 4473152 male
-2.385017 0.3947704 -1.579795 0.849797 -0.2666785 -0.4546735 10457988 male
-2.630639 -0.0788838 -1.38634 0.9900526 -0.136031 -0.03593916 1777186 male
-2.672614 -0.1799339 -1.629166 -0.1986997 0.08357348 -0.9764907 15191230 male
-2.726849 0.2311649 -1.29219 -0.9590449 0.2830717 0.01017576 3945779 male
-2.637092 -0.008902162 -1.386329 0.796845 0.1448282 -0.586569 3749945 male
-2.452914 -0.005980475 -1.304791 0.9562191 -0.2532932 0.1465879 2172713 male
-2.721707 -0.2272787 -1.486369 -0.4224447 -0.3768974 -0.8243113 2170913 male
-2.493454 0.3193524 -1.854932 0.8043005 -0.3152626 -0.5036967 6116946 male
-2.453655 -0.1348494 -1.382852 0.8060125 0.2543539 0.5344607 1711650 male
-2.620253 -0.02280837 -1.318917 0.9660294 -0.2583152 -0.007803857 2499878 male
-2.456116 0.408374 -1.624381 0.185797 0.4954805 -0.8485155 6709338 male
-2.665508 -0.1250519 -1.430199 0.7209078 0.1698854 0.6718863 2566695 male
-2.715887 -0.373529 -1.399459 -0.8898831 0.1924864 -0.4135908 2697257 male
-2.432559 0.4530447 -1.565939 0.1228765 0.8286425 0.5461254 7169125 male
-2.520893 -0.2059405 -1.422823 -0.7116572 -0.011951 -0.7024255 2369067 male
-2.694027 -0.08866737 -1.642155 -0.3230008 -0.07515001 -0.9434105 15059643 male
-2.665657 0.2206731 -1.468449 -0.5935426 -0.7540339 -0.2813184 4670015 male
-2.668108 -0.02972413 -1.415654 0.1798791 0.2375538 -0.9545743 4475473 male
-2.629312 0.3194077 -1.288456 -0.2590124 0.6246241 0.7367207 4340793 male
-2.590351 0.4218824 -1.77587 -0.6642179 0.6769099 0.3171872 4208183 male
-2.402275 0.407607 -1.630255 0.624291 0.09085329 -0.7758909 7630436 male
-2.599256 0.4189973 -1.802156 -0.7673845 0.6346428 0.09137785 3683631 male
-2.56669 0.2604745 -1.807461 -0.8600831 -0.2067575 -0.4663782 15781063 male
-2.470658 -0.05115441 -1.301062 0.8493813 -0.3299732 0.4119095 2959661 male
-2.441136 -0.1548541 -1.405651 0.9920336 0.1249571 0.015975 2434085 male
-2.487674 0.3751355 -1.401593 0.5249152 0.6726912 0.521489 6709598 male
-2.59918 0.3775397 -1.408031 -0.2807593 0.8485122 0.4485548 10196371 male
-2.453099 0.03386147 -1.26173 0.9190718 -0.2369117 0.3149288 2434086 male
-2.714233 0.1011795 -1.196546 -0.7508173 -0.2431844 0.6141132 2632496 male
-2.497968 0.4230076 -1.833411 0.6821576 0.6853923 -0.2547517 7037274 male
-2.60488 0.2779135 -1.776958 -0.8154847 -0.5659083 -0.121378 16770264 male
-2.682967 0.1033735 -1.346446 -0.1090873 0.5184714 -0.8481082 3619135 male
