# .PCD v0.7 - Point Cloud Data file format
VERSION 0.7
FIELDS x y z normal_x normal_y normal_z rgb label
SIZE 4 4 4 4 4 4 4 4
TYPE F F F F F F U U
COUNT 1 1 1 1 1 1 1 1
WIDTH 246
HEIGHT 1
VIEWPOINT 0 0 0 1 0 0 0
POINTS 246
DATA ascii
1.481246 1.024748 -0.7170548 0.04644018 -0.1926243 0.9801731 9144216 male
1.467676 0.6513186 -0.8039702 0.9459034 -0.259494 -0.1947552 4211521 male
1.56075 0.4800842 -0.9074717 -0.4924785 -0.3307796 0.8050153 526600 male
1.380878 0.7909707 -0.7330005 -0.8513641 -0.0175797 0.5242804 4804440 male
1.489998 1.010396 -0.7193993 0.1844664 -0.04565319 0.981778 9078680 male
1.615488 0.5364664 -0.9755123 0.5622025 0.1695682 -0.8094288 526600 male
1.527606 1.295871 -0.7096474 0.6887092 0.2624363 0.6758748 16513445 male
1.42213 1.410416 -0.7509822 -0.2616786 0.8274357 0.4968647 7498869 male
1.620764 1.506236 -0.744172 0.9898233 -0.1320631 0.05300221 12884886 male
1.57634 0.793004 -0.806556 0.02301228 -0.2144029 0.9764742 5726058 male
1.327706 0.4041147 -0.8134896 -0.9938833 -0.08361065 0.07214805 526600 male
1.623967 1.582027 -0.7311801 0.9212506 0.3707757 0.1175705 10392210 male
1.574882 1.111054 -0.8993279 0.5490298 0.0339113 -0.8351145 6512747 male
1.536013 1.123777 -0.7128053 0.4535472 -0.04989135 0.8898346 8289933 male
1.373975 0.9328423 -0.7904678 -0.980516 0.1538153 0.1221859 3027255 male
1.387131 0.7016625 -0.8289896 -0.7009767 0.01302339 -0.7130653 5856618 male
1.541635 0.7394035 -0.9366961 -0.4624215 -0.0972366 -0.8813123 8027539 male
1.398895 1.281403 -0.7002907 0.9320647 -0.1383749 0.3348251 11177359 male
1.358597 0.2357089 -0.7342556 -0.06562167 -0.9930826 0.09736922 526600 male
1.489668 1.22848 -0.6892125 0.1147226 -0.2743308 0.9547677 9209492 male
1.535926 1.40913 -0.7403479 -0.003260225 -0.5363643 0.8439803 12163479 male
1.469069 0.8273038 -0.6973096 0.3591782 -0.0318712 0.9327246 9937071 male
1.710804 0.2613505 -0.8710545 0.007881407 -0.9999396 0.00765295 526600 male
1.68055 1.041055 -0.9264619 -0.1230941 0.1190781 0.9852251 14533578 male
1.612748 0.3784029 -0.9299178 0.08908811 0.02998109 0.9955723 526600 male
1.449399 1.325746 -0.8701662 -0.680728 0.315115 -0.6612957 14078693 male
1.42306 1.357993 -0.8442883 -0.4868047 0.4234766 -0.7639952 14078694 male
1.497072 1.176041 -0.6960949 0.2402606 -0.05837561 0.9689516 10130085 male
1.533637 0.6494378 -0.8694947 -0.8622496 -0.1914778 0.4688942 526344 male
1.331188 1.300057 -0.7165804 -0.9881805 0.1137132 0.1028039 15645880 male
1.408955 0.9686275 -0.8867424 -0.6061146 0.2246689 -0.7629869 5067098 male
1.62461 1.296567 -0.8179547 0.8864081 0.1460686 0.4392547 14274529 male
1.328985 0.4291612 -0.8004861 -0.9338949 -0.06602086 0.3513994 526600 male
1.37762 1.335048 -0.683158 0.152914 -0.1749639 0.9726279 11313828 male
1.556468 1.415297 -0.722509 -0.3845958 -0.922805 0.02273694 10585728 male
1.623069 1.33398 -0.9547814 0.5853094 0.1097921 -0.8033421 8813443 male
1.373425 0.8267363 -0.7501669 -0.9407316 0.005342415 0.3391097 3355964 male
1.359618 0.5877069 -0.8301574 -0.6903013 0.4552459 -0.562348 526600 male
1.637648 0.5958924 -0.9005826 0.9899936 -0.1332323 -0.04649615 526600 male
1.459725 1.255796 -0.9035923 -0.7103993 0.0004819079 -0.7037987 10789301 male
1.548467 1.061954 -0.912791 0.1933198 0.1051255 -0.9754877 6184295 male
1.679806 1.05317 -0.974148 0.5045758 -0.03821358 -0.8625212 13151661 male
1.620441 1.588261 -0.7645738 0.897138 0.3916071 -0.2044193 3420724 male
1.546556 0.9488305 -0.9483255 0.2245709 0.1410626 -0.9641936 8488338 male
1.508745 1.569486 -0.6994314 -0.6331452 0.1607087 0.7571657 11314087 male
1.600227 0.571876 -0.87993 0.08444422 -0.439109 0.8944565 526600 male
1.641038 1.285956 -0.9358406 0.9496112 0.2522641 -0.1860144 14196636 male
1.633715 0.7954769 -0.9131063 0.7982295 0.03976823 -0.6010392 6185839 male
1.491962 0.908066 -0.9507834 -0.3574897 -0.1049253 -0.9280041 7568007 male
1.609424 1.232685 -0.8638367 0.9602715 -0.06204296 -0.2720834 526344 male
1.410821 1.007159 -0.8719698 -0.5924016 0.4139304 -0.6911743 10130341 male
1.548459 0.5127853 -0.9088981 -0.7154387 -0.1414694 0.684203 526600 male
1.428048 0.9207721 -0.7041997 -0.2076458 0.1531952 0.9661338 5526364 male
1.58599 0.9819869 -0.7853045 0.8686109 -0.1136456 0.4822861 11906501 male
1.323856 1.181999 -0.692553 0.450908 0.3893551 0.8031716 16108489 male
1.503064 1.613122 -0.7311176 -0.617493 0.6308008 0.4698859 526600 male
1.423813 0.6534277 -0.8396109 0.0202243 -0.08344395 -0.9963072 5461339 male
1.477974 1.427093 -0.8272584 -0.4623063 0.6649887 -0.5865687 12103867 male
1.538317 1.388621 -0.9063464 -0.08744293 0.6749023 -0.7327077 11249847 male
1.544446 0.8944607 -0.9549772 0.09288231 -0.04695888 -0.994569 9409952 male
1.383559 0.9043226 -0.7426338 -0.8792222 0.1296221 0.4584391 3092536 male
1.60369 0.293959 -0.9393663 -0.8257754 -0.104435 0.5542456 526600 male
1.616108 0.5109183 -0.9782351 0.5649788 0.05421594 -0.8233222 526600 male
1.517416 1.291676 -0.6989723 0.6311535 0.2484348 0.7347962 15063708 male
1.460921 0.6847875 -0.8281847 0.6917275 -0.1457867 -0.7072901 3487804 male
1.665218 0.2803646 -0.9782681 0.464862 0.1423551 -0.873864 526600 male
1.634027 1.372059 -0.920487 0.5387626 0.8054513 -0.2469472 8288642 male
1.376065 0.2520477 -0.8031964 0.8528554 -0.4934454 -0.1707315 526600 male
1.584361 0.440032 -0.9144831 -0.1435622 -0.306794 0.9408865 526600 male
1.580714 0.3243718 -0.9998131 0.3663634 0.3813411 -0.8487384 526600 male
1.338587 1.164676 -0.7100198 0.9290028 0.2397404 0.2819192 16043211 male
1.291821 1.095713 -0.7162127 -0.8536292 -0.3878898 -0.3476472 16440031 male
1.418658 1.26674 -0.7062861 -0.4327249 -0.2713497 0.85972 526600 male
1.603499 1.601334 -0.7086518 0.5928881 0.6507903 0.474295 526600 male
1.607265 1.260001 -0.7782397 0.7700962 0.0213636 0.63757 13349291 male
1.534713 1.263374 -0.7092747 0.7772117 0.06150747 0.6262258 11904954 male
1.540868 0.5540392 -0.9495217 -0.9203639 0.1781683 -0.3481183 526600 male
1.411906 1.025291 -0.7312523 -0.5101666 0.3896475 0.7667496 5591899 male
1.350824 1.278415 -0.6828763 -0.3052627 0.2649193 0.9146761 16233132 male
1.484059 1.450775 -0.8188481 -0.6250561 0.4083972 -0.6652192 15643044 male
1.396825 0.4130705 -0.8177554 0.9573634 -0.2863187 -0.03842992 526600 male
1.375989 1.00673 -0.8263712 -0.9112777 0.2940903 -0.2882425 10985644 male
1.325388 1.086658 -0.6598812 0.03326419 0.4103724 0.9113111 16372947 male
1.399094 1.353244 -0.6772816 0.4895588 -0.326497 0.8085368 8880015 male
1.391256 0.4155967 -0.7977355 0.86199 -0.2444526 0.4440902 526600 male
1.555177 0.7957945 -0.8072459 -0.1749899 -0.25863 0.9499943 6052710 male
1.328154 0.5154986 -0.8017835 -0.9537774 0.1352213 0.2683726 526600 male
1.458102 0.6319987 -0.763088 0.8602206 -0.3822587 0.337489 3619136 male
1.626867 1.565961 -0.7196963 0.9493314 0.1931913 0.2478852 8543834 male
1.389292 1.000335 -0.7444986 -0.8176098 0.2032318 0.5387123 7039091 male
1.497501 1.416028 -0.8493496 -0.4505373 0.7651111 -0.4600232 12302787 male
1.361992 1.343633 -0.7602504 -0.7108847 -0.3798659 -0.5918993 6184038 male
1.584529 0.7632976 -0.8131651 0.02870423 -0.2300154 0.9727636 5593964 male
1.738317 0.9219918 -0.9709795 0.7406786 -0.06715771 0.6684946 1841690 male
1.580021 1.094757 -0.7485256 0.6865082 -0.01671084 0.72693 11907782 male
1.577191 0.6797143 -0.833972 -0.230556 -0.2639925 0.9365638 5199199 male
1.382315 0.5532088 -0.7594883 -0.1782913 -0.07965448 0.9807484 526600 male
1.57435 0.5307362 -0.9852598 -0.2515925 0.1114074 -0.9613998 526600 male
1.528231 1.601872 -0.7021348 -0.3443861 0.5669397 0.7483166 1841948 male
1.327247 0.5203204 -0.8212166 -0.9768645 0.1779501 -0.1186152 526600 male
1.540112 0.6853464 -0.9233119 -0.7855182 -0.08985451 -0.6122802 526344 male
1.45501 1.269679 -0.6780883 -0.329741 -0.3705385 0.8683156 7105140 male
1.538549 0.5379605 -0.9456089 -0.9668595 0.08151367 -0.2419465 526600 male
1.623878 0.3207209 -0.9881411 0.5666854 0.09926672 -0.8179327 526600 male
1.392415 1.369218 -0.6716128 0.0753262 0.4496734 0.8900111 9867423 male
1.401035 0.5728961 -0.750517 -0.09411862 -0.3775754 0.9211832 526600 male
1.692018 1.064232 -0.9422094 0.8583118 0.4566203 0.2340913 14265516 male
1.564583 1.243562 -0.7507345 0.4236523 -0.02863809 0.9053721 16247540 male
1.599544 0.7132468 -0.8259328 0.2372132 -0.2464541 0.9396756 198411 male
1.537706 1.013 -0.9422783 0.08641198 0.3070734 -0.9477546 6511975 male
1.577294 1.603387 -0.8212109 0.4626591 0.4931658 -0.7367049 4539717 male
1.409257 1.32068 -0.7158788 0.08712788 -0.8636103 0.4965742 526600 male
1.598379 1.605318 -0.7951108 0.7049093 0.5672119 -0.4258799 3289394 male
1.619917 1.528802 -0.7738906 0.9008936 -0.1084547 -0.4202718 14596789 male
1.444903 0.6677755 -0.8366688 0.4031016 -0.09001851 -0.9107171 5395546 male
1.32487 0.5021306 -0.8181551 -0.9961298 0.07425195 -0.04703414 526600 male
1.459326 1.032642 -0.7159888 -0.1534465 -0.1844687 0.970786 5591895 male
1.409181 1.265629 -0.8578009 -0.6008527 -0.0005067594 -0.7993596 15724543 male
1.375764 0.606388 -0.7661161 -0.7032766 0.07201412 0.7072595 526600 male
1.507605 0.8493087 -0.9333373 -0.5165324 -0.3681124 -0.7731026 6250863 male
1.491591 1.614464 -0.7793462 -0.7334064 0.6628151 -0.1509676 526344 male
1.61057 1.460995 -0.7514493 0.9086583 -0.3959413 -0.1325539 15580596 male
1.644938 0.8435202 -0.8478132 0.9703825 0.1051016 0.217512 1579032 male
-2.676967 0.3502144 -1.352041 0.3118856 -0.1578137 -0.9369218 6839899 male
-2.603838 -0.03165958 -1.346462 -0.7760634 -0.5043024 -0.3786883 1908771 male
-2.795895 0.03732033 -1.337655 -0.01374367 -0.0673696 -0.9976335 4474700 male
-2.543474 0.116525 -1.286979 0.9535666 0.210508 0.2154006 2565671 male
-2.685371 0.3030844 -1.342059 0.1647398 -0.05788757 -0.984637 7564394 male
-2.79982 -0.08724833 -1.274249 0.4204215 0.4683833 0.7770863 2829102 male
-2.812114 0.3547682 -1.207955 -0.8625883 0.1878095 0.4697545 3815217 male
-2.645876 0.558404 -1.36485 -0.2155953 0.2552281 -0.9425378 8551020 male
-2.589947 0.8548467 -1.345474 -0.6100242 0.04405135 -0.7911575 13549237 male
-2.815083 0.09809113 -1.33106 -0.2678816 0.05670469 -0.9617819 4278095 male
-2.399057 -0.2408211 -1.324042 0.9473701 0.1705511 -0.2709295 1974561 male
-2.588468 0.8925745 -1.31004 -0.5989332 0.6987885 -0.3911187 7037018 male
-2.772289 0.4653988 -1.167312 -0.4506713 -0.2375287 0.860509 3814706 male
-2.702874 0.2326077 -1.343029 0.254254 0.1220506 -0.9594054 10129298 male
-2.589157 0.2055197 -1.211594 0.85381 0.1336791 0.5031289 2828333 male
-2.57135 -0.03492114 -1.293033 -0.2653506 -0.3333651 0.9046862 3026480 male
-2.823173 0.01925955 -1.224085 -0.656957 -0.2848224 0.6980573 1907745 male
-2.525371 0.5722011 -1.322597 -0.9675867 -0.2273658 -0.1099141 6775902 male
-2.359386 -0.4459454 -1.416586 0.692295 -0.7039433 0.1587184 2698289 male
-2.575871 0.5401791 -1.359882 0.4411156 -0.4477943 -0.7777516 4669759 male
-2.604717 0.7170196 -1.335212 0.2663761 -0.455172 -0.8496249 15586252 male
-2.68547 0.1258062 -1.328094 -0.6641093 -0.3388659 -0.6664301 2302246 male
-2.740937 -0.4134039 -1.272344 0.8374264 -0.5463576 0.01452136 1841692 male
-3.030332 0.6048867 -1.228417 -0.581787 -0.5890903 -0.5608001 7037279 male
-2.807675 -0.3215632 -1.255518 -0.6122304 -0.3060343 -0.7290523 1973534 male
-2.626235 0.6564403 -1.185976 0.5993336 0.217238 0.7704592 15783608 male
-2.58929 0.5592031 -1.175733 0.2012697 -0.04759694 0.9783789 8880253 male
-2.521166 0.5302288 -1.232889 0.7477055 -0.4124872 0.5203758 7826797 male
-2.752995 -0.03649396 -1.321379 0.8192197 -0.1195612 -0.5608783 2565415 male
-2.46448 0.502708 -1.407856 0.7025517 0.6398415 -0.3114872 15914439 male
-2.647763 0.212176 -1.155215 0.1875076 -0.1806502 0.9655085 5131595 male
-2.635919 0.68072 -1.318523 -0.3804755 -0.156463 -0.9114593 7365727 male
-2.427588 -0.1585061 -1.316152 0.9291203 0.3450444 0.132967 1973534 male
-2.455566 0.5606732 -1.321873 0.9990812 0.02901389 -0.03154904 10457480 male
-2.58398 0.7314842 -1.342992 0.1041823 -0.9437164 -0.3139194 11379348 male
-2.80055 0.6980933 -1.161856 -0.2739483 0.07029884 0.959172 8616819 male
-2.571835 0.1972121 -1.277437 0.9484069 0.3163138 0.02168393 2697257 male
-2.523911 -0.03010891 -1.310285 0.5308815 0.3732642 0.7608147 2631208 male
-2.819124 -0.05984225 -1.350003 -0.4858549 -0.09305006 -0.8690726 3224633 male
-2.652405 0.6512666 -1.165744 0.4504489 0.1956795 0.8710945 10393746 male
-2.658671 0.5521963 -1.161382 0.3695831 -0.1462476 0.9176166 7168861 male
-3.032626 0.6925269 -1.229079 -0.398758 0.69884 0.5938137 16771810 male
-2.622179 0.8282216 -1.2259 -0.8809682 0.09045868 0.4644488 5130309 male
-2.726195 0.21782 -1.135614 0.2203607 -0.1305072 0.9666485 11905701 male
-2.48276 0.8187883 -1.25481 0.9175358 -0.3637208 0.1607341 3881270 male
-2.810454 -0.09766021 -1.363318 0.1132595 -0.4958162 -0.8610103 4014147 male
-2.864921 0.7142403 -1.226291 -0.06072132 0.9534374 -0.295415 16047566 male
-2.844994 0.1171386 -1.207479 -0.7961046 -0.1840752 0.5764844 2170657 male
-2.715357 0.2414114 -1.137196 0.2424504 0.0177937 0.9700009 9537926 male
-2.799371 0.572101 -1.248916 -0.9431385 0.2900998 -0.1622719 3091239 male
-2.64527 0.2495569 -1.153677 0.2400996 0.07250188 0.9680371 9670027 male
-2.769701 -0.2127018 -1.287791 0.8514901 -0.2239478 -0.4741437 1973537 male
-2.588233 0.2594007 -1.285549 0.9453664 0.2978368 -0.132574 4406843 male
-2.829479 0.2992204 -1.271363 -0.7693427 0.2289968 -0.5963828 3881011 male
-2.47295 0.4003977 -1.426755 -0.1641675 0.7660666 0.6214429 16442840 male
-2.481797 0.8513223 -1.232709 0.9325396 0.03602683 0.3592661 4340793 male
-2.56956 -0.01669755 -1.277953 -0.1282873 -0.3056478 0.9434628 2961461 male
-2.560261 0.6812974 -1.254745 0.8804909 0.470661 -0.05669475 4340793 male
-2.703302 0.6962629 -1.266939 -0.04826197 0.8804813 -0.471618 6577238 male
-2.788381 0.1426716 -1.159207 -0.2656197 -0.4330454 0.8613467 2828843 male
-2.589539 0.2514757 -1.292008 0.9150986 0.331805 -0.2291292 6182997 male
-2.757428 -0.4121657 -1.237585 0.5855824 -0.788305 0.1888615 1776667 male
-2.860241 -0.1838021 -1.271514 -0.9621266 -0.1169902 0.2462236 1907998 male
-2.621668 0.6459725 -1.327495 0.00996998 0.4775214 -0.8785637 8550257 male
-2.672282 0.1467144 -1.189814 -0.3215938 -0.7223799 0.612164 4079942 male
-2.805185 -0.4234454 -1.226543 0.09498068 -0.9699571 0.2239685 854541 male
-2.753863 0.7264863 -1.170485 0.311834 0.6449308 0.6977277 10262156 male
-2.33928 -0.3705468 -1.355442 -0.766334 -0.636888 -0.08429828 2303523 male
-2.790896 -0.2340022 -1.297963 0.5239917 -0.3057147 -0.7949663 2500910 male
-2.776735 -0.338375 -1.178609 0.9596285 0.150842 0.2374028 2302245 male
-2.507664 0.3897054 -1.450342 -0.7014585 0.5209116 0.486423 16773092 male
-2.462891 0.5001013 -1.571062 0.5877244 -0.3998841 -0.7033299 16374237 male
-2.576817 0.5755063 -1.363031 0.1790184 0.264046 -0.9477513 6972764 male
-2.526378 0.90943 -1.310384 0.2251245 0.9094867 -0.3495038 15590106 male
-2.753619 0.5767136 -1.329772 -0.4306596 0.09806349 -0.8971713 7499108 male
-2.82016 0.3946994 -1.262733 -0.9635577 0.1180258 -0.2400554 3486255 male
-2.840939 -0.2004527 -1.24051 -0.6881919 -0.02363869 0.7251438 2499110 male
-2.619486 0.3225877 -1.318722 0.5159519 0.2447241 -0.8209167 5065285 male
-2.468947 0.5586056 -1.362997 0.6672983 0.5937458 -0.4496433 7762540 male
-2.603217 0.720796 -1.232213 0.1631356 -0.04611834 0.9855253 16240071 male
-2.471768 -0.1932348 -1.356631 -0.3190449 -0.4645432 -0.8260813 2697257 male
-2.612255 0.3135652 -1.186193 0.5314244 0.3509608 0.7709832 8552569 male
-2.450619 0.440793 -1.522481 0.9471676 -0.1120129 -0.3005443 16771553 male
-2.509538 0.6010295 -1.336134 -0.2788822 0.112701 -0.9536893 4077878 male
-2.47476 -0.1808382 -1.362578 -0.2913985 -0.4322788 -0.8533593 2500137 male
-2.790853 0.1020311 -1.331092 0.08403668 0.06841407 -0.9941114 4013896 male
-2.482574 -0.0682208 -1.363888 0.8045575 0.488974 -0.3370338 1776420 male
-2.532205 0.04903087 -1.349048 0.8607048 0.1419131 -0.4889256 3027254 male
-2.594757 0.8807753 -1.318297 -0.6868348 0.5905739 -0.4236514 8154988 male
-2.583426 0.3152466 -1.228659 0.9113283 0.2774831 0.304112 5064516 male
-2.674096 0.7148739 -1.193853 0.02951033 0.7963659 0.604095 5722442 male
-2.462569 0.5758943 -1.273781 0.8613082 -0.1762626 0.476529 10064780 male
-2.814396 0.07019305 -1.332456 -0.2711288 -0.004818825 -0.9625312 4212046 male
-3.007443 0.7846224 -1.323485 -0.01457155 0.7049828 0.7090749 14796983 male
-2.810861 0.3348679 -1.279685 -0.8461266 0.1098167 -0.5215461 6248790 male
-2.771157 -0.1717478 -1.303092 0.8179534 -0.04934635 -0.5731643 2368550 male
-2.49966 -0.05679562 -1.379875 0.8171423 0.3631703 -0.4476451 2369322 male
-2.839223 -0.2405018 -1.294898 -0.7356682 -0.4701662 -0.487582 2039327 male
-2.491765 0.8394024 -1.330646 0.8864079 -0.09295548 -0.4534763 6838871 male
-2.460319 -0.09052837 -1.326967 0.7865946 0.6016937 0.1386862 2499622 male
-2.751369 0.02428014 -1.21729 0.5770862 -0.3065933 0.7569493 3684152 male
-2.486457 0.5922027 -1.257926 0.8251747 0.1993959 0.5285152 12762808 male
-2.771661 -0.1037936 -1.300927 0.9669313 0.08728769 0.2396351 2170913 male
-2.799132 -0.3501441 -1.172698 -0.7021064 0.09551226 0.7056376 3289394 male
-2.508396 0.5957777 -1.336717 -0.4092542 0.465854 -0.7845325 6972513 male
-2.505113 -0.1929904 -1.331992 -0.7148809 -0.6185101 -0.3261761 1710618 male
-2.999847 0.6988895 -1.246214 0.7004679 0.52448 0.48401 16175552 male
-2.683806 0.5786213 -1.338743 -0.3826838 0.1903925 -0.9040487 16373674 male
-2.768879 -0.2685422 -1.246964 0.9873229 -0.07392079 -0.1404615 1907741 male
-2.78119 0.350417 -1.178766 -0.3680258 0.3876574 0.8451502 6182993 male
-2.596426 0.8814129 -1.212713 -0.6522358 0.4967655 0.5725494 4472124 male
-2.484739 0.5086145 -1.414961 0.08917542 0.774026 -0.6268426 16046287 male
-2.585608 0.9054673 -1.237309 -0.4918112 0.8314769 0.2583948 4998462 male
-2.563575 0.8432372 -1.351208 -0.4669841 -0.1378173 -0.8734602 12298657 male
-2.576787 0.009576975 -1.260066 -0.004585028 -0.3133152 0.9496382 3026998 male
-2.472026 -0.08457161 -1.366644 0.7783746 0.4302619 -0.4571739 2764082 male
-2.626914 0.4541238 -1.35086 0.3714664 -0.1795708 -0.9109157 5263176 male
-2.662516 0.4537994 -1.18079 0.00738585 -0.1280612 0.9917388 8353393 male
-2.519831 0.0102697 -1.333191 0.9489564 0.2766641 -0.1514556 2368300 male
-2.823642 0.1766934 -1.172755 -0.6870289 -0.1182668 0.716941 2565935 male
-2.512347 0.8489023 -1.193907 0.5319046 0.03653644 0.8460158 4406587 male
-2.63771 0.8012974 -1.316277 -0.9686855 0.1758781 -0.1752585 13549237 male
-2.846361 0.1314863 -1.300974 -0.8386672 0.1270321 -0.5296229 2894386 male
