# .PCD v0.7 - Point Cloud Data file format
VERSION 0.7
FIELDS x y z normal_x normal_y normal_z rgb label
SIZE 4 4 4 4 4 4 4 4
TYPE F F F F F F U U
COUNT 1 1 1 1 1 1 1 1
WIDTH 247
HEIGHT 1
VIEWPOINT 0 0 0 1 0 0 0
POINTS 247
DATA ascii
1.390366 1.093426 -0.6652872 -0.3198211 -0.4377829 0.8402741 7762046 male
1.39264 0.7569329 -0.7859756 0.9292475 -0.1502727 -0.3375162 2236706 male
1.496489 0.5424581 -0.8676739 -0.422257 -0.394225 0.8162633 526344 male
1.280778 0.8464221 -0.7461618 -0.9474771 -0.09830078 0.3043419 4672083 male
1.389948 1.102913 -0.6591286 -0.402767 -0.4692576 0.78586 5000276 male
1.569204 0.5688642 -0.9197686 0.8796833 -0.01573077 -0.4752997 526600 male
1.548293 1.104825 -0.7783248 0.912537 -0.4084734 -0.02063006 9341078 male
1.477112 1.17974 -0.5737841 0.06132695 -0.7557835 0.6519434 12894165 male
1.671375 1.436482 -0.4875626 0.9570615 -0.02775395 -0.2885532 12100006 male
1.456766 0.8533635 -0.8097791 -0.1879346 -0.1931605 0.9630002 4343379 male
1.271073 0.4553975 -0.7489126 -0.8959283 -0.1482837 0.4187175 526600 male
1.675471 1.44828 -0.4322263 0.9595455 -0.02985989 0.2799657 16040647 male
1.489746 1.148076 -0.8647153 0.2568191 0.2707301 -0.9277657 6644078 male
1.47742 1.093619 -0.6551153 0.2687351 -0.6266305 0.7315161 12826828 male
1.340098 1.092702 -0.8331184 -0.4956534 0.6871464 -0.531185 11117233 male
1.32786 0.7039046 -0.8120669 -0.2305039 -0.1654731 -0.9588986 8290438 male
1.449474 0.7987939 -0.9328936 -0.4394059 -0.1773791 -0.8806015 10461623 male
1.414993 1.243524 -0.5533258 0.9238421 -0.05185017 -0.3792459 13679808 male
1.364674 0.3044277 -0.7063265 0.8774481 0.05069451 -0.4769851 526600 male
1.376272 1.300891 -0.5756885 -0.5570855 -0.8234143 -0.1079103 526600 male
1.581728 1.320725 -0.5322541 -0.06853505 -0.9126167 0.4030305 16767958 male
1.415458 0.8878897 -0.7436876 0.9261463 -0.1262446 0.3554087 3882307 male
1.653015 0.3033073 -0.8563246 -0.1375167 -0.9649176 -0.2236584 526600 male
1.589064 1.074348 -0.8000509 -0.9936054 -0.1053328 -0.04065979 1644825 male
1.552846 0.4041115 -0.9133948 0.2101541 0.1692671 0.9629039 526600 male
1.512724 1.37648 -0.6616438 -0.2742518 0.910528 -0.3093941 15131125 male
1.447711 1.338215 -0.6947718 -0.2385296 0.7114738 -0.6609907 14474218 male
1.368117 1.278832 -0.6462258 -0.9519043 0.1838482 -0.245108 8684172 male
1.449203 0.7497487 -0.8452348 -0.7689201 -0.2141324 0.6024194 1118225 male
1.387375 1.237287 -0.5116159 0.2277458 -0.194082 0.9541824 16233132 male
1.290525 0.9731662 -0.8571061 -0.7950656 -0.03549682 -0.6054838 2631466 male
1.628431 1.22693 -0.6574174 0.7532983 -0.4882888 0.4405858 11314612 male
1.281407 0.5138957 -0.7273476 -0.5934407 -0.1013555 0.7984706 526600 male
1.367604 1.307881 -0.4964135 -0.5397325 -0.1377293 0.8304935 6381670 male
1.581373 1.327613 -0.4985539 -0.6126678 -0.7177102 -0.3309534 9797236 male
1.698618 1.322517 -0.7219445 0.7926524 0.07748484 -0.6047298 7037811 male
1.280663 0.8830907 -0.7387348 -0.8950393 -0.02406686 0.4453375 3355964 male
1.294184 0.6927438 -0.7416241 -0.8387794 0.07957898 0.5386243 5461596 male
1.561367 0.6535129 -0.9041107 0.7481006 0.2937166 -0.5950428 526600 male
1.51107 1.366062 -0.6867054 -0.4553626 0.8424334 -0.2880118 14209253 male
1.429405 1.223197 -0.7804945 -0.650292 0.5055666 -0.5670296 11118008 male
1.640401 1.052726 -0.7854556 0.8376161 -0.2855722 0.4656691 14527148 male
1.623442 1.479058 -0.5483484 0.4517812 0.2795997 -0.8471823 14339028 male
1.459467 1.051681 -0.9258258 0.2470795 0.2814333 -0.9272254 14999264 male
1.548119 1.455853 -0.4206789 -0.8147755 -0.09725656 0.5715612 11314087 male
1.576718 0.6178036 -0.8750073 0.9883384 -0.07727616 0.1312082 526600 male
1.684484 1.266048 -0.7006927 0.8663047 -0.3233719 0.3807187 15649220 male
1.539478 0.8763887 -0.9055516 0.8665497 0.1199916 -0.4844519 7369857 male
1.359041 1.007583 -0.91023 -0.7354863 0.1236933 -0.666153 7633796 male
1.640481 1.250239 -0.6900126 0.5401822 -0.7284625 -0.4213616 4932946 male
1.338294 1.057845 -0.8659364 -0.5502896 0.5045787 -0.6652682 15725567 male
1.505196 0.7176697 -0.8171075 -0.2470628 -0.3243155 0.9131153 987927 male
1.302778 0.9939338 -0.7208316 -0.7639524 0.1106304 0.6357182 7435905 male
1.498573 1.028061 -0.7536864 0.7783995 -0.4926066 0.3891439 11315644 male
1.303982 1.123111 -0.5903687 0.3337916 0.7554719 -0.5637778 12228761 male
1.553627 1.509439 -0.4274969 -0.689447 0.4565739 0.5623194 526600 male
1.28783 0.762688 -0.7668566 -0.9857192 -0.1165065 0.1215886 6052708 male
1.527166 1.328486 -0.5476929 -0.464849 -0.3683548 0.8051274 16772334 male
1.614646 1.342742 -0.6099799 0.9389541 -0.01887703 0.3435242 8746886 male
1.362028 0.9619648 -0.9216983 -0.7381161 -0.447787 -0.5046496 11646915 male
1.349205 0.989809 -0.7027754 0.1312302 0.121161 0.98392 11317693 male
1.545616 0.346013 -0.9268619 -0.6864054 -0.3838663 0.6176522 526600 male
1.545438 0.5795793 -0.9415448 0.4518671 0.1169715 -0.8843833 526600 male
1.528568 1.255277 -0.5597559 0.5036087 -0.3057364 0.8080245 16444099 male
1.371059 0.7430323 -0.8138789 0.6022435 -0.1439208 -0.7852321 3487804 male
1.579639 0.3322399 -0.9709606 -0.137889 -0.9207851 -0.3648855 526600 male
1.663219 1.302604 -0.6599144 -0.1243765 -0.5596676 0.8193306 14208992 male
1.344942 0.2839227 -0.6951908 0.02715532 -0.9984339 0.04891 526600 male
1.544708 0.4380176 -0.9115988 0.4648605 -0.05426517 0.8837194 526600 male
1.522074 0.371088 -1.0011 0.1676314 0.5227754 -0.8358263 526600 male
1.282997 1.079308 -0.6031702 -0.4911213 -0.4958855 -0.7161686 11311524 male
1.403303 0.9988346 -0.6080132 -0.2761517 -0.8337877 0.4780569 15976912 male
1.426346 1.23569 -0.5576149 -0.7572968 -0.5732338 0.3128968 2237219 male
1.650927 1.474226 -0.3993463 0.609005 0.2927327 0.7371706 526600 male
1.572338 1.203504 -0.6225785 0.3098177 -0.5141404 0.7997954 14131151 male
1.532486 1.243414 -0.5671633 0.5593618 -0.3508233 0.7510242 14206578 male
1.48362 0.6030251 -0.9222721 -0.8163728 0.1997215 -0.5418917 526600 male
1.353153 1.020386 -0.6944964 0.04477602 -0.02802306 0.9986039 9601409 male
1.414378 1.24616 -0.5280096 0.8330272 -0.1691617 0.5267353 16242910 male
1.552772 1.411506 -0.5777631 -0.4358313 0.7289398 -0.5279184 16771544 male
1.316353 0.4480523 -0.7294986 0.4870423 -0.101644 0.8674436 526600 male
1.363821 1.157513 -0.7860564 -0.7173277 0.3611537 -0.5958264 12235458 male
1.366454 1.049537 -0.578087 0.3025381 -0.2989779 0.905032 15650509 male
1.424729 1.306754 -0.5404613 0.8787695 -0.1977425 -0.4343525 7630966 male
1.330738 0.483829 -0.7412289 0.8795864 -0.1457403 0.4528659 526600 male
1.434202 0.8579953 -0.8155634 -0.4132628 -0.2401256 0.8783812 3881535 male
1.26779 0.5916297 -0.7448231 -0.8551644 0.1888935 0.4827143 526600 male
1.376862 0.7057988 -0.7213501 0.6772037 -0.1439445 0.7215782 6055025 male
1.673841 1.442468 -0.4282344 0.9424281 -0.08024912 0.3246374 15713222 male
1.328651 1.114452 -0.7852736 -0.612725 0.7494763 -0.2507059 11775164 male
1.610393 1.38958 -0.6245105 0.6552612 0.724264 0.2146492 9405057 male
1.38157 1.340679 -0.507637 -0.6608971 0.5738829 0.4836046 9407895 male
1.459332 0.7990279 -0.8230878 -0.4118379 -0.2726193 0.8695219 4145735 male
1.617033 0.919475 -0.8771644 0.6305493 0.3652645 -0.684828 13803422 male
1.537511 1.094641 -0.7126309 0.7566674 -0.5732354 0.314413 12763090 male
1.494363 0.7329106 -0.8184959 -0.279503 -0.2472353 0.9277676 5331041 male
1.306943 0.6604562 -0.7271445 -0.5720729 0.07897043 0.8163922 526600 male
1.504241 0.6018935 -0.9400958 -0.3726701 0.2364525 -0.8973334 526600 male
1.577953 1.44802 -0.3945793 -0.5007475 -0.06807937 0.8629121 8748925 male
1.276799 0.5970115 -0.8020629 -0.6371607 0.2202382 -0.7385942 526600 male
1.440283 0.7492486 -0.8613845 -0.930716 -0.2246133 0.2886462 4144704 male
1.420791 1.333155 -0.495219 -0.04895765 0.6695431 0.741158 7763072 male
1.472886 0.5909296 -0.8879958 -0.99433 0.03601331 0.1000532 526600 male
1.556433 0.3682503 -0.9826247 0.4662913 0.3589351 -0.8085406 526600 male
1.437173 1.282326 -0.5192875 0.2817889 -0.8965859 0.3416559 12104385 male
1.352263 0.6319 -0.7209169 0.6580063 -0.4820428 0.5785001 526344 male
1.621092 1.042055 -0.7766367 0.04661369 -0.2218176 0.9739733 13474978 male
1.551003 1.149315 -0.6617149 0.5557447 -0.5119824 0.6549976 16447476 male
1.494484 0.4846393 -0.9027621 -0.6651751 -0.3003748 0.6836059 526600 male
1.450419 1.112082 -0.8885238 -0.04544604 0.7698956 -0.6365497 7631484 male
1.638168 1.525314 -0.5110561 0.5352768 0.6433741 -0.5473104 5591125 male
1.403319 1.21244 -0.5370382 0.8991302 -0.2162501 0.3805269 15380401 male
1.657251 1.521297 -0.4804839 0.7815814 0.6081169 -0.1390122 4276805 male
1.664214 1.400982 -0.4552369 0.7943039 -0.6067119 -0.03133789 10849421 male
1.32145 0.7483758 -0.8210184 -0.3187201 -0.1744357 -0.9316596 7107453 male
1.282696 0.5593541 -0.7237821 -0.5668053 0.02942672 0.823326 526600 male
1.366604 1.163689 -0.6512046 -0.8778099 -0.1925998 0.4385831 5526364 male
1.400863 1.16984 -0.8036575 -0.5488637 0.4887199 -0.6781603 9604250 male
1.308303 0.7608801 -0.7185184 -0.7225406 -0.1989069 0.662096 3948100 male
1.405364 0.9458889 -0.9504877 -0.303211 -0.2783065 -0.9113774 9409954 male
1.556893 1.534191 -0.4699014 -0.6272439 0.7783405 0.02740985 526344 male
1.648635 1.372653 -0.5230432 0.7787134 -0.3400783 -0.5272117 14465971 male
1.498541 0.9376159 -0.8125398 0.5177157 0.1837139 0.8355954 5857394 male
-2.450646 0.4155319 -1.394108 0.897191 -0.3336588 -0.2893447 4340793 male
-2.563963 -0.03991913 -1.387736 -0.807735 -0.1592736 -0.5676234 1908771 male
-2.659663 -0.04482893 -1.430486 0.819065 -0.3255648 -0.4723773 2631979 male
-2.460385 0.09316509 -1.330405 0.8554051 -0.1515674 0.4952876 2368036 male
-2.444751 0.4383941 -1.402271 0.8723124 -0.3011025 -0.3852382 4998462 male
-2.713691 -0.1367124 -1.331551 0.1312801 0.217193 0.9672606 3092015 male
-2.478789 0.5470587 -1.47999 0.1939162 -0.05429456 -0.9795146 10063230 male
-2.415152 0.6246297 -1.440748 0.2359272 0.1412511 -0.9614503 7235429 male
-2.50626 0.750459 -1.576941 -0.08091801 -0.2802959 -0.9564972 14665150 male
-2.621178 0.1300872 -1.42806 0.7433588 -0.1195994 -0.658114 3224377 male
-2.484668 -0.3751194 -1.366004 0.8878825 0.04581295 -0.4577841 1973534 male
-2.499278 0.8331568 -1.608392 -0.2957287 0.1987036 -0.9343778 6709083 male
-2.658039 0.4168502 -1.309286 -0.5126998 0.04012084 0.8576301 7761515 male
-2.547807 0.2669053 -1.442611 0.4687331 -0.1191715 -0.8752644 7433321 male
-2.542392 0.3339973 -1.275215 0.0249348 0.5074592 0.861315 10196111 male
-2.546171 -0.0337977 -1.311813 -0.4754543 -0.1373917 0.868946 3158840 male
-2.68652 0.03942406 -1.32249 -0.05402011 -0.2155373 0.9750004 3684928 male
-2.342502 0.5693952 -1.304364 -0.1891978 -0.7719654 -0.6068556 16640995 male
-2.534076 -0.4693763 -1.473877 -0.2272375 -0.9627714 -0.146405 722955 male
-2.418025 0.5555874 -1.337674 0.8341389 -0.4208548 0.3565021 3157808 male
-2.529578 0.6711063 -1.4877 -0.1822097 -0.6659808 -0.7233735 16773863 male
-2.568397 0.1316785 -1.424237 -0.542957 -0.1854656 -0.819024 2302246 male
-2.717381 -0.4289829 -1.502105 0.8604687 -0.4912613 -0.1351154 2170145 male
-2.770916 0.3928784 -1.331941 0.1722014 -0.4230745 0.8895813 10457230 male
-2.711267 -0.3038745 -1.389411 0.9074537 -0.1466693 -0.3937209 2236964 male
-2.583205 0.5876642 -1.308792 -0.03978309 0.2645612 0.963548 7300705 male
-2.541627 0.5942485 -1.302606 -0.323297 0.3004927 0.8973202 8091507 male
-2.521247 0.4551152 -1.469982 0.2130517 -0.05322971 -0.9755901 10328721 male
-2.640194 0.07288444 -1.436914 0.7177942 -0.1536733 -0.6790849 2632236 male
-2.332523 0.6337042 -1.326181 0.8709089 0.3885646 -0.300891 8487033 male
-2.523663 0.1808376 -1.261134 0.2964628 -0.2676812 0.9167644 1908771 male
-2.610015 0.5936824 -1.498968 0.02019 0.09852101 -0.9949303 6511705 male
-2.476797 -0.2405153 -1.369143 0.6616509 -0.1118167 -0.741428 2303275 male
-2.360041 0.6790853 -1.357395 0.7672462 0.6211503 0.1597052 9011832 male
-2.494698 0.6747585 -1.520572 0.05804557 -0.9484712 0.3115014 12235946 male
-2.716383 0.6890171 -1.437084 -0.6189902 0.7768878 0.1153112 8616307 male
-2.455957 0.1202173 -1.330861 0.8989584 -0.1068383 0.4248054 2170913 male
-2.475763 -0.1006575 -1.327365 0.9340996 0.07231426 0.3496125 1842977 male
-2.70789 -0.104093 -1.439394 0.2350594 -0.5088639 -0.8281334 3749945 male
-2.582193 0.5663269 -1.303771 -0.07183161 0.1502219 0.9860395 7498598 male
-2.595523 0.3967929 -1.297717 -0.05568758 0.05931106 0.9966853 9801349 male
-2.769701 0.3936753 -1.385263 0.4653643 0.07492784 -0.8819423 16768982 male
-2.522935 0.8514614 -1.591761 -0.5446017 0.3371329 -0.7679523 3222825 male
-2.691818 0.3967502 -1.401084 -0.9343286 0.1094646 -0.339187 2959397 male
-2.41598 0.8228116 -1.522125 0.9881493 -0.06051117 0.1410659 5919050 male
-2.687799 -0.184908 -1.403218 0.6883833 -0.0715087 -0.7218139 2697257 male
-2.692216 0.6351174 -1.465195 -0.1130512 -0.4931439 -0.8625711 8287347 male
-2.746679 0.06835651 -1.424166 -0.9237479 -0.05241131 -0.3793985 2697257 male
-2.653656 0.4132076 -1.44469 -0.564696 -0.08142586 -0.8212726 5985875 male
-2.661613 0.582066 -1.476022 -0.6654335 -0.651525 -0.3642987 5197127 male
-2.585773 0.2758012 -1.256042 -0.1285928 0.2257137 0.9656695 9536896 male
-2.664995 -0.07001061 -1.418082 0.7925936 -0.3210639 -0.5183761 2171172 male
-2.450053 0.2066242 -1.372901 0.9870247 0.07135306 -0.1438447 2434597 male
-2.667207 0.2741845 -1.435075 -0.2304144 0.07420901 -0.970259 5722447 male
-2.298495 0.5401974 -1.18146 -0.903363 -0.06324171 -0.4241885 16575460 male
-2.427438 0.8753275 -1.514961 0.8665469 0.4826137 0.1272024 4340793 male
-2.501324 0.005255645 -1.308655 0.4961339 -0.1485485 0.8554442 2434086 male
-2.48372 0.666934 -1.451034 0.8802806 -0.2244833 -0.4179878 6510930 male
-2.642808 0.6960492 -1.393266 -0.389842 0.8367128 0.384623 7565161 male
-2.627959 0.1842853 -1.281721 0.4995273 -0.681721 0.5345364 2894892 male
-2.458828 0.1831054 -1.324496 0.9157469 0.01585723 0.4014429 2631465 male
-2.736142 -0.3821567 -1.421145 0.9067318 0.3480625 -0.2380974 2959663 male
-2.750386 -0.2076904 -1.3389 -0.5839855 -0.1262818 0.8018816 2828331 male
-2.47251 0.5430451 -1.477982 0.2613614 -0.1002191 -0.9600243 8879992 male
-2.57595 0.1303305 -1.294548 -0.5439597 -0.2920663 0.7866418 2105893 male
-2.797873 -0.4325278 -1.394614 -0.5525442 -0.8052468 0.2151107 526602 male
-2.672032 0.622243 -1.435751 -0.2203922 -0.9256709 -0.3075075 657418 male
-2.48645 -0.4704545 -1.404469 -0.1496379 -0.9833524 -0.1030858 592137 male
-2.717144 -0.3209965 -1.387873 0.9693313 -0.06832206 -0.2360704 1973795 male
-2.79451 -0.4206034 -1.37391 -0.9590731 0.1057368 0.2626762 2171171 male
-2.302283 0.5493806 -1.174119 -0.9276096 -0.05859603 -0.3689273 16772327 male
-2.239286 0.4896946 -1.173746 0.9508806 -0.134355 0.2788818 16374232 male
-2.428017 0.523724 -1.42143 0.9113085 -0.3949464 -0.1163374 4342073 male
-2.46534 0.8450776 -1.606739 0.2441131 0.3639352 -0.8988661 10459279 male
-2.563615 0.5530691 -1.492811 0.3517947 -0.08949576 -0.9317893 14337448 male
-2.507033 0.4900681 -1.468897 0.1216245 -0.1778671 -0.9765097 16769455 male
-2.701668 -0.174455 -1.330588 0.3551598 -0.03976665 0.9339596 3092274 male
-2.516106 0.2214988 -1.428812 0.3379509 0.204384 -0.9187039 1841948 male
-2.354163 0.5830815 -1.333474 -0.04074769 -0.7071958 -0.7058428 8550513 male
-2.438783 0.8535257 -1.584332 0.6893558 0.431855 -0.5816272 6708568 male
-2.518867 -0.2903295 -1.366335 -0.423897 -0.05537135 -0.9040165 2697257 male
-2.55776 0.344713 -1.280326 7.390976E-06 0.4537879 0.8911098 10064523 male
-2.254032 0.4845725 -1.213295 0.4767198 0.2369741 -0.8465116 14993337 male
-2.396 0.6093987 -1.408562 0.4247408 -0.8724579 -0.2416871 5196359 male
-2.513458 -0.2514072 -1.371436 -0.3335278 -0.04914941 -0.9414583 2696745 male
-2.720712 0.1336252 -1.450776 -0.6126103 0.1051898 -0.7833543 3025971 male
-2.466229 -0.1453118 -1.339097 0.9887356 0.1357511 -0.06303805 2565671 male
-2.464982 0.001091089 -1.38694 0.9261439 -0.3077685 -0.2180284 3027254 male
-2.495466 0.8136829 -1.611766 -0.2474463 -0.02113719 -0.9686712 6510163 male
-2.492709 0.2135673 -1.278046 0.6771875 0.03706018 0.7348769 3355697 male
-2.563859 0.7108104 -1.393407 0.02215783 0.8437793 0.5362328 10921118 male
-2.382991 0.6895477 -1.364206 0.3436663 0.8919963 0.29366 11906212 male
-2.613782 0.0895747 -1.39778 0.9291062 -0.2458506 -0.2762597 2698289 male
-2.796072 0.3118678 -1.419577 -0.4621891 0.4260957 -0.7777042 13610918 male
-2.679645 0.3280992 -1.426456 -0.4759671 0.2963451 -0.8280309 4209207 male
-2.657388 -0.05675853 -1.414316 0.8331724 -0.2946651 -0.4679704 2236713 male
-2.472867 -0.1233482 -1.358662 0.9639798 0.04632277 -0.2619113 2698288 male
-2.694729 -0.1147255 -1.342785 0.527204 0.2446513 0.8137579 2303531 male
-2.420139 0.851633 -1.54625 0.9322956 0.2906301 -0.2153122 3749169 male
-2.463161 -0.1684481 -1.32415 0.9815812 0.119626 0.1489571 2237737 male
-2.697516 -0.02194392 -1.340004 -0.07161811 -0.09309817 0.993078 2895153 male
-2.407995 0.5789925 -1.405895 0.6122455 -0.7772239 0.1451845 2697257 male
-2.720491 -0.2257471 -1.335011 0.1296574 -0.1904801 0.9730912 2632496 male
-2.782146 -0.3842998 -1.400936 -0.9748659 0.2098158 -0.07492679 3157296 male
-2.396766 0.6199211 -1.379049 -0.1370037 -0.8571494 -0.4965127 7234405 male
-2.545731 -0.2741432 -1.327713 -0.9761028 -0.1809104 0.1203957 1907229 male
-2.744788 0.4049303 -1.35352 0.8985574 -0.4092827 -0.1583743 16768478 male
-2.612022 0.4720547 -1.474863 -0.2913879 -0.1173755 -0.9493769 7631211 male
-2.64942 -0.009248134 -1.428299 0.8367898 -0.1748219 -0.5188644 3092789 male
-2.611461 0.3303875 -1.278249 -0.1028207 0.4333267 0.8953525 12300715 male
-2.541868 0.890703 -1.533702 -0.7171041 0.6705469 -0.1900754 5327945 male
-2.389196 0.6051383 -1.351466 -0.5213704 -0.8170717 -0.2461031 7366248 male
-2.531439 0.8808098 -1.563977 -0.5774642 0.597694 -0.556145 5196100 male
-2.531573 0.76849 -1.575967 -0.4968091 -0.2581945 -0.8285631 15193030 male
-2.571051 -0.05909977 -1.34228 -0.9238743 -0.1116658 0.3660428 2303275 male
-2.464192 -0.1735919 -1.350271 0.9496266 0.07749557 -0.3036515 3224633 male
-2.430977 0.4754848 -1.355339 0.9543463 -0.2460449 0.169367 3881273 male
-2.580868 0.4290113 -1.298891 -0.1932794 0.01576715 0.9810172 7893358 male
-2.476295 -0.05731781 -1.355941 0.9971139 -0.04594043 -0.06044328 2697265 male
-2.648954 0.1740273 -1.278815 0.1848398 -0.6301604 0.7541434 3618360 male
-2.460139 0.8953214 -1.483703 0.4325305 0.7491184 0.5017362 4406587 male
-2.531454 0.7228228 -1.556948 -0.5828636 -0.4283842 -0.6904761 16705245 male
-2.734272 0.1769932 -1.428934 -0.8181122 0.1680577 -0.5499541 2303275 male
-2.576946 0.2530286 -1.455735 0.1875062 0.04727172 -0.9811254 9537925 male
