# .PCD v0.7 - Point Cloud Data file format
VERSION 0.7
FIELDS x y z normal_x normal_y normal_z rgb label
SIZE 4 4 4 4 4 4 4 4
TYPE F F F F F F U U
COUNT 1 1 1 1 1 1 1 1
WIDTH 247
HEIGHT 1
VIEWPOINT 0 0 0 1 0 0 0
POINTS 247
DATA ascii
1.379672 1.030333 -0.7135845 -0.04846111 -0.185539 0.9814412 6313825 male
1.399988 0.7424396 -0.7941849 0.9177963 -0.1248572 -0.3769095 2236706 male
1.521915 0.5350288 -0.8556865 -0.4051851 -0.3812516 0.8309466 526600 male
1.292239 0.7950159 -0.7501919 -0.9036501 -0.1557919 0.3989301 6252401 male
1.381118 1.055382 -0.6958156 -0.355659 -0.3983968 0.8454506 5526364 male
1.591641 0.5851333 -0.911783 0.7966632 0.1002253 -0.5960559 526600 male
1.549006 1.25431 -0.5497317 0.2928397 -0.02362202 0.9558697 10723507 male
1.486198 1.119184 -0.602962 -0.1092327 -0.80212 0.5870876 13289433 male
1.716503 1.27999 -0.4680787 0.6939415 -0.5362371 0.4805153 11897990 male
1.473353 0.8463649 -0.8264655 -0.007481724 -0.02672198 0.999615 5726058 male
1.309082 0.4260796 -0.7230167 -0.5295557 -0.1810677 0.8287251 526600 male
1.754119 1.343478 -0.4865663 0.9194522 -0.1452653 -0.3653843 9076609 male
1.487999 1.155374 -0.8622055 0.1528183 0.4616795 -0.8737841 7762558 male
1.463133 1.033671 -0.7015583 0.2229024 -0.6683563 0.709658 14078950 male
1.359165 1.131677 -0.7970178 -0.7299637 0.4681423 -0.4979917 9406615 male
1.341762 0.6873319 -0.8069652 -0.2679467 -0.2199489 -0.937991 8290438 male
1.477907 0.7905758 -0.9554605 0.03242141 -0.1833345 -0.9825158 6514295 male
1.459761 1.260661 -0.5557129 0.5908025 -0.2344428 -0.7720031 790028 male
1.384637 0.2817812 -0.7115045 0.5985216 -0.6914935 -0.4044857 526600 male
1.451726 1.239849 -0.5617241 -0.611796 -0.7907458 -0.02065897 526600 male
1.619369 1.25105 -0.5323257 -0.4804699 -0.7112002 0.5131695 12098972 male
1.376141 0.8682088 -0.7142786 0.3975694 0.124824 0.909042 13028318 male
1.637904 0.2996536 -0.8651614 -0.06655219 -0.988062 -0.1389398 526600 male
1.624224 1.006672 -0.8131585 -0.8490635 0.1268131 -0.5128448 3617074 male
1.562801 0.4548194 -0.8933613 0.437403 -0.2647332 0.8594155 526600 male
1.562491 1.318259 -0.6693171 -0.1018173 0.9588366 -0.2650766 13420253 male
1.480904 1.278365 -0.7203694 -0.2210532 0.7403702 -0.6348129 13023950 male
1.402089 1.252791 -0.6467766 -0.9142617 0.3714729 -0.1616586 9407383 male
1.481463 0.6918653 -0.842179 -0.7265267 -0.2371394 0.6449215 3092015 male
1.388528 1.199647 -0.5260466 -0.2353812 -0.1763292 0.9557739 14853530 male
1.317031 0.9876652 -0.898308 -0.5818049 0.137466 -0.8016272 9146785 male
1.649058 1.18121 -0.6487054 0.5420896 -0.4954322 0.6787384 15985659 male
1.317663 0.5020405 -0.7045147 -0.3454025 -0.1375408 0.9283209 526600 male
1.456723 1.254427 -0.5054428 0.4395407 -0.7690915 0.4640066 14538990 male
1.626542 1.254445 -0.5118708 -0.7966796 -0.5938551 -0.112417 9205107 male
1.679768 1.255455 -0.7538607 -0.07505709 0.1011627 -0.9920346 2895410 male
1.281575 0.8656362 -0.7541687 -0.8739315 -0.03038555 0.4850983 3355964 male
1.315212 0.7022825 -0.7364775 -0.7866907 -0.002964108 0.6173403 5264216 male
1.559901 0.7139926 -0.8339151 0.7741036 0.097731 0.6254695 7305096 male
1.572265 1.313511 -0.7046542 -0.2449049 0.945971 -0.2125098 15000053 male
1.44579 1.196848 -0.7911435 -0.576841 0.6491319 -0.4958652 11118008 male
1.640714 1.110861 -0.7615374 -0.9298108 0.3093756 -0.1993451 657674 male
1.761411 1.372105 -0.4557656 0.989013 0.1428592 0.03800601 3486773 male
1.338468 0.9503819 -0.9209974 -0.4742645 -0.7322965 -0.488687 8555166 male
1.636996 1.363381 -0.4123522 -0.71189 -0.02966525 0.7016641 13221316 male
1.587658 0.6429548 -0.8251702 0.4011883 -0.6474308 0.6479824 526600 male
1.685164 1.136647 -0.6983763 0.1263491 -0.3789904 0.9167345 16772079 male
1.535728 0.8400195 -0.9285965 0.8107671 0.0945218 -0.5776871 6185839 male
1.344575 0.9934565 -0.9186106 -0.6883286 0.09389797 -0.7192961 6646910 male
1.625485 1.15358 -0.7491574 0.8363996 -0.4474392 -0.3165975 526344 male
1.346226 1.054682 -0.8818771 -0.5244473 0.6097137 -0.5943099 11777987 male
1.512587 0.5682718 -0.852304 -0.6209453 -0.1638949 0.7665281 526600 male
1.286976 0.9559514 -0.7579611 -0.8278334 0.1304721 0.5455905 2894900 male
1.51305 1.008462 -0.8248798 0.9005677 -0.2584883 0.3495162 9736354 male
1.280211 1.108534 -0.6343959 -0.04940027 0.1390856 -0.9890474 12101805 male
1.651477 1.41033 -0.4116046 -0.4886835 0.4469902 0.7492585 526600 male
1.328935 0.7044535 -0.8116463 -0.3971195 -0.2304626 -0.8883598 7501446 male
1.565828 1.274099 -0.552636 -0.4110799 -0.1047477 0.9055612 16703193 male
1.673073 1.305391 -0.6915042 0.6577896 0.7372608 -0.1541409 11249847 male
1.355947 0.9390422 -0.9456694 -0.7430552 -0.4658874 -0.4804352 11646915 male
1.29238 0.9608902 -0.7502327 -0.7850878 0.1206304 0.6075239 4474959 male
1.553636 0.3555153 -0.9104973 -0.6198205 0.03959181 0.7837443 526600 male
1.587663 0.5307444 -0.9154472 0.8587989 -0.1206675 -0.4978995 526600 male
1.540658 1.064574 -0.8195668 0.9081885 -0.3984565 -0.1281642 8289414 male
1.338188 0.8289856 -0.869557 -0.1170351 -0.2906375 -0.9496487 5989227 male
1.597859 0.3383618 -0.9710362 0.3149282 0.2082642 -0.9259839 526600 male
1.718012 1.202615 -0.6646734 0.1563443 -0.7341382 0.6607553 11841724 male
1.358189 0.2890954 -0.7222903 0.3663595 -0.8762081 -0.3131134 526600 male
1.576363 0.4045612 -0.9194923 0.9878083 0.122947 0.09549227 526600 male
1.536051 0.360364 -0.9904067 0.2642823 0.4750438 -0.8393379 526600 male
1.271229 1.138857 -0.6258749 0.02515632 0.2076008 -0.9778901 9471367 male
1.388841 0.9991075 -0.6287941 0.4275706 0.07286001 0.901041 16503770 male
1.469026 1.180361 -0.5541792 -0.4852842 -0.5730326 0.6604036 10459815 male
1.740532 1.386816 -0.4142084 0.7151979 0.3467522 0.6068401 526600 male
1.581478 1.127552 -0.6473177 0.117178 -0.7171805 0.6869655 16578555 male
1.545125 1.063438 -0.7964863 0.8349955 -0.5454757 -0.07238016 9406871 male
1.510117 0.6406994 -0.8751887 -0.9518752 0.3043064 -0.03648505 526600 male
1.323457 1.00174 -0.7224873 -0.4232746 0.1143334 0.8987582 5460307 male
1.421963 1.203016 -0.5295647 0.4959478 -0.3983265 0.7716034 14659755 male
1.707408 1.36775 -0.3894854 0.1500624 0.1738903 0.9732642 2960173 male
1.351027 0.4652168 -0.7291487 0.868045 -0.1919419 0.4578822 526600 male
1.376443 1.172146 -0.7666787 -0.8145268 0.4702559 -0.3397139 9605279 male
1.322858 1.048509 -0.5937178 0.01752961 -0.5080798 0.8611315 13151143 male
1.479029 1.24924 -0.5068463 0.4291693 -0.8492449 0.307566 8617356 male
1.342084 0.4572663 -0.7198849 0.6109979 -0.1974092 0.7666231 526600 male
1.451854 0.844801 -0.8288931 -0.1872447 -0.1152565 0.9755282 6052710 male
1.298438 0.5885921 -0.7817123 -0.7033185 0.2659932 -0.6592348 526600 male
1.393369 0.6951694 -0.7212898 0.7190619 -0.06993858 0.6914177 6055025 male
1.746508 1.32935 -0.4162352 0.7913625 -0.3081728 0.5279914 8750469 male
1.335794 1.097428 -0.8124449 -0.519318 0.7918183 -0.3214539 13157329 male
1.626347 1.322013 -0.6299556 0.06925426 0.9927089 0.0986554 12170693 male
1.415641 1.306896 -0.5433701 -0.7932318 0.5788102 -0.1891085 8748941 male
1.488613 0.8176824 -0.825553 -0.007355213 -0.04404163 0.9990026 5593964 male
1.637201 0.7993701 -0.8708714 0.3980382 0.2042554 -0.8943408 10712953 male
1.525841 1.04484 -0.8301356 0.8839523 -0.4381928 -0.1631421 6644078 male
1.505598 0.7290066 -0.82339 -0.2459957 -0.1627983 0.9555013 5199199 male
1.342563 0.6594821 -0.7106484 -0.4730946 0.07390998 0.877906 921359 male
1.58018 0.5219087 -0.9248245 0.7471861 -0.07766906 -0.6600611 526600 male
1.678417 1.310919 -0.4006744 -0.3126487 -0.3979602 0.862484 14529971 male
1.288438 0.5909666 -0.7464241 -0.9534128 0.2720803 0.1302931 526600 male
1.4537 0.7254405 -0.8936151 -0.921518 -0.2976359 -0.2494342 3685440 male
1.44751 1.304399 -0.512952 -0.277476 0.7916435 0.5443414 8683404 male
1.50102 0.5898186 -0.8925679 -0.962491 0.1456994 -0.2288724 526600 male
1.572427 0.3659206 -0.9649715 0.5099541 0.3398767 -0.7902092 526600 male
1.470218 1.261077 -0.5271618 0.7501199 -0.6612893 -0.004066616 11840188 male
1.376747 0.6159422 -0.7086231 0.7168338 -0.4849073 0.5010133 592137 male
1.638885 0.9625659 -0.7830991 -0.5055953 -0.2281039 0.8320709 14399166 male
1.556889 1.092751 -0.6826091 0.4655759 -0.6598199 0.5898108 16447476 male
1.500771 0.7748726 -0.8240969 -0.06272203 -0.06755844 0.9957418 5527390 male
1.427243 1.104111 -0.8859509 -0.2842751 0.7624263 -0.5812864 9472925 male
1.693657 1.41475 -0.535408 0.2791538 0.5325274 -0.7990543 4999756 male
1.451006 1.255399 -0.5603443 -0.4821478 -0.8650034 -0.1389339 526600 male
1.719353 1.411176 -0.52228 0.5478736 0.4476124 -0.7067373 7367280 male
1.714636 1.284748 -0.4534335 0.814987 -0.4751074 -0.3317666 13082521 male
1.320108 0.7329554 -0.821579 -0.4864378 -0.2594235 -0.8343127 3752266 male
1.312057 0.5743008 -0.7066802 -0.5158581 0.09929799 0.8508997 526600 male
1.378858 1.166035 -0.6629233 -0.9315475 0.05615802 0.3592566 5460056 male
1.407324 1.167116 -0.8034228 -0.371388 0.5770952 -0.7273459 9671070 male
1.309484 0.7553967 -0.7344515 -0.8018125 -0.1909808 0.5662359 4277322 male
1.389377 0.9211056 -0.9708427 -0.4151658 -0.3458649 -0.8414361 10133682 male
1.650909 1.440945 -0.4499364 -0.4776994 0.8387023 0.2614992 526344 male
1.720784 1.284185 -0.5237178 0.7753611 -0.372147 -0.5102174 14594990 male
1.515227 0.9175529 -0.8584101 0.7654649 0.3657632 0.5294155 13290970 male
-2.448493 0.4234588 -1.397084 0.8975497 -0.3075823 -0.3159083 4406586 male
-2.564912 -0.04141818 -1.392797 -0.8071017 -0.160608 -0.5681481 1908771 male
-2.659401 -0.0466006 -1.434477 0.8162413 -0.3294596 -0.4745598 2631979 male
-2.460372 0.09162457 -1.337117 0.854424 -0.1521153 0.4968108 2368036 male
-2.457443 0.4060202 -1.403432 0.8686264 -0.306501 -0.3892884 4868162 male
-2.724743 -0.1398952 -1.333768 -0.09558848 0.2266323 0.9692785 3026739 male
-2.539223 0.4773728 -1.471657 0.1694433 0.05799793 -0.9838321 16575162 male
-2.463714 0.7049115 -1.372391 0.3174714 0.87775 0.3588411 10064523 male
-2.52173 0.761342 -1.562505 -0.2120696 -0.3555363 -0.9102859 16245726 male
-2.60545 0.1243053 -1.409457 0.9260021 -0.1649507 -0.3395755 2170913 male
-2.489834 -0.2300447 -1.291758 0.4464275 -0.1835899 0.875784 2828844 male
-2.50516 0.844434 -1.59121 -0.2922866 0.2329077 -0.927536 6709083 male
-2.658135 0.426944 -1.315103 -0.6141932 0.002858951 0.7891507 6972506 male
-2.55305 0.2783231 -1.453898 0.4354075 -0.1204038 -0.8921456 8813943 male
-2.512585 0.2631764 -1.267184 0.4940509 0.0680324 0.8667673 7564649 male
-2.484685 0.003298548 -1.329992 0.7656019 -0.1643378 0.6219704 3025198 male
-2.719783 0.09928934 -1.333345 -0.6030719 -0.1122311 0.7897524 2303531 male
-2.359536 0.5717837 -1.300183 -0.4589376 -0.7790676 -0.4271182 16770788 male
-2.543091 -0.4688131 -1.489462 -0.06167443 -0.9979815 0.01513459 2170913 male
-2.433904 0.5067345 -1.409021 0.925033 -0.236402 -0.2973688 4406586 male
-2.49277 0.7011263 -1.485638 0.4207491 -0.8448961 0.3303348 11904668 male
-2.560158 0.1334482 -1.436612 -0.4614199 -0.1915474 -0.8662571 2434347 male
-2.716283 -0.43344 -1.517012 0.6892926 -0.7011515 -0.1823801 2236450 male
-2.768142 0.3583152 -1.350615 0.620353 -0.5021932 0.6024651 7103069 male
-2.705173 -0.294452 -1.386921 0.9167521 -0.2169018 -0.3354392 1776411 male
-2.57817 0.5539868 -1.299398 -0.1294715 0.0699158 0.9891154 7892584 male
-2.550255 0.5560526 -1.291903 -0.3139156 0.1008411 0.9440807 8156014 male
-2.540981 0.4728146 -1.472266 0.1719659 0.04941814 -0.9838628 5328718 male
-2.624795 0.04360063 -1.385309 0.9612873 -0.2746367 -0.02239841 3422012 male
-2.341166 0.6414756 -1.315047 0.8690282 0.4821247 -0.1111134 10722963 male
-2.545672 0.1920618 -1.260422 0.07147506 -0.2524693 0.9649616 3092023 male
-2.629199 0.5737541 -1.493976 -0.1953563 -0.06956095 -0.9782625 6314577 male
-2.478921 -0.2424208 -1.371988 0.6623087 -0.117754 -0.7399199 2303275 male
-2.385979 0.6789852 -1.312877 0.2256933 0.6788819 0.6987002 8879482 male
-2.48495 0.6887913 -1.514495 0.6873747 -0.7234831 -0.06394064 12628650 male
-2.721858 0.6867149 -1.443569 -0.679754 0.7097334 -0.1849681 7762030 male
-2.45577 0.1186502 -1.337849 0.8982854 -0.1089495 0.4256919 2170913 male
-2.477229 -0.1022726 -1.331182 0.9341577 0.06990337 0.3499477 1842977 male
-2.701385 -0.09977838 -1.442273 0.3242291 -0.5409204 -0.7760675 2895409 male
-2.585113 0.5407598 -1.298291 -0.05395514 0.03019419 0.9980869 7827823 male
-2.620455 0.3808254 -1.301778 -0.1802464 0.008355231 0.9835862 5787723 male
-2.738664 0.407372 -1.346753 0.9020892 -0.4300303 -0.03618205 15782351 male
-2.543078 0.8534119 -1.564687 -0.6960453 0.2342404 -0.678714 8090995 male
-2.712452 0.3045495 -1.319139 -0.8447636 0.1867824 0.5014849 6380630 male
-2.422372 0.8320893 -1.504729 0.9881058 -0.04527923 0.1469591 5919050 male
-2.715443 -0.1533937 -1.427278 0.334753 -0.1540212 -0.9296334 3224634 male
-2.715853 0.6650169 -1.386175 -0.6579893 0.2831596 0.6977614 8617074 male
-2.717174 0.08696627 -1.461975 -0.4800245 -0.03535897 -0.8765424 3026223 male
-2.665073 0.4138783 -1.438698 -0.6611577 -0.01762708 -0.7500399 4735551 male
-2.655229 0.5753332 -1.479602 -0.6476286 -0.4402507 -0.6218977 5459531 male
-2.58953 0.288138 -1.26642 -0.1033584 0.2910901 0.9510961 10130578 male
-2.666768 -0.0874145 -1.415657 0.7871627 -0.3550768 -0.5042775 2631464 male
-2.449464 0.2050323 -1.380422 0.9869982 0.06813607 -0.1455755 2434597 male
-2.706021 0.2732787 -1.43109 -0.4736761 0.2189804 -0.8530409 5657166 male
-2.305544 0.5349148 -1.176737 -0.8816953 -0.08774756 -0.4635884 16575460 male
-2.435018 0.8839904 -1.495415 0.8552938 0.4942533 0.1555195 4340793 male
-2.526108 -0.005252724 -1.30802 0.005496204 -0.118519 0.9929367 3158064 male
-2.491558 0.6711455 -1.447594 0.8498589 -0.3607202 -0.3842148 5787722 male
-2.646518 0.6949261 -1.382885 -0.4032713 0.8102777 0.4252323 7565161 male
-2.627283 0.1833126 -1.289409 0.500082 -0.6813674 0.5344685 2894892 male
-2.458261 0.1816297 -1.331921 0.916026 0.01402491 0.4008742 2631465 male
-2.736536 -0.383952 -1.424353 0.9073825 0.3486413 -0.2347477 2959663 male
-2.747626 -0.190382 -1.33691 -0.5263433 -0.06276713 0.8479524 3026483 male
-2.480683 0.5224067 -1.471983 0.248093 -0.3114984 -0.9172888 7563627 male
-2.575695 0.1295714 -1.302015 -0.5458239 -0.2840275 0.7882924 2105893 male
-2.798478 -0.4343441 -1.398177 -0.5532526 -0.8056524 0.2117447 526602 male
-2.660973 0.6389025 -1.436702 0.8356245 -0.5483811 -0.03178221 6710622 male
-2.492986 -0.4745095 -1.43499 0.0472477 -0.9862497 -0.158364 526600 male
-2.71862 -0.323919 -1.393627 0.9661185 -0.03149284 -0.2561712 2170917 male
-2.795151 -0.4224608 -1.377423 -0.9598313 0.1046708 0.2603232 2171171 male
-2.307477 0.5204781 -1.150741 -0.8593625 -0.415012 0.2987664 14797256 male
-2.248599 0.460335 -1.167824 0.7607206 -0.2628735 0.5934662 15913937 male
-2.416862 0.568265 -1.339836 0.7457405 -0.6143249 0.2578299 2631464 male
-2.471504 0.8569899 -1.588744 0.2434454 0.4075127 -0.8801522 10459279 male
-2.565684 0.5701283 -1.489708 0.3200912 0.0002041987 -0.9473869 10855323 male
-2.509119 0.4804064 -1.466681 0.2200807 -0.06405832 -0.9733763 16769716 male
-2.684371 -0.1621941 -1.344998 0.7287627 0.06838098 0.6813436 2632238 male
-2.505732 0.2589589 -1.426978 0.4399389 0.006070221 -0.8980074 7104356 male
-2.346472 0.5779276 -1.316719 0.1297807 -0.6192449 -0.7743983 16773613 male
-2.445328 0.8650137 -1.565771 0.6841447 0.4710027 -0.5568687 6708568 male
-2.511611 -0.3104464 -1.372159 -0.2309605 -0.01714051 -0.9728123 2893868 male
-2.489309 0.4453655 -1.298725 0.3935983 -0.2913714 0.871885 8814462 male
-2.258062 0.4807241 -1.206783 0.5054332 0.2541618 -0.8245844 14993337 male
-2.395228 0.6123706 -1.408859 0.5318859 -0.7126489 -0.4574156 7169381 male
-2.515638 -0.2531599 -1.374299 -0.3316029 -0.05164152 -0.9420047 2696745 male
-2.697334 0.1258107 -1.469077 -0.2081673 0.03605165 -0.9774287 4211529 male
-2.467958 -0.1470795 -1.342406 0.9894096 0.1308538 -0.06281859 2565671 male
-2.4656 -0.000951284 -1.392413 0.9246352 -0.3154871 -0.2133487 3027254 male
-2.500923 0.8252056 -1.59535 -0.2389322 0.01630273 -0.9708996 6510163 male
-2.490514 0.2319273 -1.286987 0.744459 0.0362244 0.666685 6446425 male
-2.572563 0.720066 -1.396618 -0.0268113 0.8707284 0.4910329 5787983 male
-2.401642 0.6886457 -1.347033 0.2508 0.869422 0.4256816 11841964 male
-2.685203 0.09726091 -1.469519 0.03713253 -0.05485727 -0.9978036 4278352 male
-2.830943 0.2867517 -1.394628 -0.972792 0.1152231 -0.2009967 15651785 male
-2.713946 0.3273981 -1.400934 -0.7814972 0.4857331 -0.3915685 2828841 male
-2.65701 -0.05841557 -1.417717 0.8309184 -0.297178 -0.4703831 2236713 male
-2.491584 -0.1976358 -1.379916 0.2024106 0.02122582 -0.9790708 2500910 male
-2.687068 -0.1177762 -1.352033 0.7227204 0.1993525 0.6617658 2303273 male
-2.426964 0.8618407 -1.527648 0.9276188 0.3193791 -0.1937023 3749169 male
-2.470541 -0.1362638 -1.350747 0.9808525 0.1109074 -0.160088 2170146 male
-2.687826 -0.04485847 -1.349685 0.2303039 -0.07711438 0.9700586 3157808 male
-2.418085 0.5808269 -1.36833 0.5854156 -0.7962136 -0.1527498 1447702 male
-2.701813 -0.2167144 -1.340565 0.4379277 -0.2260426 0.870129 2895404 male
-2.775959 -0.3740475 -1.405679 -0.9512962 0.1546282 -0.2666944 856084 male
-2.40105 0.6216806 -1.392187 0.1434186 -0.9384218 -0.3143179 5327945 male
-2.549734 -0.2657639 -1.334745 -0.9825551 -0.1855047 -0.01318258 1775131 male
-2.759907 0.3689737 -1.371882 0.9071302 -0.2138142 -0.3624893 16375766 male
-2.624036 0.4763169 -1.470971 -0.3920871 -0.1021837 -0.9142355 6643549 male
-2.672956 -0.1792342 -1.374848 0.9968414 -0.03805441 -0.06971067 2170657 male
-2.679255 0.3035888 -1.286938 -0.4512482 0.3240281 0.8314934 7497825 male
-2.5496 0.8977785 -1.514464 -0.7291542 0.6637003 -0.1668414 5327945 male
-2.403252 0.6144603 -1.34723 -0.603572 -0.7889255 -0.1153152 7104099 male
-2.538722 0.8894314 -1.545063 -0.5852159 0.6093428 -0.5349991 5196100 male
-2.531092 0.7780507 -1.565184 -0.5131031 -0.2550716 -0.8195511 12233120 male
-2.565657 -0.02807499 -1.330808 -0.7507015 -0.09843573 0.653267 2828845 male
-2.464757 -0.2160944 -1.323467 0.976867 -0.09264063 0.1927402 2040353 male
-2.43294 0.4689957 -1.384177 0.9679841 -0.1882969 -0.1659863 3683379 male
-2.571178 0.4337599 -1.296114 -0.365026 -0.01102928 0.9309322 8551031 male
-2.480572 -0.06267777 -1.371869 0.9786628 -0.09753922 -0.1808466 3289909 male
-2.642024 0.1850762 -1.278296 0.1791379 -0.6595629 0.7299908 2105893 male
-2.468378 0.9019321 -1.463565 0.4123198 0.7357156 0.5373222 4406587 male
-2.54168 0.7266968 -1.53572 -0.6972616 -0.4511758 -0.5570161 15718606 male
-2.734209 0.1752358 -1.436052 -0.8207816 0.1630821 -0.5474688 2303275 male
-2.575969 0.1979373 -1.461696 0.2019067 -0.6306384 -0.7493525 2632496 male
