# .PCD v0.7 - Point Cloud Data file format
VERSION 0.7
FIELDS x y z normal_x normal_y normal_z rgb label
SIZE 4 4 4 4 4 4 4 4
TYPE F F F F F F U U
COUNT 1 1 1 1 1 1 1 1
WIDTH 251
HEIGHT 1
VIEWPOINT 0 0 0 1 0 0 0
POINTS 251
DATA ascii
1.196502 0.1779241 -1.277116 -0.5850111 0.1036371 0.8043762 6381417 male
1.416974 0.2442846 -1.115181 -0.1730806 0.9219921 -0.3463723 6777463 male
1.854499 0.2193476 -1.227482 0.7658066 0.6261575 -0.1465166 526600 male
1.434741 0.124221 -1.080523 0.1253603 -0.7276064 0.6744432 5528418 male
1.214787 0.16374 -1.267869 -0.3566348 0.09574252 0.929325 7959419 male
1.645471 0.2971406 -1.347261 -0.09052467 0.8746805 0.4761716 723723 male
1.367927 0.02277108 -1.414645 0.1229112 -0.6435459 -0.7554743 8553876 male
1.267586 0.4373064 -1.332089 0.5472262 0.6510732 0.5259725 14011102 male
1.311007 0.6136986 -1.453456 0.599874 0.09770819 -0.7941059 15712955 male
1.674819 0.3307659 -1.344531 -0.1157529 0.6008259 0.7909548 4407368 male
1.628688 0.2505595 -0.965279 0.3097515 -0.168727 0.9357271 526600 male
1.301363 0.7004954 -1.405935 0.6323249 0.759343 -0.1535036 1051664 male
1.268838 0.2426201 -1.523742 -0.2245961 -0.4265444 -0.8761373 8419977 male
1.321376 0.2436299 -1.302503 0.6449493 0.2301436 0.7287486 11841217 male
1.197585 0.1092966 -1.352843 -0.6932327 -0.7063381 -0.1432299 12103873 male
1.441643 0.2288834 -1.02518 0.01807161 -0.92842 0.3710927 723467 male
1.601408 0.1098702 -1.34993 0.6346167 -0.6015024 -0.4852386 5857385 male
1.195778 0.3958465 -1.244035 0.9533783 -0.2897177 0.08445898 2303779 male
1.70743 0.2509786 -0.9564072 0.2299535 0.940498 -0.2501698 526600 male
1.167457 0.4694385 -1.304025 -0.293481 0.951749 0.08968209 7696248 male
1.310841 0.4923932 -1.388855 0.7497267 -0.2645988 0.6065454 16373714 male
1.367246 0.1944424 -1.178812 -0.2326019 0.8878441 -0.3970254 6448758 male
1.906371 0.2312611 -1.087832 -0.05168757 -0.1042399 -0.9932081 526600 male
1.479036 0.1919992 -1.626518 0.1853197 -0.8005406 0.5699047 3617074 male
1.779476 0.2770814 -1.327734 0.9839792 0.06707495 -0.1651846 526600 male
1.237428 0.3999595 -1.540377 -0.5378576 0.210294 -0.8163857 11775419 male
1.17998 0.2681684 -1.44318 -0.7314807 -0.37797 -0.5675162 11315388 male
1.126619 0.3700033 -1.328868 -0.9667265 -0.2143425 0.139632 11776447 male
1.730276 0.3012117 -1.285347 0.06975275 0.7100125 0.7007259 526600 male
1.124033 0.4007186 -1.211732 -0.771452 0.5390177 0.3381152 16636376 male
1.334813 -0.004318373 -1.30572 -0.1054776 -0.9925303 0.06130349 6713989 male
1.196319 0.4819612 -1.414155 -0.6669978 0.6299173 -0.3978921 9799564 male
1.467976 0.2768618 -0.9918272 -0.4917138 -0.8592873 -0.1408656 526600 male
1.173716 0.4277814 -1.230173 0.4078016 0.6155735 0.6743643 13879499 male
1.330702 0.55497 -1.360019 0.5423874 -0.1095274 0.8329585 13281185 male
1.309729 0.4111868 -1.586617 -0.4876163 0.02934982 -0.8725646 8552586 male
1.322377 0.1582374 -1.195492 -0.6959586 0.6996997 -0.1614371 9213604 male
1.149036 0.3383056 -1.225801 0.217898 -0.9211801 -0.3224092 10192772 male
1.61445 0.1801009 -1.381844 0.4313531 -0.1022443 -0.8963708 855309 male
1.232504 0.4149897 -1.531628 -0.5572537 0.2834926 -0.7804488 11380410 male
1.202966 0.3694906 -1.511487 -0.8730344 0.03205569 -0.4866039 15656951 male
1.505533 0.2620076 -1.627026 0.4211106 0.72374 -0.5466866 11898769 male
1.281001 0.6796519 -1.457914 0.5107534 0.4728742 -0.7179978 6184030 male
1.287433 0.03255782 -1.380958 -0.6114161 -0.6953867 -0.3776343 6316911 male
1.216336 0.6471584 -1.341637 -0.3466272 0.00910076 0.9379588 14207184 male
1.564422 0.2028599 -1.367442 -0.07208648 0.757817 -0.6484727 5989232 male
1.409801 0.3554291 -1.547979 0.6858417 0.2621009 0.678914 15778496 male
1.322788 0.3776739 -1.537575 0.4828542 -0.8619598 0.1545221 526600 male
1.289026 0.03710238 -1.392481 -0.6149722 -0.6665879 -0.4212716 10130850 male
1.356891 0.3061836 -1.48321 0.8884368 -0.04414605 -0.4568711 526344 male
1.287033 0.01373308 -1.328034 -0.4787208 -0.8413485 -0.2509166 8685972 male
1.811472 0.2288769 -1.223151 -0.2403974 0.8895453 0.3884821 526600 male
1.301041 0.1192397 -1.213535 -0.59497 0.8024877 0.04499114 6449015 male
1.358148 0.1688592 -1.389243 0.7823195 0.5741679 -0.2414691 9473181 male
1.095936 0.2571249 -1.107087 0.5874096 0.07366574 -0.8059301 14333628 male
1.190223 0.5744163 -1.390511 -0.6575235 -0.6087136 0.443994 11971502 male
1.438351 0.1949409 -1.03681 -0.08237542 -0.7544644 0.651151 723723 male
1.801923 0.2186073 -0.9849265 -0.5168337 0.3649442 0.7744021 526600 male
1.25533 0.433801 -1.538168 -0.4082214 0.4568844 -0.790324 11708858 male
1.477955 0.01620822 -1.383374 0.4665869 -0.5597371 -0.6848292 6580085 male
1.326362 0.07516178 -1.134918 -0.516638 -0.3795937 0.7674593 3420989 male
1.842996 0.1575315 -1.202965 -0.7922484 0.5288066 0.3044764 526600 male
1.752855 0.3270007 -1.37741 0.8845196 0.4663106 -0.01340207 526600 male
1.398874 -0.005594906 -1.379536 0.09167622 -0.7929451 -0.6023567 3554631 male
1.411159 0.02172491 -1.202827 0.7423544 -0.5990427 0.3000964 4738131 male
1.886012 0.1371101 -1.182999 -0.1356621 -0.4586031 0.8782249 526600 male
1.37699 0.4415195 -1.515186 0.7610407 0.5601957 0.3271053 9603735 male
1.75354 0.2194752 -0.9437339 -0.08598454 0.9354201 -0.3429226 526600 male
1.787014 0.2486387 -1.290208 0.9683568 -0.0154707 -0.2490895 526600 male
1.859146 0.1679304 -1.227187 0.4747006 -0.6607935 -0.5813874 526600 male
1.141802 0.2957034 -1.145108 0.7649125 -0.5615103 -0.3156183 7824741 male
1.242316 0.3175823 -1.040351 0.6718516 -0.5699475 0.4730489 13738147 male
1.173545 0.4704457 -1.316948 -0.185156 0.9791795 0.08321492 8551300 male
1.258853 0.7195328 -1.399107 0.1637437 0.9846307 0.06074898 526600 male
1.297501 0.4641256 -1.382728 0.8163391 -0.04710583 0.5756487 10984622 male
1.396824 0.0179604 -1.40248 0.1871402 -0.6195028 -0.7623613 7896201 male
1.754398 0.2863679 -1.386302 0.7350197 -0.3186574 -0.5985009 526600 male
1.220889 0.09349609 -1.243856 -0.7562965 -0.2005203 0.6227417 6511979 male
1.144533 0.3956296 -1.180956 -0.151428 0.8795733 0.4510216 16233132 male
1.25965 0.7088373 -1.366693 0.08303708 0.8353075 0.543476 2960173 male
1.563273 0.2941063 -0.9600682 0.5658774 0.2312124 0.7914062 526600 male
1.190293 0.1307379 -1.37518 -0.6913101 -0.6704658 -0.2693808 10985647 male
1.085468 0.2812907 -1.046468 -0.4414459 0.624652 0.6441547 15386050 male
1.14464 0.4613795 -1.26562 -0.510507 0.7579752 0.4060248 7169909 male
1.545374 0.3087367 -0.9535009 0.5910973 0.3074087 0.7457238 526600 male
1.585223 0.2203695 -1.294563 -0.3262621 0.5915163 0.7373341 3684672 male
1.420376 0.2852285 -0.9733422 -0.5115782 -0.6881623 0.5145099 526600 male
1.473113 0.3733922 -0.9916861 0.5542833 0.7367229 -0.3873104 526344 male
1.30822 0.6905569 -1.384582 0.7329809 0.6495353 0.2020962 14401736 male
1.202719 0.09715391 -1.333467 -0.7890445 -0.5900389 -0.1710638 6117988 male
1.235302 0.4800489 -1.475717 -0.732543 0.5841922 -0.3494284 8814478 male
1.120345 0.4203702 -1.25518 -0.8798084 0.4336149 0.1947184 6381158 male
1.618259 0.2657582 -1.317603 -0.2333675 0.718815 0.6548622 592652 male
1.572542 0.317869 -1.48242 -0.5097629 0.6448357 -0.5694987 15504793 male
1.342058 0.08596599 -1.457214 0.0007809401 -0.2189551 -0.9757346 4342090 male
1.835559 0.2221186 -1.213031 -0.2074166 0.9269133 0.3127462 526600 male
1.38861 0.0985879 -1.098802 -0.1765707 -0.537487 0.8245789 5394778 male
1.734642 0.2998015 -1.411792 0.6017365 -0.3643736 -0.7107354 526600 male
1.249933 0.6584914 -1.33534 -0.05018541 0.1852719 0.981405 11051944 male
1.427022 0.2690231 -0.9947604 -0.392579 -0.8606447 0.3243031 526600 male
1.530441 0.1085656 -1.256442 0.08415982 0.04426926 0.9954684 3751753 male
1.218473 0.4585312 -1.336265 0.4118132 0.8651417 0.2862513 12632016 male
1.681448 0.2722575 -1.387168 -0.6061468 -0.6841548 -0.4056085 526600 male
1.897692 0.1614141 -1.216398 0.369473 -0.4411573 -0.8178447 526600 male
1.162205 0.4528678 -1.244427 0.01266786 0.6448777 0.7641807 9605026 male
1.438399 0.3350009 -0.9484018 -0.325375 -0.2683693 0.9067022 526600 male
1.429894 0.1937416 -1.647838 -0.3098451 -0.8128572 0.4932132 12431021 male
1.371744 0.2845555 -1.440891 0.9803355 0.04023331 -0.193193 10130338 male
1.863277 0.1965774 -1.22757 0.8449205 -0.1372684 -0.5169784 526600 male
1.193762 0.2522391 -1.453739 -0.8593728 -0.3424189 -0.3797731 11183287 male
1.205554 0.6620766 -1.48021 -0.2992013 0.2110182 -0.9305642 5591125 male
1.195999 0.4304624 -1.256845 0.8230171 0.04189277 0.5664696 11446198 male
1.23028 0.6871123 -1.472851 0.01693434 0.5697848 -0.8216195 4276805 male
1.327479 0.6067123 -1.435091 0.8808643 0.167129 -0.4428838 15381936 male
1.43615 0.1716929 -1.048912 -0.07668498 -0.688545 0.7211277 3487556 male
1.450378 0.2889719 -0.9660199 -0.5082976 -0.7829415 0.358659 526600 male
1.16917 0.2238923 -1.311703 -0.8086165 -0.3027656 0.5044526 7763070 male
1.25442 0.05034408 -1.356751 -0.6655668 -0.6354351 -0.3914629 10525873 male
1.403012 0.04084088 -1.160182 0.3812604 -0.7172444 0.5832675 5395034 male
1.421027 0.02742723 -1.404363 0.2739069 -0.5147312 -0.8124203 6120042 male
1.1621 0.6691917 -1.400139 -0.9361659 0.2834076 0.2080226 526344 male
1.344515 0.5812514 -1.395738 0.8952873 0.3696539 -0.2486295 11374220 male
1.481133 0.1513793 -1.381571 -0.3159075 0.6288891 -0.7104231 9474976 male
1.390218 0.1509483 -1.325514 0.4684765 0.7579768 -0.4538733 4737617 male
1.915854 0.1680067 -1.135 0.04303384 -0.4398557 0.8970369 526600 male
1.459457 0.1965496 -1.686494 0.6118541 -0.4185243 -0.6711721 14660782 male
-2.490937 0.3403731 -1.39375 0.8135585 -0.443561 -0.3760008 5393994 male
-2.554564 0.05538936 -1.364055 -0.6099296 -0.009215315 -0.7924023 3092272 male
-2.648162 -0.2109123 -1.341048 0.9058018 -0.2216517 -0.3611006 1907997 male
-2.479731 0.006871105 -1.290393 0.8902726 -0.2303683 0.3928685 1908259 male
-2.48735 0.3485295 -1.39936 0.8394002 -0.4661377 -0.2795054 4538429 male
-2.74184 -0.1699482 -1.342199 -0.9920925 0.01518155 -0.1245881 1973537 male
-2.513196 0.5530473 -1.591285 0.254931 0.09201383 -0.9625715 4078645 male
-2.51234 0.4086965 -1.545199 0.2490078 -0.7290264 -0.6375858 8024169 male
-2.603856 0.5807016 -1.770973 -0.3453932 -0.5188261 -0.7819995 13745842 male
-2.638163 0.1143101 -1.35485 0.673075 0.02255374 -0.7392304 2829358 male
-2.506918 -0.3366555 -1.363736 0.3100966 0.1584739 -0.9374042 2170660 male
-2.627538 0.6347739 -1.781717 -0.8692653 -0.08378605 -0.4871938 13482420 male
-2.70417 0.4002008 -1.33971 -0.9241509 0.334107 0.1852508 7038307 male
-2.569523 0.3041857 -1.426262 0.05492161 -0.6336458 -0.7716714 7892841 male
-2.540606 0.3281361 -1.225946 0.1579378 0.5805333 0.798772 9142397 male
-2.55181 -0.1287515 -1.30926 -0.9630804 0.1003112 0.2498283 2039071 male
-2.731635 0.08369903 -1.258151 -0.7510526 -0.211313 0.6255136 3617847 male
-2.447014 0.5463085 -1.562515 -0.6925627 -0.411963 0.5921519 2499616 male
-2.533586 -0.4450115 -1.489491 -0.06150298 -0.9947106 -0.08226894 2171431 male
-2.454277 0.4965715 -1.571666 0.2687771 -0.9173866 -0.2935314 6511962 male
-2.581772 0.5218962 -1.658028 0.213146 -0.946027 -0.2441346 16770782 male
-2.471823 0.1249653 -1.356083 0.7427334 0.07030625 -0.6658864 4079174 male
-2.685884 -0.4301062 -1.425888 0.8721598 -0.4880773 -0.03343749 1907741 male
-2.696792 0.1920952 -1.668741 0.975422 0.04468177 -0.2157681 16773608 male
-2.693463 -0.3165394 -1.357768 0.5201005 0.1079162 -0.8472602 2631472 male
-2.597588 0.6048909 -1.530386 -0.007456616 0.9790448 0.2035087 6972513 male
-2.547805 0.5898278 -1.46416 -0.2088699 0.8479849 0.4871293 9340029 male
-2.447369 0.4766571 -1.458451 0.9677247 -0.2455441 0.05672139 3157808 male
-2.630347 -0.04129951 -1.319161 0.9791959 -0.09609842 0.17872 1973534 male
-2.389755 0.5134444 -1.556772 0.9616984 -0.1518023 0.2282381 9341830 male
-2.532599 0.2219748 -1.191467 0.3049042 -0.05880131 0.9505663 3289402 male
-2.649219 0.4988983 -1.595663 0.07128716 -0.2115463 -0.9747649 7036250 male
-2.476165 -0.1843661 -1.354012 0.7542967 -0.003882903 -0.6565226 2434861 male
-2.446889 0.5068523 -1.598003 -0.5271742 -0.139714 -0.8381932 9209467 male
-2.55668 0.5101112 -1.724508 0.6319963 -0.7405668 -0.2283453 12628650 male
-2.766123 0.5323344 -1.567649 -0.8063426 0.01199706 0.5913273 8682875 male
-2.457915 0.1285855 -1.270232 0.9376954 -0.1181138 0.326767 2170913 male
-2.482378 -0.01215262 -1.293223 0.9020851 -0.1788716 0.3927438 1908261 male
-2.685313 -0.02581542 -1.39019 -0.158764 0.05868457 -0.9855711 3752258 male
-2.620808 0.6023002 -1.512627 0.07363581 0.9544291 0.2892108 16245693 male
-2.601479 0.5584339 -1.428276 0.05135034 0.7697434 0.6362848 7892591 male
-2.733993 0.2209202 -1.669941 -0.6153976 0.1416471 -0.7753851 14534328 male
-2.614579 0.6392279 -1.655637 -0.7436038 0.1555528 0.6502746 4209207 male
-2.672943 0.261198 -1.198586 -0.3344145 0.1902001 0.9230335 11116701 male
-2.497414 0.6534952 -1.753466 0.9799103 -0.04700017 -0.1938225 5919050 male
-2.676702 -0.09945228 -1.390105 0.5127474 -0.5091085 -0.6913023 3290168 male
-2.68375 0.4565753 -1.624436 0.9485456 0.003478131 -0.3166223 6709597 male
-2.75334 0.1456298 -1.317896 -0.9677817 0.03821731 -0.2488743 2171685 male
-2.645261 0.282993 -1.200512 -0.0536997 0.3309486 0.9421197 10129547 male
-2.708407 0.4400726 -1.49691 -0.8704681 -0.3730538 -0.3211175 3289137 male
-2.5408 0.2848316 -1.202278 0.2280979 0.3362118 0.9137469 9339773 male
-2.642364 -0.1776658 -1.330966 0.990984 -0.03307409 -0.129835 1974566 male
-2.455946 0.2219554 -1.281874 0.9893279 0.07878911 0.1225678 2303014 male
-2.635373 0.2960838 -1.411101 -0.4337329 -0.6351057 -0.6391531 5788494 male
-2.429566 0.3335545 -1.477407 -0.7867674 0.1777268 0.5911096 15454411 male
-2.504118 0.6864986 -1.760702 0.8701573 0.3233039 -0.3718885 3354670 male
-2.504217 -0.00221556 -1.2631 0.5284722 -0.2516099 0.8108082 2499878 male
-2.540191 0.6035379 -1.588696 0.3878729 0.8635308 -0.3222877 6972511 male
-2.702371 0.5940881 -1.551731 -0.4696269 0.867529 -0.1638416 4934211 male
-2.703563 0.1921001 -1.202683 -0.5478535 -0.233356 0.8033692 3156784 male
-2.456462 0.2087022 -1.274634 0.979973 0.06195782 0.1892474 2699056 male
-2.691366 -0.3967641 -1.361283 0.9771987 0.1958939 -0.08190614 2697265 male
-2.695593 -0.1399037 -1.28637 -0.05483824 0.2377356 0.9697808 2829363 male
-2.709462 0.3552134 -1.346255 -0.9972018 -0.05444852 -0.05122745 2697513 male
-2.565729 0.1476796 -1.211159 -0.3930918 -0.4329502 0.8111925 5724511 male
-2.768222 -0.4277362 -1.370287 -0.9370719 0.0163015 0.348756 2632495 male
-2.688158 0.5041854 -1.616688 0.8931552 -0.1885243 -0.4083291 7498857 male
-2.495164 -0.4537235 -1.396589 -0.1422922 -0.9862882 -0.08359712 526600 male
-2.666753 -0.2523478 -1.350946 0.7078478 -0.2151542 -0.6728004 2565415 male
-2.725816 -0.3864484 -1.299703 -0.7509006 0.2941256 0.5913025 3225400 male
-2.416885 0.3692404 -1.505585 -0.7776178 0.5716084 -0.2618676 16769496 male
-2.544829 0.2481002 -1.581671 -0.4040574 0.8086933 0.427496 14664898 male
-2.464704 0.4855197 -1.580212 0.1554062 -0.6728162 -0.7233031 6117716 male
-2.595634 0.6775219 -1.806479 -0.4417529 0.3799304 -0.8127161 5525067 male
-2.653899 0.4003876 -1.533721 -0.3030001 -0.8196295 -0.4862084 6643802 male
-2.702552 0.3508066 -1.383917 -0.8872243 -0.236254 -0.3962543 3486255 male
-2.660258 -0.1049215 -1.309447 0.7519036 0.2295397 0.6180232 2369067 male
-2.475719 0.2777666 -1.34636 0.6920924 0.03524711 -0.720948 5722959 male
-2.411381 0.44356 -1.585748 0.5939257 -0.1417832 -0.7919282 16770516 male
-2.515431 0.6826265 -1.782662 0.7444012 0.3187627 -0.5867347 4011060 male
-2.483447 -0.2894108 -1.337145 0.9521914 -0.2031846 -0.2281402 1974564 male
-2.489314 0.4702185 -1.374975 0.6216988 0.3380964 0.7065278 6382173 male
-2.411271 0.2800137 -1.539504 0.7204509 -0.4898758 -0.4908895 16507872 male
-2.399426 0.5582712 -1.600583 0.7328107 0.5160657 -0.4434693 12366252 male
-2.487269 -0.2612896 -1.353939 0.6919937 -0.1627467 -0.7033197 2499625 male
-2.623661 0.1161066 -1.339021 0.8015002 -0.0392236 -0.596707 2828331 male
-2.510864 -0.1060518 -1.279088 0.09193519 0.2486465 0.9642215 3091503 male
-2.479975 -0.006275778 -1.345274 0.8628421 -0.294079 -0.4111221 3289915 male
-2.559686 0.6382996 -1.820214 0.1075319 -0.07706011 -0.9912109 9932935 male
-2.508779 0.2491353 -1.207735 0.6236799 0.1482861 0.7674861 8748921 male
-2.620843 0.6098006 -1.568926 0.08859377 0.9931352 -0.07637922 4999236 male
-2.40752 0.5243887 -1.613402 0.4108254 -0.3818344 -0.8279042 11575697 male
-2.640326 0.07087649 -1.358392 0.7536215 -0.02485704 -0.6568389 2434857 male
-2.726666 0.08468124 -1.67643 -0.9918026 0.1048264 -0.07307017 13017756 male
-2.727446 0.329032 -1.328466 -0.86288 0.4580289 -0.2136535 2697511 male
-2.64129 -0.003812033 -1.36454 0.8365365 -0.05683798 -0.5449555 3026996 male
-2.476882 -0.006896849 -1.314782 0.9659764 -0.23741 0.1025984 2368807 male
-2.734078 -0.175213 -1.305563 -0.8499313 0.003439872 0.5268826 2236706 male
-2.500446 0.6454048 -1.764184 0.947231 -0.1092052 -0.3013769 4077361 male
-2.475779 -0.09794684 -1.326761 0.995791 0.07245512 -0.0561316 2697257 male
-2.649333 -0.005979246 -1.276586 0.5442312 -0.2001908 0.8147001 2369324 male
-2.403342 0.5620646 -1.555707 0.7916412 0.5984194 0.123283 6381145 male
-2.645176 -0.1404955 -1.326784 0.9932922 0.1104603 0.03419548 2105635 male
-2.743992 -0.3981178 -1.33533 -0.957579 0.1681789 0.2340055 2368292 male
-2.404527 0.5639833 -1.58442 0.7028588 0.6705062 -0.2375101 10920347 male
-2.545561 -0.2410856 -1.345138 -0.7073184 -0.06117232 -0.7042436 1711394 male
-2.716854 0.2153492 -1.67891 -0.04315841 0.2958748 -0.9542514 14599093 male
-2.566931 0.4172967 -1.547199 -0.3121772 -0.7125112 -0.6283895 8287856 male
-2.65712 0.03209711 -1.375869 0.498643 -0.01943116 -0.8665898 3553598 male
-2.662195 0.385934 -1.284379 -0.3287002 0.4808788 0.812842 6840666 male
-2.608392 0.7315534 -1.729687 -0.5681572 0.8222649 -0.03283286 3814706 male
-2.454556 0.5390041 -1.583119 -0.9418068 -0.2504408 -0.2242314 7431782 male
-2.61352 0.7129588 -1.762103 -0.6347309 0.6401982 -0.432739 4669241 male
-2.634539 0.6061435 -1.751288 -0.9466622 -0.1391992 -0.2906108 14929083 male
-2.532885 -0.004826262 -1.256442 -0.113484 -0.255512 0.9601226 2960949 male
-2.470172 -0.1301522 -1.330253 0.9822152 0.1133192 -0.1497077 2565672 male
-2.471031 0.4025505 -1.389731 0.9549018 -0.1037261 0.2782155 3683377 male
-2.589709 0.5289761 -1.398375 -0.04172462 0.6318939 0.7739311 10261132 male
-2.455182 0.08183005 -1.311038 0.9918819 -0.1250737 0.02295899 2236450 male
-2.660861 0.1519565 -1.203641 0.1555049 -0.4856459 0.860213 4276553 male
-2.554803 0.7087791 -1.663399 0.1542923 0.6345152 0.7573536 6313295 male
-2.618622 0.5444357 -1.722367 -0.8455779 -0.5248127 -0.09782642 15390921 male
-2.700651 0.178086 -1.364603 -0.2575526 0.2770878 -0.9256832 3487806 male
-2.614877 0.19248 -1.360522 -0.1868117 -0.640444 -0.7449383 2829619 male
-2.702169 -0.4220393 -1.2969 0.8508642 -0.3800637 0.3627419 3290679 male
