# .PCD v0.7 - Point Cloud Data file format
VERSION 0.7
FIELDS x y z normal_x normal_y normal_z rgb label
SIZE 4 4 4 4 4 4 4 4
TYPE F F F F F F U U
COUNT 1 1 1 1 1 1 1 1
WIDTH 247
HEIGHT 1
VIEWPOINT 0 0 0 1 0 0 0
POINTS 247
DATA ascii
1.404277 0.8190141 -0.7222079 -0.6175104 -0.2711279 0.7383566 5393746 male
1.462355 0.5993804 -0.7202002 0.9421512 0.3351545 -0.004747361 4672079 male
1.681991 0.3970776 -0.8443871 0.7899806 -0.1857191 0.5843279 526600 male
1.329064 0.579603 -0.8258692 -0.525981 -0.7593063 -0.3831421 7566979 male
1.400499 0.8129812 -0.7300932 -0.5512343 -0.3870046 0.7391671 4079175 male
1.718181 0.5867514 -0.7756141 0.4330165 -0.3180896 0.8433954 527368 male
1.397909 0.6986762 -1.021996 0.03132296 0.1256313 -0.9915823 7830924 male
1.580646 0.7769464 -0.6497419 0.01072358 -0.8342776 0.5512403 14405244 male
1.849692 0.7665771 -0.6150282 0.6009173 -0.0001935722 -0.799311 12100006 male
1.56421 0.5885083 -0.8157734 -0.3363724 -0.06531727 0.9394612 4737872 male
1.448018 0.3248141 -0.7147231 0.9496218 0.06897123 -0.3057147 526600 male
1.880406 0.7363935 -0.5735797 0.8225337 -0.3943746 -0.4097644 15446707 male
1.512435 0.8460806 -0.9267035 0.5739819 0.1097651 -0.8114779 6381417 male
1.457699 0.7553025 -0.8086003 0.02185272 -0.9721642 0.2332795 12433102 male
1.320783 0.8476628 -0.868489 -0.5339733 0.7695029 -0.3503397 12038593 male
1.484702 0.5426107 -0.6426569 -0.2292272 0.115704 -0.9664717 526600 male
1.578189 0.6016418 -0.930776 0.5930471 -0.01663674 -0.804996 5001303 male
1.59183 0.9325342 -0.5435731 0.03697622 0.5985442 0.8002359 6775918 male
1.425085 0.2489945 -0.7326646 -0.1178647 -0.9907121 -0.06780503 526600 male
1.587383 0.8428544 -0.5711093 0.083923 -0.8031723 0.5898059 14538206 male
1.695614 0.754628 -0.623084 -0.6299123 -0.6802176 0.3748528 13939117 male
1.416328 0.6746975 -0.7635431 0.8279655 0.5199201 0.2101338 6448758 male
1.707757 0.292556 -0.8196758 0.01634282 0.8453482 -0.5339656 526600 male
1.704992 0.4425197 -0.7528398 -0.9101363 -0.1669953 -0.3791629 13808566 male
1.642049 0.4215962 -0.8804742 -0.4544379 0.1744778 -0.8735237 526600 male
1.715974 0.8720534 -0.7243391 0.5870888 0.807677 0.05463162 13880541 male
1.663987 0.9143847 -0.7197535 0.6511403 0.6543905 -0.3844338 15526134 male
1.499192 0.8381431 -0.647967 -0.6828538 0.06445701 0.727706 6513515 male
1.687412 0.5099543 -0.7704484 -0.2055468 -0.3186235 0.9253267 526600 male
1.352169 0.8719776 -0.7715225 -0.08667862 0.411087 -0.9074658 8680053 male
1.303467 0.7941513 -0.9158606 -0.6450171 0.4828462 -0.5922944 7239045 male
1.669237 0.76728 -0.6471041 -0.4839946 -0.8649969 0.1323998 12037308 male
1.444203 0.4677422 -0.5819834 -0.7386539 -0.07773705 0.6695874 526600 male
1.520725 0.9340102 -0.566817 -0.3275452 -0.09980171 0.9395498 15512240 male
1.720715 0.7062327 -0.6032792 -0.916522 -0.3887501 0.09413096 10718082 male
1.742414 0.7159787 -0.8101583 0.7517561 -0.03562599 -0.6584782 9604760 male
1.310836 0.6831007 -0.7483326 -0.5490609 0.2515986 0.7970133 4474698 male
1.442595 0.9918033 -0.6441175 0.173867 0.3143989 -0.9332329 7562080 male
1.638768 0.5860494 -0.8941133 0.3481657 0.06147579 -0.9354151 4936020 male
1.718126 0.8695842 -0.7541072 0.6183151 0.7791265 -0.1031909 11973575 male
1.640754 0.9041135 -0.7922068 0.2583219 0.9378122 -0.2319011 12367817 male
1.756632 0.3805782 -0.7632592 0.372014 -0.2379868 -0.8972 13217200 male
1.885616 0.7774662 -0.5838464 0.8491893 -0.02894097 -0.5272949 5723223 male
1.343151 0.7834921 -0.9637297 -0.6772829 0.4542112 -0.5787746 15200247 male
1.79041 0.7661294 -0.4846983 -0.4938393 -0.2331631 0.8377097 14207184 male
1.616442 0.6217351 -0.8765462 0.8373162 0.522972 -0.1593794 987410 male
1.750869 0.6422651 -0.762179 0.9838015 -0.1598136 0.0812057 8091519 male
1.678976 0.7268275 -0.8299581 -0.4327279 -0.7156177 -0.5483046 526600 male
1.394604 0.7826348 -0.9992403 -0.1131942 0.390713 -0.9135264 8422804 male
1.612293 0.7678108 -0.8641849 0.2985858 -0.6997259 -0.6490225 4999500 male
1.297458 0.813385 -0.8885136 -0.6926497 0.5935411 -0.4098111 6909825 male
1.645361 0.3756573 -0.8523026 -0.2854432 0.1296939 0.9495797 526600 male
1.274639 0.7221232 -0.793584 -0.7365389 0.1734222 0.6537852 2894900 male
1.493029 0.7641703 -0.9548543 0.9542457 0.07392443 -0.2897417 2631464 male
1.408726 1.003039 -0.6084238 0.6863481 -0.7170015 0.1217988 15054261 male
1.749243 0.8319725 -0.5438013 -0.8282415 0.4641143 0.3140284 11708329 male
1.394181 0.5457988 -0.6923306 -0.8997476 -0.3691075 0.2328385 723723 male
1.681691 0.8626249 -0.6073355 0.4069348 -0.02143107 0.9132058 6972522 male
1.761456 0.8014358 -0.7628686 0.9907445 0.09861635 -0.09327495 11249847 male
1.408944 0.6126233 -1.003579 0.09758157 -0.6480281 -0.7553393 6975871 male
1.27457 0.7073845 -0.7908787 -0.7289333 0.1539091 0.6670594 3289915 male
1.615175 0.3550232 -0.8860496 -0.6839666 -0.09071704 0.723851 526600 male
1.705309 0.5308842 -0.7646475 0.05501243 -0.2786826 0.9588065 526600 male
1.512741 0.7827949 -0.8979692 0.4580778 -0.7141333 -0.5293188 9933727 male
1.315208 0.610366 -0.8862708 -0.1511349 -0.8170272 -0.5564393 6185835 male
1.637914 0.3333631 -0.9530221 0.2101993 0.2306345 -0.9500653 526600 male
1.725096 0.6592804 -0.7250724 0.2017027 -0.4334811 0.8782996 13419992 male
1.411953 0.2644378 -0.7650439 0.1700779 -0.9812511 -0.09066316 526600 male
1.710224 0.4376457 -0.8550317 0.7984685 -0.3129692 -0.5142941 526600 male
1.62202 0.3574728 -0.9318092 0.09485024 0.3983231 -0.9123279 526600 male
1.418885 0.9883658 -0.6087598 0.435568 -0.8963649 0.08252613 14790582 male
1.353391 0.917598 -0.7115343 0.5092899 0.3629864 -0.7802978 11900825 male
1.607256 0.9199058 -0.5615053 0.4399872 0.5924354 0.6748567 8552586 male
1.888462 0.7875803 -0.502336 0.8502388 0.007289967 0.5263467 526600 male
1.584846 0.7239429 -0.7915798 -0.03917177 -0.9822323 -0.1835351 11905725 male
1.440558 0.7843141 -0.9971085 0.232002 0.2489684 -0.9403138 6643042 male
1.759276 0.5155089 -0.8137 0.9300774 -0.3660771 -0.03071582 526600 male
1.329874 0.7612928 -0.7743949 0.1026969 0.2269035 0.9684876 3357243 male
1.59189 0.9665541 -0.602799 0.2269823 0.8509925 -0.4735934 9078674 male
1.867431 0.7271988 -0.5069359 0.5641115 -0.5499111 0.615935 789516 male
1.439238 0.4021497 -0.6068192 -0.56162 -0.2960711 0.7726091 526600 male
1.394178 0.9084679 -0.8217183 -0.5624098 0.7814207 -0.2703277 11379894 male
1.400617 1.022812 -0.6160988 -0.368662 0.8227672 0.4325995 16501184 male
1.55876 0.9518531 -0.5569179 -0.2644804 0.4923059 0.8292677 7039098 male
1.43175 0.4245385 -0.6062309 -0.7884403 -0.1394993 0.5990841 526600 male
1.558123 0.5840321 -0.8185475 -0.3774269 -0.1086168 0.9196473 3684672 male
1.41924 0.5452811 -0.6640289 -0.9615493 -0.2236749 0.1593506 592138 male
1.537682 0.5237645 -0.6213858 0.7797112 -0.2966031 -0.5514317 789260 male
1.874755 0.7326331 -0.5803751 0.769256 -0.4252112 -0.4769074 15845835 male
1.332747 0.8659958 -0.8369207 -0.5078326 0.8548971 -0.1060984 11775164 male
1.72522 0.8570706 -0.6945565 0.6868268 0.6942652 0.2150923 13618399 male
1.526753 0.8971743 -0.5991353 -0.1495785 -0.9751799 0.1632499 15054521 male
1.61113 0.5856628 -0.7947063 -0.2297649 -0.101118 0.9679788 592652 male
1.753414 0.1932286 -0.7014754 0.2875832 0.3242827 0.9011862 10518659 male
1.452493 0.7773548 -0.9967797 0.3440875 0.1908365 -0.9193395 7566715 male
1.659296 0.3743142 -0.8502216 0.1385703 0.08122553 0.987016 526600 male
1.368947 0.5803958 -0.6965575 -0.6900305 -0.1254789 0.7128204 4211528 male
1.717047 0.5191449 -0.7717393 0.2967141 -0.3951682 0.8693691 526600 male
1.822427 0.7302566 -0.4903914 -0.08107662 -0.5287399 0.8449028 9801614 male
1.408728 0.5509341 -0.6586115 -0.8883045 -0.08765755 0.4508117 5197391 male
1.461986 0.5640729 -0.8922946 -0.4456928 -0.8081352 0.3850654 6316392 male
1.6365 0.8869034 -0.5799388 0.5976325 0.05429691 0.7999296 6052453 male
1.745395 0.5145805 -0.8437736 0.747807 -0.1638569 -0.6433783 526600 male
1.665746 0.3597835 -0.8670681 0.6445221 0.4510011 0.6174052 526600 male
1.567427 0.8928331 -0.5566326 -0.5687168 -0.7096373 0.4159039 14341611 male
1.514856 0.5011262 -0.5552614 0.1941007 -0.4252554 0.8840151 526600 male
1.77053 0.3740404 -0.7179092 0.867676 0.1001806 0.4869314 16307925 male
1.600882 0.7644677 -0.8634076 0.3509116 -0.7009795 -0.6208774 7563117 male
1.696139 0.4305262 -0.8234173 0.5338253 -0.4389812 0.7227214 526600 male
1.437497 0.8970889 -0.8786436 -0.4121285 0.8220022 -0.3930171 12433095 male
1.82874 0.8586167 -0.5844096 0.2304045 0.827527 -0.5119694 4078653 male
1.590166 0.9406174 -0.5445589 -0.09281603 0.6369247 0.7653184 6972530 male
1.854499 0.8493717 -0.5795812 0.4585628 0.7347642 -0.4998417 10328216 male
1.836302 0.7211868 -0.6071511 0.282335 -0.5339002 -0.7970179 10849421 male
1.376579 0.5498776 -0.7079968 -0.869295 -0.3961003 0.2956871 3487556 male
1.462767 0.5372828 -0.6132405 -0.6948687 0.6431138 -0.3218108 526600 male
1.448591 0.8912075 -0.6978328 -0.6772985 0.4886501 0.5499889 5263704 male
1.58605 0.923028 -0.7775425 0.2335312 0.8276011 -0.5104307 12234691 male
1.31959 0.5966074 -0.749361 -0.8225017 -0.3363458 0.4586528 3817802 male
1.420677 0.641013 -1.019213 0.2412847 -0.3460457 -0.9066609 6514806 male
1.825874 0.8306212 -0.4788984 -0.04699773 0.4833905 0.8741423 526344 male
1.798831 0.7315949 -0.6410474 0.3514185 -0.3299456 -0.8761511 14989234 male
1.508629 0.6975393 -0.9092219 0.4910758 0.847033 0.2034197 9474976 male
1.416846 0.7074276 -0.8936571 0.7503383 0.4475624 0.4864982 7239302 male
-2.42221 0.3297869 -1.27001 0.8003895 -0.322951 -0.5050542 6774878 male
-2.426142 -0.08445312 -1.303499 -0.9208029 -0.3265895 -0.213217 2105120 male
-2.624182 -0.003917011 -1.320176 -0.06153443 -0.1208563 -0.9907611 3553342 male
-2.375249 0.08785805 -1.184636 0.8159757 -0.1586153 0.5559002 2565671 male
-2.409875 0.3826144 -1.274348 0.8287446 -0.2586518 -0.4962679 6510930 male
-2.678222 -0.07723944 -1.255531 -0.4702253 0.6389256 0.6088205 2631467 male
-2.626426 0.3681216 -1.237772 -0.9989397 -0.0460426 0.0001458526 4340793 male
-2.462623 0.4731753 -1.34552 0.3735074 -0.02231408 -0.9273589 16772021 male
-2.46095 0.8120154 -1.447586 -0.1414746 0.1736726 -0.9745886 11508886 male
-2.563019 0.06942814 -1.29291 0.7769514 -0.2295482 -0.5862205 3026222 male
-2.346819 -0.2296322 -1.237219 0.738392 -0.08469524 0.6690323 1908256 male
-2.529277 0.8224781 -1.419375 -0.7994288 -0.157868 -0.5796479 5394762 male
-2.630612 0.4576794 -1.265016 -0.977391 -0.2082439 0.03662813 8551287 male
-2.471244 0.3251282 -1.311888 0.2776491 -0.3387629 -0.8989722 7894384 male
-2.443928 0.2067608 -1.103746 0.4569171 -0.01799462 0.8893274 4343888 male
-2.437652 -0.02609084 -1.22143 -0.5693288 -0.3616363 0.7382982 3158840 male
-2.674186 0.04732936 -1.281967 -0.9603046 -0.0172363 -0.2784212 2039588 male
-2.341218 0.6333138 -1.280195 0.2551831 -0.3768145 -0.8904453 4538429 male
-2.398664 -0.4040115 -1.248644 -0.9246103 -0.0818533 -0.3720164 2500910 male
-2.358782 0.5930894 -1.294583 0.7859224 -0.3311339 -0.5221844 5525836 male
-2.444181 0.6776801 -1.380571 0.5677371 -0.4687257 -0.6767357 16773351 male
-2.40336 0.1668563 -1.271926 0.4329675 0.3550041 -0.8285599 4014408 male
-2.715735 -0.414479 -1.290704 0.9936076 0.08939447 -0.0689407 2039839 male
-2.582368 0.4747932 -1.618979 0.9672955 -0.2352891 0.09475511 14469832 male
-2.677737 -0.2291019 -1.277171 0.5643898 -0.5103614 -0.6488417 2500910 male
-2.595094 0.669696 -1.286011 -0.6131067 0.680186 0.4018052 12039085 male
-2.480743 0.6379442 -1.186983 -0.3021102 0.4901615 0.817601 9275776 male
-2.393675 0.5392583 -1.182878 0.6402811 -0.1740523 0.7481619 4143671 male
-2.612226 0.04806541 -1.32231 0.08837152 -0.1560018 -0.9837958 4475215 male
-2.285491 0.3076845 -1.401706 0.7518609 -0.6516554 -0.1002525 16701389 male
-2.468559 0.2135022 -1.0939 0.2178333 -0.0839846 0.9723659 3355703 male
-2.497566 0.6473588 -1.367798 0.1271251 0.3195616 -0.9389994 6511705 male
-2.330328 -0.2111333 -1.282529 0.9758347 -0.1633319 -0.1451547 2302499 male
-2.322958 0.5462992 -1.270928 0.4371152 0.1971259 -0.8775375 16771807 male
-2.407394 0.7375736 -1.401328 0.829879 -0.5461718 0.1140059 12760745 male
-2.629589 0.6378265 -1.449221 -0.2922046 0.6618268 -0.6903636 5723727 male
-2.376741 0.1873335 -1.23118 0.8968683 0.3018985 -0.323241 3947583 male
-2.367876 -0.01775776 -1.238182 0.8786383 -0.02821154 0.4766541 1908771 male
-2.683742 -0.05890677 -1.280279 -0.9147022 0.3945603 0.08741951 1908768 male
-2.565588 0.6783648 -1.274297 -0.3931855 0.7241963 0.5665202 8288886 male
-2.580769 0.5959177 -1.22239 -0.349864 0.3098659 0.8840693 7037283 male
-2.633383 0.4932972 -1.656976 -0.5940618 -0.1019289 -0.7979357 16311516 male
-2.517412 0.8841502 -1.426109 -0.6296359 0.4637214 -0.623315 3222825 male
-2.552676 0.2880092 -1.117893 -0.254459 0.3124341 0.9152244 9273980 male
-2.407593 0.8633304 -1.359956 0.9420535 0.219365 0.2538 5919050 male
-2.621273 -0.03110481 -1.324946 0.06029701 -0.05945732 -0.9964083 3818051 male
-2.624881 0.606418 -1.493006 -0.3024971 0.8731827 -0.3821617 6381657 male
-2.607862 0.5580109 -1.430143 0.6014494 -0.7474917 0.2819837 3025705 male
-2.619774 0.2757636 -1.138925 -0.6053559 0.2594418 0.7524855 8747636 male
-2.571239 0.5502803 -1.395522 -0.3671847 -0.43202 -0.823732 5459531 male
-2.509329 0.3151476 -1.116986 -0.2354191 0.4610563 0.8555731 9471874 male
-2.61892 0.02903318 -1.320582 0.004036486 -0.185808 -0.9825779 4212040 male
-2.404162 0.2698008 -1.143899 0.7988455 0.04171714 0.6000881 4868162 male
-2.553023 0.3212907 -1.31139 -0.3105189 -0.3174507 -0.8959929 7695976 male
-2.354415 0.4236301 -1.204313 -0.8798079 0.009735064 -0.4752301 15783119 male
-2.4234 0.8931625 -1.353115 0.7652025 0.5951836 0.2454017 3354670 male
-2.403694 0.01043635 -1.190158 0.4204572 -0.2906519 0.8594984 2434086 male
-2.342275 -0.4252385 -1.336657 -0.000520464 0.9870682 -0.1603002 2697001 male
-2.608702 0.6650349 -1.303151 -0.6625531 0.6928062 0.2846806 4934211 male
-2.662201 0.1940762 -1.2069 -0.9730338 0.1120995 0.2015918 2960433 male
-2.387017 0.2383013 -1.165879 0.9107037 0.1240201 0.3940028 4868676 male
-2.737211 -0.3668048 -1.240996 0.9652976 0.2087413 -0.1569331 3025971 male
-2.72117 -0.1406754 -1.27464 -0.9442779 0.2972984 -0.1412563 1908769 male
-2.629777 0.347753 -1.213011 -0.7890491 0.5943748 0.1553071 4405562 male
-2.511873 0.114385 -1.153721 -0.7319734 -0.4789844 0.4845504 1908773 male
-2.819196 -0.3842165 -1.242086 -0.9526521 0.2845015 0.1072986 2632495 male
-2.662431 0.6183361 -1.383935 -0.9812602 0.07854481 0.1759529 8813435 male
-2.373233 -0.3675989 -1.28441 -0.4649612 0.373178 -0.8028384 2171171 male
-2.689592 -0.227545 -1.288664 0.3386087 -0.5011947 -0.7963343 2566703 male
-2.763038 -0.3261439 -1.17898 -0.7727144 0.470907 0.4256281 3420980 male
-2.334021 0.4474236 -1.209547 -0.4067023 0.4961243 -0.7671076 16774890 male
-2.283814 0.339606 -1.322605 -0.2948385 0.7840348 -0.5462232 16773349 male
-2.34724 0.6308863 -1.298247 0.4547154 0.1099567 -0.8838233 8419440 male
-2.485801 0.9145427 -1.410174 -0.1936459 0.8865151 -0.4202288 4932930 male
-2.487735 0.6310921 -1.370761 0.3520713 0.2257608 -0.9083381 8353134 male
-2.632126 0.3456261 -1.230911 -0.8294638 0.5549964 -0.06300029 3814706 male
-2.724924 -0.1962388 -1.287235 -0.8267621 -0.06534599 -0.5587438 1973793 male
-2.398374 0.333372 -1.179378 0.8848175 0.4340841 0.1693198 3880499 male
-2.340925 0.564312 -1.199177 0.2148013 -0.1215167 0.9690689 5392457 male
-2.477733 0.74297 -1.302995 -0.1307042 0.1846446 0.9740754 13415595 male
-2.350542 -0.279069 -1.282493 0.7217391 -0.2149181 -0.6579537 3156784 male
-2.459139 0.2988353 -1.105952 0.2462097 0.2726465 0.9300779 6117461 male
-2.27797 0.3934653 -1.214457 0.9634188 -0.008986743 0.2678498 16773095 male
-2.324899 0.6459965 -1.20934 0.7238881 0.2072987 0.6580377 11247770 male
-2.364344 -0.2216097 -1.305177 -0.007409662 -0.2601194 -0.9655481 2500135 male
-2.558125 0.04235014 -1.263958 0.9021754 -0.371592 -0.2190873 2632236 male
-2.386827 -0.1218531 -1.233851 -0.2313026 0.3187178 0.9191945 3158580 male
-2.422587 -0.05326879 -1.318041 -0.5488271 -0.248145 -0.7982563 2301987 male
-2.475266 0.8887076 -1.446574 -0.1675187 0.5811058 -0.7964005 12168099 male
-2.41237 0.3073767 -1.134415 0.7134827 0.1664065 0.6806258 4999492 male
-2.549927 0.6936259 -1.289629 -0.2502108 0.8426305 0.4768317 8484468 male
-2.346903 0.6145085 -1.1948 0.2598294 -0.06360772 0.9635575 9144450 male
-2.603219 -0.100407 -1.274434 0.8277649 -0.4738254 0.3004911 2039843 male
-2.55683 0.7030901 -1.712412 -0.6290808 0.1473479 -0.7632471 13940910 male
-2.595536 0.3441795 -1.297801 -0.6221926 -0.2506564 -0.7416523 4472892 male
-2.657331 -0.2229282 -1.255728 0.8154643 -0.5374525 -0.2148557 2368550 male
-2.343419 -0.07659531 -1.306253 0.9953754 0.06154051 -0.07376128 2369322 male
-2.723693 -0.1467898 -1.262628 -0.9541109 0.29621 0.04395771 1973534 male
-2.406904 0.8561305 -1.421838 0.9212921 0.2647011 -0.2848762 6904657 male
-2.350938 -0.1200862 -1.242047 0.579791 0.3039548 0.7559458 2105893 male
-2.561956 0.05857436 -1.195517 0.666572 -0.3947843 0.6323191 2302243 male
-2.375213 0.6506332 -1.205136 0.3925407 0.5882115 0.7070495 9932426 male
-2.728303 -0.1784252 -1.242237 -0.9273745 0.2277244 0.2968472 2171941 male
-2.771108 -0.3281467 -1.223658 -0.9092479 0.2224976 -0.3518003 2697257 male
-2.326606 0.634993 -1.204876 0.6874641 0.1689668 0.7062886 9801863 male
-2.412002 -0.2320408 -1.267022 -0.9734136 -0.2160449 -0.07609761 1907229 male
-2.599344 0.5607725 -1.67816 -0.2457819 -0.04139366 -0.9684411 16768990 male
-2.474425 0.5689164 -1.369592 0.5401145 -0.04251193 -0.8405173 10655880 male
-2.614079 -0.01078813 -1.319129 0.1498115 -0.1290519 -0.9802563 3949386 male
-2.540956 0.4509475 -1.175987 -0.1912031 0.1294998 0.9729705 7432807 male
-2.541786 0.8382754 -1.315499 -0.803218 -0.02760714 0.5950454 4932154 male
-2.331618 0.6598917 -1.236151 0.562944 0.7815841 0.2687385 6644573 male
-2.552523 0.8676302 -1.357802 -0.9762037 0.209647 0.05545014 6511192 male
-2.462741 0.8227726 -1.455245 0.05208212 -0.7458696 -0.6640528 12298402 male
-2.452052 -0.04431221 -1.268691 -0.9503351 -0.2593282 0.1720821 2303275 male
-2.327248 -0.163199 -1.276437 0.9987575 -0.007136022 0.04932314 2369066 male
-2.397876 0.3646697 -1.242989 0.9461121 -0.1448511 -0.2896384 4802114 male
-2.517604 0.5604312 -1.183201 -0.5187079 0.1646677 0.8389441 8090221 male
-2.364102 -0.008451369 -1.246345 0.963242 -0.07741598 0.257239 2236714 male
-2.663085 0.1499924 -1.201929 -0.9106507 -0.04803549 0.4103756 3684161 male
-2.503595 0.8481661 -1.289316 -0.300023 0.1045486 0.9481857 6313295 male
-2.491677 0.7739396 -1.449139 -0.444885 -0.2257784 -0.8666613 16770264 male
-2.552752 0.1357733 -1.297051 0.6576897 -0.08803856 -0.7481269 2829875 male
