# .PCD v0.7 - Point Cloud Data file format
VERSION 0.7
FIELDS x y z normal_x normal_y normal_z rgb label
SIZE 4 4 4 4 4 4 4 4
TYPE F F F F F F U U
COUNT 1 1 1 1 1 1 1 1
WIDTH 247
HEIGHT 1
VIEWPOINT 0 0 0 1 0 0 0
POINTS 247
DATA ascii
1.454677 0.7606958 -0.7753143 -0.2709531 -0.7391813 0.6165999 7499130 male
1.481865 0.5454801 -0.7392746 0.9653713 -0.02196321 -0.2599533 3355187 male
1.649383 0.3580871 -0.9252381 -0.4956808 0.1263327 0.8592675 526600 male
1.352425 0.5439897 -0.7614644 -0.8746438 -0.2482994 0.416348 5659751 male
1.440075 0.7527859 -0.7958555 -0.2380953 -0.7673123 0.5954346 7367800 male
1.763535 0.5073592 -0.8716002 0.3879421 -0.3347675 0.8587384 526600 male
1.390001 0.7063649 -1.070787 -0.078201 0.1571309 -0.9844767 12369613 male
1.618609 0.8181438 -0.7140471 0.5327051 -0.7134713 0.4551746 12630483 male
1.821269 0.8625898 -0.603327 0.7610086 -0.3232271 -0.5624856 14988975 male
1.616977 0.5336584 -0.8865463 -0.4042769 -0.1780959 0.8971299 4868426 male
1.411442 0.3201131 -0.667335 -0.1282462 0.01217116 0.9916676 526600 male
1.843682 0.9234781 -0.6004623 0.990177 0.1180516 -0.07492158 16171968 male
1.506891 0.8758202 -0.9789008 -0.04390654 0.4396147 -0.8971127 6841969 male
1.432105 0.6803334 -0.8866303 0.4866685 0.1794111 0.8549651 6120309 male
1.352903 0.851517 -0.9006901 -0.8288945 0.5105764 -0.2285733 9406615 male
1.481321 0.51775 -0.6819964 -0.06399745 -0.4765846 -0.8767961 526344 male
1.522158 0.5297536 -1.026332 0.1165704 -0.5627359 -0.8183762 6514295 male
1.549887 0.8159483 -0.6206158 0.4366845 -0.8675054 0.2382036 10985392 male
1.412561 0.2600529 -0.7238738 0.4723116 -0.8276135 -0.3032782 526600 male
1.586276 0.8694568 -0.635996 0.7618578 0.05563309 0.6453507 9669524 male
1.716235 0.8229544 -0.6674023 -0.4569771 -0.868475 0.1921536 13283757 male
1.363006 0.6431323 -0.7711843 -0.3397173 0.5828705 0.7381424 4276553 male
1.656407 0.2383975 -0.8091792 -0.3921885 -0.5449893 0.7410632 526600 male
1.677203 0.6510761 -1.057734 -0.8532279 -0.5208721 0.02635354 1052688 male
1.75708 0.4336171 -0.9102053 0.8185917 -0.5516688 0.1599035 526600 male
1.652165 0.9704578 -0.7787519 0.06784323 0.9669505 0.2457722 12434894 male
1.5079 0.945233 -0.8064201 -0.2904319 0.9154975 -0.2784128 15918842 male
1.499401 0.7549404 -0.7660326 -0.05222228 -0.8525159 0.520086 8419976 male
1.611125 0.5636021 -0.8919072 -0.07128251 0.1459903 0.9867146 4738647 male
1.470106 0.8580912 -0.6573307 -0.7425346 0.5553028 -0.3745411 8355212 male
1.31483 0.7413242 -0.9893541 -0.766769 0.3610627 -0.5307533 7304319 male
1.692343 0.8460126 -0.7962538 0.7272615 -0.5460654 0.4158165 12037823 male
1.461941 0.4340314 -0.5741382 -0.1014457 -0.4099279 0.9064589 526600 male
1.498576 0.7641018 -0.6405033 0.7687654 -0.6369171 -0.05776182 13606048 male
1.736019 0.8023745 -0.6210139 -0.5121064 -0.8063796 0.2958021 10915204 male
1.763345 0.8780487 -0.8869976 0.8755717 0.1768129 -0.4495679 7762039 male
1.351933 0.6817449 -0.8177913 -0.1807965 0.692322 0.6985721 7303289 male
1.512277 0.8556605 -0.6726599 -0.4180651 -0.7931572 -0.4428581 526600 male
1.625396 0.5768749 -0.9777687 0.7746612 0.3349425 -0.5363892 592137 male
1.656597 0.9760919 -0.8136064 0.1595507 0.9850935 -0.06429978 12104902 male
1.587555 0.9629925 -0.80242 -0.2719775 0.9412516 0.2001838 13749217 male
1.635908 0.7486787 -1.03112 -0.9342659 -0.2932475 0.2028629 1051664 male
1.82809 0.959586 -0.6235316 0.8405829 0.4567486 -0.2912062 3486773 male
1.370938 0.7331906 -1.059803 -0.3654371 0.3072267 -0.8786737 5725801 male
1.712602 0.926983 -0.554967 -0.6283816 -0.09329691 0.7722902 12431281 male
1.713533 0.5553072 -0.9531476 0.6016777 0.1385147 -0.7866369 789515 male
1.744622 0.8379079 -0.9156185 0.9714717 0.003480526 -0.2371301 16043211 male
1.544474 0.6079586 -1.032713 0.5526022 0.3042727 -0.7759182 7303552 male
1.362824 0.7464714 -1.050068 -0.5189972 0.4288606 -0.7394055 11450055 male
1.62839 0.8220862 -0.9113633 0.6584767 -0.4077811 -0.6325527 6644588 male
1.318451 0.7693889 -0.9716583 -0.6947108 0.5318823 -0.4842294 6316145 male
1.660435 0.5695802 -0.8887728 0.2785393 0.3591994 0.8907254 1052688 male
1.291232 0.5908924 -0.8582867 -0.8802892 -0.3805301 0.2833508 9277597 male
1.497324 0.7348506 -0.8935774 0.3914505 -0.9075069 0.1523082 12498636 male
1.375516 0.7130195 -0.6564535 0.8712693 -0.2483736 -0.4233205 14532035 male
1.732182 0.9639036 -0.5456848 -0.3758771 0.3286154 0.8664458 526600 male
1.50841 0.5212407 -0.6522152 0.3619361 -0.2702524 -0.8921692 526600 male
1.643056 0.9347121 -0.69383 0.1529952 0.8621868 0.4829351 15254461 male
1.718725 0.9117881 -0.7850114 0.9248601 -0.2997086 0.2341121 11380149 male
1.413479 0.5484318 -1.042719 -0.07355714 -0.8413341 -0.5354871 5395554 male
1.301666 0.7108922 -0.8547313 -0.7689062 0.1683543 0.6167982 4343379 male
1.627522 0.3109744 -0.9498329 -0.5580878 0.06168601 0.8274859 526600 male
1.740729 0.5555629 -0.9442701 -0.205468 0.3931223 -0.8962353 526600 male
1.3478 0.6443382 -1.055428 -0.6329897 -0.1792274 -0.7531277 9408927 male
1.327718 0.5753602 -0.9559562 0.1602824 -0.8816113 -0.4439269 591113 male
1.639586 0.2730892 -1.016452 -0.04556903 -0.7567468 -0.6521178 526600 male
1.694008 0.8512235 -0.8650458 -0.2172716 -0.7590619 -0.6136922 526600 male
1.404165 0.2805104 -0.7483072 0.7883501 0.0717911 -0.6110239 526600 male
1.711521 0.3691142 -0.9375909 0.7279475 -0.4186856 -0.54295 526600 male
1.619529 0.3345265 -0.9787565 -0.2366976 0.2514547 -0.93848 526600 male
1.422596 0.7401578 -0.6668797 0.2430361 -0.270811 -0.9314477 13420762 male
1.330289 0.533881 -0.625684 -0.1457366 0.0963541 -0.9846201 9076613 male
1.534256 0.9162679 -0.6456109 -0.1699833 0.648997 0.7415582 11512507 male
1.817555 0.9711784 -0.5769972 0.7091549 0.6131885 0.3479931 526600 male
1.635404 0.780003 -0.840642 0.4602722 -0.8831719 0.09031609 13349291 male
1.358583 0.64262 -1.064264 -0.4825407 -0.1250128 -0.8669062 8751774 male
1.714273 0.554544 -0.9144349 -0.799743 0.5449323 -0.2519124 526600 male
1.352417 0.7218176 -0.8384727 0.2161255 0.3526223 0.9104654 3357243 male
1.450585 0.8099737 -0.6141633 -0.5620943 0.4245683 0.7097829 14132126 male
1.671889 0.9312902 -0.7115758 -0.2097841 0.960346 0.1836468 15712447 male
1.45857 0.3762274 -0.6282117 0.7931215 -0.4830285 0.3710011 526600 male
1.385934 0.8807669 -0.8723738 -0.7591506 0.650912 -0.001977652 10657199 male
1.321819 0.6867878 -0.6112431 -0.6505935 0.191077 0.7349951 13345436 male
1.51149 0.8734503 -0.6064862 -0.3895974 0.4206347 0.8193169 7695995 male
1.453061 0.3713949 -0.6244268 0.6453493 -0.4984128 0.578886 526600 male
1.577347 0.5376235 -0.8988293 -0.3677553 -0.1650572 0.9151569 4671310 male
1.474922 0.5279004 -0.5637919 -0.5252306 0.1331309 0.8404813 526600 male
1.468139 0.55888 -0.6630086 0.1708836 0.58804 0.7905743 8883350 male
1.828391 0.916012 -0.6451135 0.8027595 0.07544133 -0.5915113 10455433 male
1.334268 0.8318947 -0.8872568 -0.8784964 0.4770625 -0.02560076 7762302 male
1.686809 0.9491238 -0.7502504 0.1693841 0.8820042 0.4397471 8814478 male
1.472189 0.8323739 -0.609924 -0.4966257 0.3125445 0.8097399 11376021 male
1.551303 0.6234738 -0.9356871 0.3379581 0.690105 0.6399526 7963025 male
1.756174 0.5414172 -1.0617 0.9339755 0.3529724 -0.05568072 16492717 male
1.541446 0.7402507 -0.8952615 0.4868904 -0.8724901 -0.0412154 16185078 male
1.656506 0.5656988 -0.8852072 0.1420885 0.2178732 0.9655786 329733 male
1.352841 0.6089944 -0.7553023 -0.6197909 0.2766923 0.7343708 3884364 male
1.790102 0.4937011 -0.9133213 0.9289811 -0.3429506 -0.1392082 526600 male
1.776563 0.9117892 -0.5347865 0.01253289 -0.1186078 0.9928621 9801614 male
1.444998 0.5150949 -0.5775787 -0.7836798 0.2642758 0.5621426 526600 male
1.536663 0.512045 -0.9436319 -0.5094614 -0.7792851 0.3649163 527119 male
1.607275 0.9036183 -0.6577047 0.4875623 -0.2229578 0.8441402 9998751 male
1.757056 0.4534622 -0.941351 0.6399772 -0.3467361 -0.6857138 526600 male
1.659235 0.3323672 -0.9747547 0.3221554 -0.03475427 -0.9460486 526600 male
1.495508 0.885322 -0.6268396 -0.6409752 0.6438397 0.4178771 8683660 male
1.514633 0.4689417 -0.6196259 0.939296 -0.3430905 -0.003463656 526344 male
1.682806 0.6607952 -1.039119 -0.4964509 -0.3657104 0.7872689 10654617 male
1.602462 0.7887686 -0.7673084 0.5467818 -0.8332731 0.08176565 15657635 male
1.704167 0.4016034 -0.896425 0.2121507 -0.2988814 0.9304096 526600 male
1.439218 0.8888611 -0.920353 -0.6218165 0.7821634 -0.03955641 9868711 male
1.72049 0.9772317 -0.6667608 -0.3732769 0.6313393 -0.6797611 4342082 male
1.544608 0.8212586 -0.6051391 0.3719001 -0.6769965 0.635111 13354970 male
1.769867 0.9892695 -0.6591948 0.2279962 0.6901239 -0.6868382 4472900 male
1.823259 0.8537297 -0.5965998 0.5740353 0.1984124 -0.7944281 14793653 male
1.452661 0.5135148 -0.7173465 -0.1626399 -0.6762882 -0.7184584 2566703 male
1.434147 0.4787058 -0.5829025 -0.7936175 0.03772119 0.6072465 526600 male
1.426955 0.7952691 -0.762457 -0.6025036 -0.332476 0.7255681 657930 male
1.446825 0.8999879 -0.8798502 -0.2763014 0.8597081 -0.4296038 10130594 male
1.326021 0.5979177 -0.7856231 -0.8123282 0.003171303 0.583192 4080975 male
1.408458 0.5784559 -1.069487 0.07181674 -0.5319518 -0.8437237 8686228 male
1.709806 0.9877971 -0.5813328 -0.6444844 0.6473386 0.4069308 526344 male
1.788196 0.8717045 -0.6867449 0.5505383 -0.01050804 -0.8347437 14072244 male
-2.549658 0.3682723 -1.328279 0.9712456 -0.07893804 -0.2246135 6905952 male
-2.592471 -0.1042229 -1.335507 -0.9059698 -0.2086377 -0.3683604 2039328 male
-2.638284 0.03456498 -1.414877 0.9966465 -0.03624977 0.07336289 2895152 male
-2.539734 0.08811567 -1.253345 0.4920266 -0.1764233 0.8525169 2565671 male
-2.55536 0.3279829 -1.335989 0.913875 0.11163 -0.3903479 7038307 male
-2.717182 -0.1022987 -1.384281 -0.2881656 0.357528 0.8883325 2566703 male
-2.571009 0.6288447 -1.353495 0.5844326 0.3545389 -0.7298909 16247218 male
-2.522334 0.5986036 -1.323717 0.7870693 0.2254117 -0.5742053 7959408 male
-2.594029 0.8332348 -1.41043 0.1460215 -0.1344056 -0.9801088 14075065 male
-2.65455 0.1311585 -1.460835 0.7352641 0.0500894 -0.6759276 4014924 male
-2.528668 -0.3220878 -1.295417 0.9641207 -0.1870914 0.1883306 2105894 male
-2.597823 0.9151542 -1.403052 -0.1536237 0.5227728 -0.8385157 6709083 male
-2.762836 0.4072239 -1.363777 -0.9677929 0.1467986 -0.2045171 6972256 male
-2.57637 0.3825877 -1.391364 0.6415519 -0.003307732 -0.7670727 7038051 male
-2.634453 0.2319667 -1.206466 0.02376214 -0.0600689 0.9979115 8748921 male
-2.599857 -0.08195043 -1.317018 -0.9712585 -0.1333178 0.1971889 2565927 male
-2.764611 0.08047309 -1.393922 -0.968443 -0.2074383 0.1381583 2235938 male
-2.512158 0.6600307 -1.26964 -0.4659021 -0.09943568 -0.8792316 7170147 male
-2.519141 -0.4483145 -1.379824 -0.5062919 -0.6605949 -0.5543313 2237218 male
-2.538833 0.5615369 -1.228318 0.9370929 -0.3280022 0.1194645 3223339 male
-2.594527 0.7097294 -1.355516 0.6371856 -0.4382405 -0.6339874 16773351 male
-2.604531 0.1504958 -1.378814 -0.1905374 -0.1686363 -0.9670871 3092272 male
-2.613495 -0.4309109 -1.510686 0.7939169 0.5894161 0.1492811 3026990 male
-2.586506 0.700829 -1.680399 0.274016 -0.9173355 -0.2888098 7234910 male
-2.691632 -0.2726154 -1.422213 0.9674504 -0.1834689 -0.1742958 2499878 male
-2.7469 0.631826 -1.275558 -0.5327382 0.2299062 0.8144529 8091251 male
-2.659986 0.6473567 -1.214316 -0.6106842 0.3200113 0.7243327 9078146 male
-2.541081 0.4996417 -1.34077 0.8962017 -0.04174995 -0.4416783 8419443 male
-2.673867 0.07943128 -1.47673 0.4229486 -0.05829174 -0.904277 3948104 male
-2.45426 0.6216532 -1.239599 0.4950125 -0.5718425 0.6541857 8092019 male
-2.710816 0.3068466 -1.250966 -0.5915405 0.2889043 0.752738 11247517 male
-2.647501 0.665493 -1.390667 0.5437582 0.4856019 -0.6844839 8025201 male
-2.511474 -0.1850823 -1.322104 0.8577946 -0.05879978 -0.5106186 3026998 male
-2.475355 0.6653447 -1.305592 -0.4608357 0.5623476 -0.6865827 8287602 male
-2.576887 0.7399813 -1.376119 -0.001372548 -0.9971923 0.0748703 12170409 male
-2.779872 0.6955345 -1.435163 -0.9718332 0.1210297 -0.2022187 9537410 male
-2.535475 0.1333485 -1.247973 0.5995671 -0.09950944 0.7941144 2105892 male
-2.573888 -0.02707079 -1.271266 -0.009401321 -0.1325255 0.9911352 3092272 male
-2.674911 -0.08021562 -1.480938 0.137083 -0.2996396 -0.9441529 3881020 male
-2.764858 0.6147183 -1.28596 -0.6818106 0.1102562 0.7231723 10130059 male
-2.730782 0.4234594 -1.414893 -0.5641069 0.003440284 -0.8256947 2828842 male
-2.572917 0.7641437 -1.677638 0.4333931 0.7716892 0.4654742 16373444 male
-2.679565 0.8456458 -1.320388 -0.9883214 -0.151443 -0.01691741 5195844 male
-2.785799 0.2456959 -1.328602 -0.9872093 -0.02764134 0.1570162 8155499 male
-2.534314 0.88537 -1.305015 0.9091799 0.08745587 0.4071162 5919050 male
-2.662085 -0.1162046 -1.446715 0.896323 -0.3704056 -0.2437318 1974566 male
-2.737638 0.7155867 -1.494661 -0.8025013 0.2437303 -0.5445983 9471874 male
-2.753499 0.1363628 -1.458929 -0.7031835 0.001013506 -0.7110078 1842979 male
-2.743938 0.2113334 -1.2745 -0.5035855 -0.2966252 0.811428 3420212 male
-2.719907 0.636393 -1.43178 -0.07504955 -0.5382362 -0.839446 6510931 male
-2.69471 0.3444455 -1.253788 -0.5585126 0.3387896 0.7571563 7826791 male
-2.640222 -0.02893228 -1.418483 0.9754041 -0.1929945 0.1064906 2500651 male
-2.515935 0.2407514 -1.293317 0.9685503 0.2474992 -0.02558577 2302758 male
-2.635083 0.3176671 -1.421376 0.3055757 0.01143744 -0.9520992 6972001 male
-2.37832 0.5539421 -1.35721 -0.3861051 -0.8923528 -0.2337295 10588044 male
-2.562818 0.9259519 -1.283208 0.6299807 0.544081 0.5541663 4340793 male
-2.60095 -0.08550472 -1.327242 -0.9810583 -0.1921708 -0.02439857 2630956 male
-2.598583 0.7249202 -1.267506 0.711932 0.5148752 0.4775526 4275000 male
-2.649555 0.7052431 -1.365085 -0.07028887 0.05215379 -0.9961625 5064261 male
-2.782313 0.1891729 -1.335517 -0.913844 -0.3002684 0.2733647 2237481 male
-2.541314 0.213616 -1.242961 0.6655029 0.06319274 0.7437155 2699056 male
-2.697133 -0.4116462 -1.440146 0.8535042 -0.1544567 0.4976685 1644825 male
-2.750494 -0.2149736 -1.43994 -0.8654257 -0.1403693 -0.480973 1908256 male
-2.553703 0.6274736 -1.339641 0.6115142 0.4383531 -0.6587088 10919836 male
-2.66297 0.1345115 -1.274055 -0.8478168 -0.3918578 0.3572879 2105893 male
-2.746698 -0.4327083 -1.447163 0.05903228 -0.9920366 0.1112593 395270 male
-2.69001 0.7289473 -1.431776 0.7732888 0.6297085 -0.07410663 6841440 male
-2.533303 -0.442248 -1.336257 -0.39005 -0.8565418 -0.337931 1973790 male
-2.69973 -0.296227 -1.433362 0.8791295 -0.05320922 -0.4736035 2500141 male
-2.784672 -0.4074099 -1.389985 -0.9782108 0.2075471 0.005287945 2764082 male
-2.3933 0.5658726 -1.3565 -0.6623006 -0.6357828 -0.3964068 14862273 male
-2.277859 0.618766 -1.502316 -0.3236904 0.9431245 0.07576752 16310481 male
-2.52985 0.6152686 -1.188869 0.2545029 -0.2560671 0.9325546 8289398 male
-2.583396 0.9472938 -1.364668 0.1801371 0.9142694 -0.3628529 10786699 male
-2.637277 0.5370872 -1.423383 0.4831691 -0.01916117 -0.8753176 16702639 male
-2.557006 0.6159711 -1.349787 0.586756 0.3857312 -0.7119895 13483153 male
-2.675727 -0.08798455 -1.389198 0.254153 -0.05953734 0.9653299 1908769 male
-2.53627 0.3133684 -1.295114 0.9343455 0.3301889 -0.1340672 5723215 male
-2.421592 0.6542064 -1.269156 0.7844509 0.3494145 0.5123929 11509660 male
-2.646699 0.754545 -1.276981 -0.4692821 0.2307398 0.8523695 16240071 male
-2.532907 -0.2679258 -1.321796 0.5253504 -0.1724221 -0.8332334 2303529 male
-2.653721 0.3030523 -1.210748 -0.3068071 0.2254113 0.9246942 8419187 male
-2.292135 0.5985218 -1.402074 0.7762399 0.4891721 0.3976965 16374992 male
-2.502313 0.6517153 -1.190695 0.2839457 0.044625 0.9578016 5327945 male
-2.527794 -0.2669411 -1.318269 0.7065206 -0.1890979 -0.6819612 2303529 male
-2.664902 0.1385775 -1.471666 0.575837 0.079114 -0.8137279 4737874 male
-2.539782 -0.1387813 -1.259291 0.4373983 0.2374735 0.8673461 2434343 male
-2.511003 0.01625032 -1.306036 0.921972 -0.2599493 0.2870437 3027254 male
-2.587573 0.9002451 -1.411792 -0.03034058 0.3540961 -0.9347169 6510163 male
-2.600396 0.3045223 -1.211052 0.267929 0.06075624 0.9615211 4340793 male
-2.718737 0.7096 -1.295547 -0.4552361 0.6572903 0.6006078 10789274 male
-2.4746 0.7012925 -1.261619 0.3577628 0.7575873 -0.5459556 7169374 male
-2.642762 0.07512844 -1.376094 0.9137378 -0.1964433 0.3556596 2565929 male
-2.456432 0.8074844 -1.766135 -0.1786982 0.9731498 0.1450741 14269101 male
-2.585116 0.4677315 -1.396698 0.632612 0.09302321 -0.7688621 7630181 male
-2.66929 -0.1422326 -1.39714 0.9142756 0.04403476 0.4026926 1776155 male
-2.51114 -0.1454189 -1.317456 0.9608046 0.005336619 -0.2771758 2304300 male
-2.758112 -0.1660996 -1.405668 -0.9709328 0.0413322 0.2357571 2697265 male
-2.542405 0.9203582 -1.317164 0.8168857 0.5375159 0.209224 3749169 male
-2.576399 -0.1401286 -1.257967 -0.3952682 0.2793111 0.8750706 3289145 male
-2.66761 -0.01055521 -1.367401 0.4283013 -0.07987143 0.9000995 2038818 male
-2.515678 0.6334245 -1.300885 0.6886275 0.3635539 -0.6273922 7828335 male
-2.727335 -0.1733703 -1.372616 -0.355416 0.005284909 0.9346935 2171945 male
-2.763584 -0.3682058 -1.416229 -0.9798095 -0.05742038 -0.1915111 2368292 male
-2.483262 0.6645985 -1.196012 0.4580497 0.1323195 0.8790234 10919062 male
-2.579841 -0.222139 -1.331927 -0.3459025 -0.1673762 -0.923221 1710362 male
-2.55939 0.7295452 -1.680967 0.9032257 -0.20338 0.3779158 16771038 male
-2.604232 0.5314564 -1.395182 0.6589386 0.1969461 -0.7259563 16704438 male
-2.666179 -0.1708989 -1.406423 0.995424 -0.04262195 0.08552575 2368294 male
-2.744402 0.3504583 -1.301761 -0.7075739 0.3497958 0.6139888 7564392 male
-2.677216 0.910045 -1.314357 -0.9397451 0.3366134 0.0597564 4471612 male
-2.484078 0.7128263 -1.250221 0.3057803 0.9221421 -0.2369648 5985875 male
-2.668057 0.9167953 -1.345708 -0.8260367 0.4547043 -0.333028 3551278 male
-2.620715 0.8436493 -1.407163 -0.3611819 -0.1010902 -0.9269998 14535356 male
-2.599291 0.01696228 -1.262339 -0.3600259 -0.2150046 0.9078297 2762282 male
-2.52462 -0.1798913 -1.263936 0.7246242 0.008471897 0.6890924 2367780 male
-2.547089 0.3610862 -1.295839 0.9859666 -0.1239158 0.1118705 5197642 male
-2.679232 0.5949971 -1.215185 -0.7310354 0.06403963 0.6793281 9077881 male
-2.52953 -0.01723778 -1.290137 0.766444 -0.1571304 0.6227952 2236714 male
-2.745689 0.1502343 -1.319193 -0.4753626 -0.5136738 0.7142618 4737872 male
-2.605484 0.9232435 -1.258387 0.06764531 0.5286282 0.8461541 4406587 male
-2.613812 0.7744695 -1.398384 -0.4773954 -0.4007286 -0.7819915 15390921 male
-2.711648 0.1737376 -1.475553 -0.1768248 0.1662335 -0.970103 2895406 male
-2.60252 0.2265829 -1.420287 0.2485971 -0.2367761 -0.9392214 1974566 male
-2.760723 -0.4286521 -1.399172 -0.004057795 -0.9936449 0.1124877 1315860 male
