# .PCD v0.7 - Point Cloud Data file format
VERSION 0.7
FIELDS x y z normal_x normal_y normal_z rgb label
SIZE 4 4 4 4 4 4 4 4
TYPE F F F F F F U U
COUNT 1 1 1 1 1 1 1 1
WIDTH 246
HEIGHT 1
VIEWPOINT 0 0 0 1 0 0 0
POINTS 246
DATA ascii
1.459596 0.9953935 -0.7979112 -0.0376344 -0.6494342 0.759486 6513003 male
1.457109 0.6285487 -0.7985634 0.9204701 -0.2750731 -0.2776141 2105380 male
1.571905 0.7130584 -0.9261356 0.6336615 0.176623 0.7531781 9738662 male
1.309363 0.785548 -0.8664062 -0.967811 -0.2276324 0.1073564 9014940 male
1.496649 1.024077 -0.7633612 -0.03126621 -0.6567594 0.7534517 8288903 male
1.618492 0.5658101 -0.9987903 0.1229888 0.2325772 -0.9647702 526600 male
1.403143 0.8633929 -1.073023 -0.3583545 -0.03748442 -0.9328327 10067632 male
1.597653 1.135439 -0.6976207 0.6454418 -0.3381248 0.6848916 12762066 male
1.790754 1.20261 -0.6309586 0.9903756 -0.06164676 -0.1239182 14331305 male
1.477052 0.728166 -0.9305272 -0.3612165 -0.2191197 0.9063714 2697257 male
1.347472 0.5071422 -0.75873 -0.9720345 0.06552478 -0.2255119 526600 male
1.797901 1.292284 -0.6960331 0.6882339 -0.08884268 -0.7200286 11577000 male
1.537686 1.112379 -0.9829467 -0.04099548 0.2250034 -0.9734952 7039347 male
1.505815 0.950483 -0.8735949 0.5990258 -0.6422942 0.4781487 10723764 male
1.371028 1.055887 -0.9004713 -0.8638041 0.3940101 -0.314004 8946064 male
1.362498 0.6626381 -0.8472155 -0.6619425 -0.3917206 -0.6390517 6515059 male
1.526593 0.7551436 -1.050986 0.4166375 -0.1292368 -0.8998394 4078915 male
1.533721 1.148947 -0.6739419 -0.1866311 -0.9824151 -0.005423129 789772 male
1.380026 0.2629556 -0.7394753 0.2212176 -0.9625639 -0.1566318 526600 male
1.576569 1.161287 -0.662213 0.8720719 -0.1805534 0.454853 9143700 male
1.673351 1.186187 -0.6936102 -0.1799812 -0.756106 0.6292141 13939117 male
1.451386 0.8053452 -0.8961582 0.9677036 -0.1783041 -0.1782066 5329756 male
1.662419 0.2658728 -0.9120581 -0.1750317 -0.9451298 0.2758509 526600 male
1.714988 0.9265014 -0.98998 -0.6015206 -0.4186129 0.6803942 16642292 male
1.609595 0.463697 -0.9251043 0.1671853 -0.2543861 0.9525424 526600 male
1.656368 1.26848 -0.847984 0.1900507 0.94315 -0.2726698 11117235 male
1.546035 1.246608 -0.8063481 -0.1444131 0.8817857 -0.4489975 15196143 male
1.461614 1.196626 -0.7198905 -0.9450023 0.3091252 0.106828 9999008 male
1.507388 0.6938938 -0.9227658 -0.3843246 -0.09008328 0.9187925 4014148 male
1.451256 1.155184 -0.6617522 -0.9047362 0.4253349 0.0232929 16306640 male
1.300757 0.8733137 -0.9437076 -0.9514447 -0.1225279 -0.2823821 3883075 male
1.625852 1.197379 -0.6986172 -0.2079364 -0.3257778 0.9222968 16441828 male
1.392988 0.479217 -0.6990258 -0.02577946 -0.1730814 0.9845701 526600 male
1.52202 1.123306 -0.650535 0.8359835 -0.5131129 0.1945421 10984364 male
1.693089 1.198965 -0.6372266 -0.6531497 -0.5497558 0.5207342 12427676 male
1.717387 1.20236 -0.9311409 0.01928928 0.4590903 -0.8881801 8485768 male
1.420048 0.880612 -0.8332176 0.5801187 0.446885 0.6809963 6646395 male
1.374138 0.63056 -0.7540609 -0.9490196 0.1729123 0.2635589 526859 male
1.641478 0.6352001 -0.9423308 0.9693955 0.1080255 -0.2204607 1051920 male
1.639036 1.269689 -0.8220212 -0.02208117 0.9971083 -0.07271429 13815521 male
1.571454 1.244655 -0.8450534 -0.4546154 0.8865778 -0.08546713 14736112 male
1.767671 0.9192718 -1.016853 0.8808694 0.2058466 -0.4262585 12491674 male
1.828333 1.324126 -0.6313825 0.9469912 0.3185759 0.04143846 6644064 male
1.380074 0.9859065 -1.00414 -0.6428945 0.568894 -0.5128802 7039864 male
1.711662 1.314066 -0.58089 -0.5775709 0.03254883 0.8156914 9735055 male
1.653592 0.6092448 -0.9162489 0.8111103 -0.3493539 0.4690971 526600 male
1.749838 1.114987 -0.9059665 0.9280022 -0.111067 0.3556347 15189440 male
1.538253 0.7663052 -1.045376 0.5761176 -0.01550289 -0.8172199 6514035 male
1.401077 0.9649596 -1.045338 -0.4986823 0.4604179 -0.7343917 13422818 male
1.645995 1.099001 -0.9125626 0.7743711 -0.3603238 -0.5201116 526344 male
1.31035 0.9376004 -0.9479621 -0.8912227 0.2765628 -0.3594926 14014949 male
1.54432 0.7046774 -0.9141482 0.04506695 0.08671032 0.9952137 5132635 male
1.306164 0.7941841 -0.8771206 -0.9678068 -0.2485658 0.03956121 9277597 male
1.535851 0.9674813 -0.9761342 0.998314 0.05771939 0.006136119 7959425 male
1.359499 0.9957196 -0.6798008 -0.4344399 -0.2630293 -0.8614392 10983058 male
1.728171 1.349578 -0.5799614 -0.3196793 0.4253027 0.8467129 526600 male
1.413579 0.6252633 -0.8275326 -0.1332148 -0.3568377 -0.9246192 1052689 male
1.57027 1.266981 -0.732263 -0.2171083 0.9569066 0.1928567 13684702 male
1.685372 1.248062 -0.8815274 0.3637776 0.8645646 -0.3466901 10723758 male
1.399742 0.8164083 -1.06516 -0.3994027 -0.5555103 -0.7293051 6843516 male
1.331466 0.9255067 -0.8456821 -0.7933972 0.1715084 0.5840426 4343379 male
1.579883 0.2974273 -0.9654028 -0.6864779 0.01078117 0.7270708 526600 male
1.582566 0.5693644 -0.9862021 -0.656168 0.3293607 -0.6789441 526600 male
1.416255 0.8696405 -1.076539 -0.205431 0.05333122 -0.9772174 9410471 male
1.341457 0.822314 -0.9768643 -0.01562685 -0.7622699 -0.6470708 526344 male
1.596837 0.271552 -0.9999837 -0.01686409 -0.992839 -0.1182635 526600 male
1.761681 1.198085 -0.8746743 0.8448359 0.4701328 0.2553964 8288642 male
1.39165 0.2953437 -0.7478603 0.91704 0.1912666 -0.3499355 526600 male
1.609504 0.3560499 -0.989449 0.6213019 0.01006767 -0.7835065 526600 male
1.555263 0.330692 -1.007374 0.5033185 0.1906287 -0.8428115 526600 male
1.398245 1.008828 -0.6709954 0.8993227 -0.1921254 -0.3928185 16310759 male
1.364598 0.900097 -0.5974042 -0.390956 0.2020861 0.8979502 10189946 male
1.533164 1.222162 -0.6583279 -0.06927815 0.6804976 0.7294679 8222845 male
1.800262 1.362016 -0.6143897 0.6841487 0.6571195 0.3164405 526600 male
1.67275 1.126054 -0.7910932 0.7378015 -0.4560235 0.4976861 15196402 male
1.556734 1.019265 -0.9735231 0.8058953 -0.2827695 -0.5201675 5854041 male
1.602177 0.506584 -1.004966 -0.1201035 -0.029011 -0.9923373 526600 male
1.429332 0.9214476 -0.8405042 0.5353554 0.02257201 0.8443252 4078654 male
1.45907 1.108817 -0.6181269 -0.2267131 0.2327702 0.9457373 15577259 male
1.803355 1.301931 -0.5768104 0.5333818 0.1160352 0.837878 789516 male
1.40112 0.4104513 -0.7293631 0.8559873 -0.2633892 0.4448727 526600 male
1.365621 1.025347 -0.9353996 -0.6160606 0.6837344 -0.3911223 11774907 male
1.382297 0.9608403 -0.605069 0.2988418 0.1168878 0.9471171 16704221 male
1.522842 1.170984 -0.6100731 0.1136689 -0.1815315 0.9767936 8288390 male
1.396341 0.405885 -0.7243069 0.7108357 -0.2476543 0.658316 526600 male
1.519573 0.7687178 -0.9255785 0.1710882 0.1548872 0.9730051 6185843 male
1.354877 0.545715 -0.7335337 -0.9104419 0.2576424 0.3235985 526600 male
1.462143 0.6375139 -0.7687587 0.9742259 -0.2092046 0.08436474 3619136 male
1.82919 1.284719 -0.642062 0.9820369 -0.09507976 -0.1629828 15447735 male
1.298793 0.8959166 -0.9091653 -0.9857275 0.09784021 0.1369982 3882307 male
1.680699 1.264197 -0.7920138 0.3719599 0.9232805 0.09591064 6446949 male
1.488784 1.161638 -0.6185481 -0.2238559 0.1113722 0.9682379 7302007 male
1.52449 0.6480132 -0.9219844 -0.5927667 -0.1448293 0.792245 4868426 male
1.782054 0.7752003 -1.028101 0.3212818 0.1267882 -0.9384576 14394018 male
1.470155 0.9340319 -1.064815 0.2357956 0.1071864 -0.9658734 3619398 male
1.543147 0.6988355 -0.9132496 -0.01180938 0.06189386 0.9980128 4474704 male
1.405914 0.5925218 -0.7061907 -0.4022326 0.160957 0.9012778 526600 male
1.637 0.5207852 -0.998269 0.519582 -0.02765336 -0.853973 526600 male
1.785672 1.283302 -0.5689623 0.255023 -0.0849973 0.9631919 527368 male
1.395679 0.5848213 -0.7070507 -0.4822206 0.2259084 0.8464211 526600 male
1.469052 0.681465 -0.9645909 -0.8301024 -0.477508 0.2879514 5328980 male
1.579971 1.148469 -0.6769949 0.7361506 -0.2943871 0.6094412 11118265 male
1.566157 0.5667762 -0.9554526 -0.9602367 0.2709868 -0.06716791 526600 male
1.599593 0.3237324 -1.006725 0.3547198 0.0146344 -0.9348581 526600 male
1.510398 1.183301 -0.6124775 -0.2357097 0.1652345 0.9576734 7038323 male
1.408211 0.4566539 -0.7788628 0.5897965 -0.3035027 -0.748349 526600 male
1.675344 1.01231 -0.9793211 -0.7756771 -0.2947554 0.5580718 11052973 male
1.611499 1.033607 -0.847281 0.626034 -0.7178034 0.3046961 16250871 male
1.577025 0.6706666 -0.9089016 0.2457214 0.08142446 0.9659145 527368 male
1.461131 1.12836 -0.9190028 -0.7157699 0.6185896 -0.3240683 10920628 male
1.714201 1.36916 -0.6892991 -0.3598693 0.7608536 -0.5399963 16709374 male
1.536999 1.147649 -0.6474809 0.6878422 -0.7084834 0.1578748 11511224 male
1.745764 1.358545 -0.7059377 0.09589544 0.571924 -0.8146821 4341570 male
1.761613 1.194038 -0.6303156 -0.4885888 -0.3559313 0.7966141 11894139 male
1.387969 0.6599547 -0.8613496 -0.2089189 -0.4500786 -0.8682063 4475989 male
1.358591 0.5167395 -0.7181922 -0.7819964 0.07310042 0.6189814 526600 male
1.407192 1.047308 -0.7997497 -0.7590113 -0.05671525 0.6486025 7039347 male
1.481015 1.162747 -0.8877286 -0.6140361 0.6187129 -0.4900551 12696269 male
1.382589 0.6517649 -0.75104 -0.5384993 0.1378259 0.8312777 4606800 male
1.442644 0.8464935 -1.081638 0.01558757 -0.08091126 -0.9965995 6514547 male
1.717941 1.373465 -0.604963 -0.4435873 0.7181897 0.5361286 526344 male
-2.546502 0.405704 -1.325392 0.8452896 -0.4935248 -0.2047414 5197383 male
-2.604548 0.06404877 -1.293802 -0.1304565 0.03973403 -0.9906577 3092272 male
-2.684367 0.01443244 -1.372529 0.7259064 0.1431469 -0.6727326 4343114 male
-2.620075 0.1156898 -1.142011 0.09171721 -0.3205957 0.9427654 2302507 male
-2.58547 0.3242433 -1.273783 0.8816096 -0.4036775 -0.2445591 7300711 male
-2.764225 -0.1326306 -1.389806 -0.8352641 0.1248087 -0.535497 1777185 male
-2.834449 0.2164302 -1.239949 -0.9812299 0.07888778 0.1759685 2170913 male
-2.560956 0.5030019 -1.430166 0.3307351 -0.3210267 -0.8874437 14533276 male
-2.541823 0.6730342 -1.589122 -0.0941647 -0.2056913 -0.9740762 16771805 male
-2.681491 0.05924347 -1.309936 0.9935671 -0.01626287 0.1120731 2566444 male
-2.535908 -0.3068799 -1.278609 0.7248368 0.05013761 -0.687094 2435116 male
-2.534814 0.7437611 -1.612507 -0.3694663 0.06682695 -0.9268382 5195076 male
-2.780173 0.4703359 -1.330619 -0.9855219 0.06232505 0.1576782 5327688 male
-2.630151 0.2905909 -1.321604 0.6304497 -0.3032342 -0.7145505 8418929 male
-2.657973 0.3076886 -1.13138 0.05997539 0.288894 0.9554807 6380376 male
-2.62115 -0.06092973 -1.228288 -0.8307874 -0.2318943 0.5059818 2500398 male
-2.806384 0.06866388 -1.331397 -0.9236041 -0.2556465 -0.2856577 2631722 male
-2.421367 0.6205135 -1.39224 0.4613808 0.846539 -0.2655177 7170658 male
-2.558143 -0.4150609 -1.286703 -0.7879153 0.08663215 -0.6096593 2500910 male
-2.466247 0.6056263 -1.4149 0.01696 0.4974685 -0.8673164 7827566 male
-2.545201 0.6067584 -1.502125 0.4375398 -0.8657639 -0.2429235 15258567 male
-2.659901 0.1390212 -1.277594 -0.4215448 -0.04122456 -0.9058702 2565162 male
-2.608952 -0.4217462 -1.491025 -0.009743786 -0.9992919 -0.03634149 1052688 male
-2.654185 0.5019938 -1.758802 0.3083363 -0.951275 0.002136916 11377817 male
-2.757543 -0.3384726 -1.37158 -0.9812453 -0.1904316 0.02989638 2302499 male
-2.733563 0.6188717 -1.386865 -0.5523931 0.7708641 0.3172231 9801610 male
-2.601724 0.628233 -1.30627 -0.3733368 0.7665985 0.5224428 9275520 male
-2.520372 0.553031 -1.259864 0.399449 -0.04437513 0.9156809 6117205 male
-2.69119 0.06992696 -1.361948 0.8067187 0.1234277 -0.5779021 3686215 male
-2.420499 0.5465546 -1.344571 0.1702542 -0.5400046 0.8242626 5065285 male
-2.731258 0.3179544 -1.165688 -0.4622656 0.476132 0.7480703 10722458 male
-2.564209 0.6674362 -1.394647 0.0240351 0.9849961 0.1708942 8880763 male
-2.525058 -0.1971742 -1.228584 0.9153653 -0.07963642 0.3946703 2302499 male
-2.381731 0.5329812 -1.467221 -0.4884931 0.2125218 -0.8462914 16773356 male
-2.506684 0.6098657 -1.552217 0.6798167 -0.5786648 -0.4505514 13351341 male
-2.74841 0.565187 -1.508574 -0.9349082 -0.3179612 -0.1576319 4343106 male
-2.579902 0.2139281 -1.254556 0.6591079 0.3908478 -0.6425068 3027253 male
-2.47594 0.5451716 -1.303233 0.4770525 -0.7684122 0.426572 1315092 male
-2.722704 -0.03318119 -1.399597 -0.3515404 0.07918771 -0.9328177 3224633 male
-2.73454 0.6229705 -1.399336 -0.5721458 0.77898 0.2565921 9933199 male
-2.719831 0.604638 -1.344935 -0.4274201 0.6324993 0.6459541 9998731 male
-2.678561 0.5568887 -1.810011 -0.8111516 0.4463314 -0.3779174 16642533 male
-2.594556 0.7196527 -1.484455 -0.9553618 0.04867696 0.2914013 4209207 male
-2.740411 0.3263973 -1.176401 -0.4457258 0.5151207 0.7321062 9932173 male
-2.447752 0.7489477 -1.519535 0.9715045 -0.04081713 0.2334808 5919050 male
-2.755724 -0.08412753 -1.38451 -0.8182026 0.1101166 -0.5642864 2170913 male
-2.640598 0.5772091 -1.636648 0.9497353 0.3034275 0.07703903 10262929 male
-2.747365 0.5500503 -1.491287 -0.558019 -0.6831791 -0.4710428 657418 male
-2.767229 0.3235883 -1.191152 -0.4762688 0.5054007 0.7195405 9340799 male
-2.777085 0.4967811 -1.387437 -0.9433076 -0.179874 -0.2789557 8156529 male
-2.723321 0.3427678 -1.178164 -0.4296969 0.5631452 0.7058529 12628911 male
-2.678705 0.02764558 -1.35652 0.9225488 0.1265973 -0.3645231 3487807 male
-2.559594 0.2226363 -1.185236 0.9433405 0.1387703 0.3014162 2434597 male
-2.802264 0.3051417 -1.330557 -0.676709 0.2562906 -0.6902031 3355187 male
-2.309322 0.4767694 -1.481726 -0.6808177 0.3965659 -0.6158109 16706269 male
-2.452378 0.7827947 -1.523412 0.9287244 0.3597597 0.08968997 3354670 male
-2.612416 -0.1204903 -1.25461 -0.9784255 0.01337154 -0.2061675 1973534 male
-2.498436 -0.4207234 -1.400355 0.04836117 0.9929179 0.108514 2565159 male
-2.624009 0.6004218 -1.472719 0.1845551 0.07265256 -0.9801333 7103582 male
-2.839223 0.1971114 -1.268366 -0.9958867 -0.02474788 -0.08716315 2631469 male
-2.584918 0.1949863 -1.147891 0.6678169 0.0274473 0.7438196 2631465 male
-2.729641 -0.4106127 -1.386697 0.858376 -0.02205874 0.5125467 2698029 male
-2.734942 -0.1891888 -1.415042 -0.291759 -0.08712713 -0.9525155 1842205 male
-2.739354 0.3655434 -1.36773 -0.3993658 -0.3553124 -0.8451393 5327170 male
-2.69928 0.1774546 -1.131324 -0.428524 -0.5641506 0.7057632 2565927 male
-2.740724 -0.4336518 -1.44815 0.05218936 -0.9942197 0.09382708 591113 male
-2.69893 0.6352738 -1.567436 -0.07852142 0.9199001 -0.3842112 6643799 male
-2.52847 -0.3753817 -1.305098 -0.2399092 0.5478137 -0.8014636 2171171 male
-2.694443 -0.205521 -1.394737 0.859158 -0.07601258 -0.5060334 2632238 male
-2.773875 -0.4085384 -1.347108 -0.3083889 -0.0674368 0.9488671 5988453 male
-2.328794 0.4870757 -1.473977 -0.4986058 0.3475286 -0.7941135 16375762 male
-2.181412 0.4156679 -1.62667 -0.3608403 -0.9306229 0.06111771 5392711 male
-2.482045 0.6002161 -1.413793 -0.1561482 0.4522603 -0.8781108 7629928 male
-2.515471 0.7842351 -1.604581 -0.07633534 0.5252345 -0.847527 5525067 male
-2.576372 0.5799823 -1.461535 0.3547149 -0.6060997 -0.7119133 4867394 male
-2.82913 0.2728589 -1.267668 -0.9957825 0.06817175 -0.06140071 4341562 male
-2.769134 -0.1937466 -1.379423 -0.9378535 -0.1440572 -0.3157192 1777185 male
-2.644422 0.1947264 -1.291493 0.3224775 -0.4176915 -0.8494365 3223601 male
-2.362119 0.5389748 -1.390628 0.7136176 0.08328947 0.6955668 6708574 male
-2.453172 0.7830081 -1.548466 0.9059655 0.3945493 -0.1534851 4011060 male
-2.527562 -0.2311566 -1.272554 0.8249641 -0.09894612 -0.5564568 2302505 male
-2.689013 0.32539 -1.145369 -0.3384172 0.491674 0.8023282 8616568 male
-2.243999 0.4406492 -1.476063 0.7619006 -0.3373393 0.5529104 15518403 male
-2.426437 0.5782365 -1.327572 0.4363519 -0.003128162 0.8997708 7498858 male
-2.527977 -0.258689 -1.246147 0.9712054 -0.1429857 0.1905662 2499624 male
-2.680316 0.07606939 -1.309207 0.9992033 -0.008509331 0.03899652 2828590 male
-2.543082 -0.1018533 -1.220435 0.769264 0.188336 0.610543 2500654 male
-2.544548 0.00252144 -1.244823 0.9719434 -0.2284505 0.05600619 3289915 male
-2.472145 0.7643432 -1.602508 0.6020755 0.3125381 -0.734728 7168860 male
-2.613638 0.2445329 -1.136081 0.4900611 0.1220651 0.8630993 8221809 male
-2.676709 0.661853 -1.418232 -0.3433998 0.9276077 0.1470399 10592153 male
-2.403938 0.5830963 -1.424174 0.2073687 0.6103985 -0.7644684 5790295 male
-2.673486 -0.05329013 -1.330321 0.9553418 -0.1310841 0.2648381 1972766 male
-2.584173 0.556935 -1.974594 -0.7867448 0.545067 -0.2897152 14728887 male
-2.812764 0.3361287 -1.287564 -0.8444797 0.5018113 -0.1871891 4868418 male
-2.683106 0.02769463 -1.364333 0.8263146 0.1353925 -0.5466931 3948873 male
-2.547946 0.005999332 -1.226742 0.8910826 -0.2437803 0.3828095 2696746 male
-2.774126 -0.1486475 -1.361549 -0.9981706 0.06034292 -0.003817141 2696745 male
-2.447952 0.7294456 -1.553419 0.9795846 -0.1778686 -0.09368539 4999492 male
-2.558588 -0.1145638 -1.204547 0.3693671 0.2463649 0.8960316 2237220 male
-2.691116 0.08586298 -1.262869 0.8750872 -0.1700968 0.4530892 2500394 male
-2.494951 0.6260295 -1.391033 -0.05836497 0.7503502 -0.6584589 5853514 male
-2.767328 -0.2087658 -1.353567 -0.9509839 -0.1989903 0.2367125 2499110 male
-2.76987 -0.3867825 -1.389147 -0.9845188 -0.1308583 -0.1166152 2236452 male
-2.413153 0.5802978 -1.3397 0.5875309 0.1566538 0.7938937 9077890 male
-2.564337 -0.1095666 -1.289407 -0.07068539 -0.2908761 -0.9541462 1973793 male
-2.644139 0.5742655 -1.831649 -0.2761006 0.9485333 -0.1550906 13941423 male
-2.569583 0.5372731 -1.445801 0.4266589 -0.2459367 -0.8703318 11115932 male
-2.673915 -0.00936012 -1.369021 0.9234381 0.06938077 -0.3774238 3158072 male
-2.701877 0.5204085 -1.273798 -0.2383746 0.4137603 0.878624 7695979 male
-2.561867 0.824791 -1.53258 -0.54684 0.8271176 -0.1297793 3814706 male
-2.408678 0.6114766 -1.398048 0.6116762 0.7412581 -0.2763849 7302757 male
-2.589431 0.7856588 -1.534763 -0.9255822 0.3475219 -0.1500879 3945779 male
-2.537425 0.6841685 -1.592817 -0.08966339 -0.4110774 -0.9071803 14667204 male
-2.592084 0.01831359 -1.182519 0.3562785 -0.2782646 0.8919836 2367780 male
-2.537109 -0.1426505 -1.212719 0.7548249 0.1411804 0.6405526 2303016 male
-2.566529 0.3803849 -1.237794 0.9318263 -0.1244896 0.3408849 3946035 male
-2.654515 0.5626794 -1.274032 -0.525586 0.4842193 0.6994936 8090221 male
-2.547896 0.09651312 -1.193278 0.8511599 -0.08303657 0.5182973 2170145 male
-2.822017 0.1331 -1.244091 -0.8247396 -0.4471976 0.3461492 2697265 male
-2.540202 0.7895904 -1.454439 -0.2138965 0.4928855 0.8433934 6313295 male
-2.550115 0.6468042 -1.578449 -0.4345578 -0.3812252 -0.8159823 15849930 male
-2.684013 0.1581937 -1.290238 0.9892214 0.08601259 -0.1185035 2894639 male
-2.719323 0.2375611 -1.325799 0.3076489 0.2469661 -0.9188907 7828594 male
-2.779509 -0.4250376 -1.409897 -0.8801978 -0.4290849 -0.2028251 2697257 male
