# .PCD v0.7 - Point Cloud Data file format
VERSION 0.7
FIELDS x y z normal_x normal_y normal_z rgb label
SIZE 4 4 4 4 4 4 4 4
TYPE F F F F F F U U
COUNT 1 1 1 1 1 1 1 1
WIDTH 246
HEIGHT 1
VIEWPOINT 0 0 0 1 0 0 0
POINTS 246
DATA ascii
1.482715 1.020851 -0.7122852 0.08182532 -0.0917539 0.9924141 7630976 male
1.437919 0.5972803 -0.8251273 0.7110837 -0.348191 -0.6108379 526600 male
1.546989 0.4563967 -0.9325849 -0.8165393 -0.3495533 0.4594302 526600 male
1.380429 0.7815896 -0.7315585 -0.8680986 -0.01970193 0.4960006 5198432 male
1.491975 1.009235 -0.7146601 0.1933893 -0.02085842 0.9809003 8881044 male
1.595762 0.5457569 -0.9849461 0.3758212 0.2196586 -0.9002825 526600 male
1.535757 1.263659 -0.7191463 0.8701607 0.02200521 0.4922763 11510974 male
1.431154 1.381371 -0.7293739 0.3476884 0.7977908 0.4925876 15261682 male
1.595051 1.539946 -0.786922 0.9558685 -0.0286557 -0.2923937 16175821 male
1.586226 0.7962372 -0.8020176 0.1152946 -0.2205371 0.9685404 5923697 male
1.331838 0.3361697 -0.8019277 -0.7919093 0.06202485 0.6074805 526600 male
1.594704 1.587283 -0.7716924 0.9538718 0.2952363 -0.0544422 16040647 male
1.565653 1.102346 -0.9020799 0.4531894 0.1709166 -0.8748753 5328985 male
1.547755 1.101172 -0.7166603 0.5996654 -0.006449995 0.8002249 11644094 male
1.374038 0.9391195 -0.7988057 -0.9912677 0.1064044 0.07788798 4343122 male
1.432783 0.6202668 -0.8357746 0.3383009 -0.1698491 -0.9255829 526600 male
1.562052 0.7863553 -0.9398291 -0.1073792 0.01473055 -0.994109 12437462 male
1.385196 1.264431 -0.7054721 0.9508585 -0.1470234 0.2724928 13679808 male
1.363213 0.2385715 -0.7661411 0.1674481 -0.9806738 -0.1011929 526600 male
1.379607 1.254599 -0.7263578 -0.5544422 -0.3330272 0.7626838 4079173 male
1.525578 1.412475 -0.7495602 0.2365607 -0.4252939 0.8735927 16570323 male
1.519796 0.8287117 -0.7443948 0.8433488 -0.3989221 0.3600333 6119277 male
1.721258 0.2635235 -0.8411188 0.3016301 -0.9456067 -0.1218491 526600 male
1.666549 1.036698 -0.9293313 -0.4021007 -0.04819826 0.914326 14601174 male
1.604159 0.400162 -0.9343458 0.3226605 -0.1130352 0.939741 526600 male
1.446966 1.284823 -0.8941946 -0.7951256 0.08786131 -0.6000464 13880540 male
1.412721 1.3448 -0.8529066 -0.4717733 0.3178091 -0.8224519 14012645 male
1.542206 1.180998 -0.7141954 0.6075801 0.178277 0.7739919 14741724 male
1.53426 0.665038 -0.8599575 -0.6934378 -0.1960883 0.6933206 4736585 male
1.322214 1.281536 -0.7079051 -0.9026139 0.1688208 0.3959642 15908277 male
1.432371 0.9879953 -0.8916357 -0.6008583 0.3069874 -0.7380568 6974583 male
1.584308 1.355238 -0.8158928 0.6922913 0.5678612 0.4452712 12959181 male
1.330356 0.4313337 -0.7932153 -0.7616236 -0.08823545 0.6419842 526600 male
1.349466 1.334291 -0.6910841 -0.324555 -0.05887076 0.944033 7829378 male
1.527586 1.457208 -0.7075841 -0.3414472 -0.4384024 0.8313948 11900812 male
1.563583 1.339816 -0.9629079 -0.5438384 -0.117607 -0.8309081 9012882 male
1.381849 0.8753716 -0.7393404 -0.9001915 0.09165695 0.4257397 2828851 male
1.344464 0.5697235 -0.8382632 -0.7242116 0.4516185 -0.5211126 526600 male
1.614942 0.6270627 -0.8554559 0.5180458 -0.3444331 0.7829396 8619667 male
1.445015 1.300015 -0.8875948 -0.8082865 0.1812331 -0.5602033 12629706 male
1.472515 1.083914 -0.8823849 -0.6622788 -0.09802827 -0.7428171 11116209 male
1.577447 1.1735 -0.9402459 -0.7421082 -0.218544 0.6336513 6451325 male
1.5319 1.525931 -0.8577919 0.3227925 -0.2799628 -0.904116 12168624 male
1.566523 0.9744847 -0.9335076 0.3650488 0.1204027 -0.9231699 5133408 male
1.47366 1.582677 -0.7304868 -0.6676444 0.1938294 0.7188052 11314087 male
1.591352 0.5655538 -0.8880053 0.1007147 -0.4042575 0.9090832 526600 male
1.632629 1.281855 -0.9221152 0.9461811 0.261854 0.1901945 15255233 male
1.640749 0.7845588 -0.9032853 0.8557688 0.02214275 -0.5168844 7303552 male
1.532715 0.9157777 -0.9499226 0.01770851 0.1068873 -0.9941134 8817823 male
1.605572 1.223585 -0.8683848 0.9635185 -0.04867128 -0.2631791 3750721 male
1.379302 0.9675599 -0.8464634 -0.8872483 0.1636585 -0.4312845 8028302 male
1.565249 0.6809682 -0.8359126 -0.3319458 -0.2721729 0.9031799 5067869 male
1.390915 0.9171687 -0.7318453 -0.8443116 0.1406308 0.5170695 3817026 male
1.625215 0.9818317 -0.8785271 0.955052 0.217161 -0.201784 2302499 male
1.336358 1.113935 -0.7177229 0.9981661 -0.004104139 -0.06039533 11309203 male
1.462659 1.619079 -0.7691051 -0.7111225 0.6058725 0.3566838 526600 male
1.420887 0.6695529 -0.8410845 0.003284931 -0.05444295 -0.9985115 7502731 male
1.416829 1.415454 -0.7884622 -0.5404329 0.8405968 -0.03646043 6447467 male
1.51509 1.37675 -0.9160588 -0.2412797 0.5696198 -0.7856954 11381180 male
1.511828 0.8757258 -0.9402955 -0.3225053 -0.3939346 -0.8607008 6843516 male
1.445192 0.9363016 -0.7005591 0.05962265 0.1534615 0.9863543 11317693 male
1.589524 0.2913171 -0.9606454 -0.8537381 -0.0580626 0.5174553 526600 male
1.622706 0.4669946 -0.9654711 0.8942598 -0.08665402 -0.439079 526600 male
1.531108 1.25909 -0.7121533 0.8151968 -0.0002183087 0.579184 11840451 male
1.451118 0.7962025 -0.8518239 0.0278981 -0.1238519 -0.9919084 5989227 male
1.67128 0.2792103 -0.9803149 0.5464133 0.1343531 -0.826669 526600 male
1.635644 1.35347 -0.8999221 0.87661 -0.1025682 0.4701433 13223124 male
1.319318 0.2386276 -0.7536811 -0.136629 -0.9902999 0.02527091 526600 male
1.624313 0.3484451 -0.9517031 0.9428167 0.2410598 0.2301887 526600 male
1.572154 0.3249895 -1.00917 0.3766316 0.3620763 -0.852672 526600 male
1.321048 1.17957 -0.7031507 0.7426521 0.348045 0.57213 15252155 male
1.282816 1.110839 -0.7382118 -0.7200853 -0.4229801 -0.550059 16571874 male
1.46671 1.252441 -0.6822402 -0.04888269 -0.3290336 0.9430521 9670300 male
1.56848 1.624798 -0.7551246 0.5913488 0.7793331 0.2072349 526600 male
1.607214 1.25094 -0.7852561 0.8451728 -0.1217291 0.5204468 13352125 male
1.519066 1.253851 -0.6991681 0.640834 -0.04182075 0.7665395 14999798 male
1.542753 0.5334655 -0.976413 -0.7295343 0.08985252 -0.6780164 526600 male
1.413403 1.025116 -0.7261136 -0.5152003 0.3882996 0.7640629 5591899 male
1.350178 1.243233 -0.6844034 0.2243168 0.1472349 0.9633296 16371664 male
1.467602 1.444418 -0.8285196 -0.6676297 0.2191712 -0.7115016 15643044 male
1.378281 0.3846598 -0.8212926 0.9571953 -0.275486 0.08879557 526600 male
1.377966 1.005818 -0.8213818 -0.9126307 0.2850062 -0.293047 10985644 male
1.313133 1.065834 -0.6569008 -0.3369913 0.3054041 0.8905983 16437712 male
1.400886 1.347398 -0.6888534 0.5641465 -0.4093668 0.7170478 8025218 male
1.391287 0.4189544 -0.8195407 0.9452999 -0.3003767 0.1272086 526600 male
1.524064 0.7993618 -0.8142554 -0.5668073 -0.284611 0.7731275 2697261 male
1.329708 0.5233856 -0.8461059 -0.801741 0.1902136 -0.5665952 526600 male
1.444639 0.6715769 -0.7330171 0.3606683 -0.3735895 0.8546047 7896977 male
1.59545 1.585319 -0.7647499 0.9582721 0.2852555 0.01854166 15713222 male
1.391218 0.9999242 -0.7392442 -0.8212959 0.1989776 0.5346783 7039091 male
1.500116 1.419856 -0.8624915 -0.3599789 0.7186908 -0.594894 10591129 male
1.341991 1.337932 -0.763576 -0.7465897 -0.2155681 -0.6293921 6315625 male
1.52851 0.7337714 -0.8426409 -0.659358 -0.3064116 0.6865558 2829099 male
1.726246 0.9340212 -0.9723608 0.3422302 -0.05667455 -0.9379053 13737115 male
1.598186 1.058652 -0.7723333 0.9345039 -0.09710141 0.3424525 12433102 male
1.540891 0.5192624 -0.9118701 -0.6744626 -0.1058151 0.730687 526600 male
1.395365 0.4556296 -0.8035457 0.8696977 -0.235339 0.4338679 526600 male
1.594774 0.507156 -0.9899735 0.3392804 0.03660072 -0.939973 526600 male
1.507672 1.598124 -0.7150213 -0.3312958 0.4383301 0.8355296 8748925 male
1.32366 0.5195422 -0.8052673 -0.9450533 0.151312 0.289791 526600 male
1.524319 0.6542222 -0.8861473 -0.9928167 -0.1181485 0.01886362 526600 male
1.422464 1.281011 -0.6973349 -0.4764504 -0.5478083 0.687678 657418 male
1.528728 0.533668 -0.9363167 -0.9926996 0.03348134 0.1158728 526600 male
1.615026 0.320832 -0.9971687 0.5651691 0.08055718 -0.8210325 526600 male
1.395021 1.344835 -0.6968495 0.6980568 -0.3610883 0.6183299 10524840 male
1.416285 0.5755743 -0.7605157 0.545719 -0.6333453 0.5486934 855309 male
1.584227 1.126863 -0.9565034 -0.8640648 -0.4609938 0.2021796 1051664 male
1.558555 1.243397 -0.749016 0.4435286 0.1057443 0.8900002 16108265 male
1.575767 0.7025667 -0.8266215 -0.1541108 -0.2503171 0.9558196 4145482 male
1.502345 1.018793 -0.9275181 -0.363416 0.4407867 -0.8207532 8421003 male
1.527081 1.589656 -0.8656476 0.2395409 0.214175 -0.9469685 4933195 male
1.355664 1.236509 -0.6868027 0.428906 0.04585822 0.9021842 16435402 male
1.550106 1.608127 -0.8461979 0.5354874 0.4854633 -0.6910706 4276805 male
1.588039 1.537465 -0.7436839 0.5547851 -0.1612212 0.8162239 7495777 male
1.422612 0.7015769 -0.8424209 -0.03942195 -0.07342586 -0.9965212 5856621 male
1.354912 0.4978052 -0.7688121 -0.2861677 -0.04004578 0.9573424 526600 male
1.459034 1.047476 -0.7075592 -0.1815232 -0.1787854 0.9669979 4868170 male
1.40796 1.28385 -0.8610318 -0.5220627 0.04325048 -0.8518098 15131113 male
1.358412 0.5607792 -0.7690095 -0.5526809 0.1272458 0.8236215 526600 male
1.509705 0.8522018 -0.9271138 -0.52864 -0.3432269 -0.7763602 6250863 male
1.452191 1.610632 -0.816886 -0.8152477 0.5167366 -0.2614471 526344 male
1.594062 1.496357 -0.755776 0.9796281 -0.1476521 0.1361161 16237757 male
1.647683 0.8412473 -0.8432401 0.975213 0.07195798 0.2092404 1579032 male
-2.269822 0.4414042 -1.34122 0.9401782 -0.3378432 0.04390162 6051407 male
-2.406421 -0.0530872 -1.332203 -0.8095779 -0.1769281 -0.5597147 2171937 male
-2.366097 -0.003551756 -1.469016 0.9821179 -0.131348 -0.1348795 4078918 male
-2.334084 0.113215 -1.230175 0.5463899 -0.1571076 0.8226637 2302758 male
-2.307582 0.3431862 -1.340017 0.893262 -0.443081 0.07591125 6380633 male
-2.41372 -0.1134158 -1.545282 0.03284746 -0.06048228 -0.9976288 2764082 male
-2.37413 0.4150813 -1.461069 0.3126367 -0.2561288 -0.9146892 6182997 male
-2.352528 0.4225642 -1.456488 0.3818204 -0.3203414 -0.8669456 6576731 male
-2.182941 0.8177236 -1.455605 -0.0533624 -0.4123227 -0.9094739 13352374 male
-2.388048 0.1021298 -1.478791 0.8227102 0.006957222 -0.5684186 4211531 male
-2.381491 -0.2488289 -1.238339 0.1814567 -0.1799406 0.9667963 1777187 male
-2.237098 0.8558263 -1.438343 -0.4751872 0.0906082 -0.8752072 4933187 male
-2.45788 0.5322114 -1.454043 -0.8667151 -0.03759444 -0.4973851 4472124 male
-2.337003 0.2361986 -1.357143 0.975933 -0.2059548 -0.07167774 2237730 male
-2.436931 0.3041621 -1.211734 -0.2278107 0.1158905 0.9667844 7169381 male
-2.41387 -0.04685781 -1.319487 -0.9664344 -0.1273974 -0.2231027 2697257 male
-2.455756 0.068262 -1.50114 -0.4026622 -0.09640919 -0.9102575 2039588 male
-2.245539 0.6237714 -1.245931 0.4312701 -0.8022962 -0.412707 5262152 male
-2.387549 -0.3830639 -1.315672 -0.2221089 0.409579 -0.8848237 2302499 male
-2.276899 0.671595 -1.204539 -0.1543983 0.7764321 0.6109948 6315864 male
-2.216461 0.7004898 -1.377516 0.807346 -0.5861225 0.06821373 16506842 male
-2.380873 0.1757776 -1.35733 0.1071654 -0.1793118 -0.9779382 2171686 male
-2.474728 -0.467898 -1.499106 -0.7820168 -0.2620908 -0.5654719 1052944 male
-2.222064 0.7665833 -1.772482 0.4487776 0.212049 0.8681211 16639452 male
-2.549046 -0.2611847 -1.495199 -0.8303756 0.5555777 0.04254586 3552824 male
-2.413266 0.683288 -1.427668 -0.7816097 0.6173003 0.08959174 9998478 male
-2.36329 0.6842424 -1.290056 -0.6437844 0.6630448 0.3819863 8945788 male
-2.35182 0.6001232 -1.222523 -0.5519623 -0.1062058 0.8270781 7103587 male
-2.388221 -0.1010634 -1.459851 0.5248906 -0.298276 0.7971961 1973534 male
-2.192865 0.2795478 -1.153157 0.9011809 -0.1731507 -0.3973562 11770258 male
-2.486164 0.2989646 -1.241161 -0.7624416 0.2437619 0.5993857 9011581 male
-2.277532 0.7115815 -1.280751 0.516052 0.7446532 0.423299 8419444 male
-2.341493 -0.1970098 -1.302593 0.6768641 -0.1906895 -0.7109801 2236714 male
-2.249381 0.5423236 -1.196806 0.9757928 -0.1217254 -0.1816908 16773353 male
-2.197682 0.7198816 -1.383666 0.155345 -0.9140601 0.3746493 11378324 male
-2.345211 0.7303912 -1.565992 -0.4704431 0.8579513 -0.206405 8223091 male
-2.307141 0.193658 -1.25754 0.9403417 0.08586733 0.3292185 3947583 male
-2.374493 -0.08250191 -1.251204 -0.07822286 0.3359693 0.9386193 2368806 male
-2.402609 0.005286605 -1.504287 0.2606463 -0.03881454 -0.964654 3355190 male
-2.405425 0.6929935 -1.442989 -0.7818242 0.6217756 0.04632664 13026237 male
-2.371013 0.6901952 -1.348935 -0.647459 0.6536828 0.3917855 6117452 male
-2.287123 0.7173939 -1.797816 -0.6457249 0.07382338 -0.7599933 16773862 male
-2.280738 0.8549896 -1.382138 -0.9514514 0.1902957 -0.2419257 5196103 male
-2.526929 0.3243913 -1.337403 -0.8383282 0.4054964 0.3643879 9733764 male
-2.142875 0.8457639 -1.32843 0.6995065 -0.140456 0.7006875 3947060 male
-2.381975 -0.02225207 -1.509835 0.3772512 0.02255889 -0.9258363 3223862 male
-2.264369 0.7148124 -1.634609 0.8617349 0.4242926 0.2781887 16442848 male
-2.326972 0.6546864 -1.581624 0.2999901 -0.9519068 -0.06228456 3552565 male
-2.523623 0.3340076 -1.34119 -0.8229352 0.4486952 0.3484975 9667971 male
-2.324685 0.6120165 -1.509693 -0.01568818 -0.542686 -0.8397892 4933698 male
-2.455986 0.411627 -1.302536 -0.8710788 0.3155398 0.3763731 8814199 male
-2.377998 0.02738723 -1.47096 0.918088 -0.07949328 -0.3883239 4475732 male
-2.330435 0.2603115 -1.224855 0.7244018 0.071023 0.68571 7105124 male
-2.376396 0.3500977 -1.439434 0.3859765 -0.3079734 -0.8695831 7234654 male
-2.349362 0.4357144 -1.160507 -0.8152321 -0.3593327 -0.4541773 6708054 male
-2.158456 0.8915932 -1.319732 0.5808306 0.3645825 0.7278156 4340793 male
-2.426075 -0.004625643 -1.296667 -0.9888099 -0.1350003 0.0634836 3224633 male
-2.356079 -0.43103 -1.33945 0.03209349 0.9980585 -0.05337887 3092015 male
-2.343516 0.7281545 -1.447792 0.04179414 0.9878247 -0.1498518 4671556 male
-2.504278 0.2779989 -1.45266 -0.6692024 0.1936579 -0.7174015 4538425 male
-2.351042 0.2487733 -1.211415 0.4618408 0.05228809 0.8854204 3420206 male
-2.553268 -0.3643897 -1.52666 0.428356 -0.0598453 0.9016262 2698029 male
-2.439851 -0.06176631 -1.487072 -0.6337962 0.7385919 0.2297487 3026222 male
-2.403306 0.4135845 -1.464817 0.06529179 -0.1324623 -0.9890354 3552819 male
-2.419554 0.02043482 -1.331107 -0.7364777 -0.03896064 -0.6753392 2170657 male
-2.54999 -0.4222609 -1.548247 -0.6076002 -0.6579381 0.444904 526600 male
-2.385104 0.7007637 -1.531079 -0.9213483 0.3566213 -0.154722 8289397 male
-2.419748 -0.3527785 -1.281787 -0.9051039 0.1545077 -0.3961247 2171171 male
-2.422624 -0.1846576 -1.494402 0.7719777 -0.6271712 0.1034744 2566189 male
-2.571265 -0.3084344 -1.519177 0.1126064 0.6134043 0.7817001 2171945 male
-2.317602 0.4593921 -1.174553 0.4693175 0.08651041 -0.8787817 16773606 male
-2.256732 0.3007947 -1.116106 -0.0430558 -0.263685 0.9636477 16044745 male
-2.253088 0.6742968 -1.231044 0.3629587 0.863439 0.3503345 5855057 male
-2.165443 0.9274657 -1.382366 0.409661 0.9045181 -0.118427 7169118 male
-2.272268 0.6454097 -1.447518 0.9081354 0.1754869 -0.3801247 7630700 male
-2.523431 0.3233025 -1.419433 -0.8619406 0.1763987 -0.4753338 5131334 male
-2.446084 -0.07085513 -1.480858 -0.619216 0.7141782 0.3263757 2895153 male
-2.362986 0.3697256 -1.231604 0.4067701 0.4377501 0.8018185 4736576 male
-2.307461 0.591827 -1.175773 -0.6113969 0.1829284 0.7698904 6708574 male
-2.125405 0.8904383 -1.385536 0.8539116 0.5173353 0.05656323 6708568 male
-2.389071 -0.2396517 -1.310373 -0.006754875 -0.1757863 -0.9844053 2105120 male
-2.44999 0.2378276 -1.208325 -0.3589784 -0.005625639 0.9333291 4607317 male
-2.292321 0.3765884 -1.114346 0.06043336 -0.1206091 0.990859 16771809 male
-2.286664 0.6689383 -1.190284 -0.3368213 0.5168905 0.7870044 11906728 male
-2.383591 -0.226026 -1.311998 0.06060019 -0.1582978 -0.9855303 2302246 male
-2.378292 0.1099205 -1.448739 0.9918641 -0.01951411 -0.1257982 3752009 male
-2.372554 -0.1546552 -1.229775 0.1688472 0.05477495 0.9841192 2367780 male
-2.324467 0.01093663 -1.326365 0.8574681 -0.178602 -0.4825455 4277065 male
-2.158138 0.8842688 -1.443131 0.2863865 0.4957691 -0.8198756 6511189 male
-2.353601 0.3014209 -1.215363 0.4073837 0.1114493 0.9064314 4340793 male
-2.338768 0.7318212 -1.434984 0.09345257 0.9538561 -0.285351 7367272 male
-2.245822 0.6144732 -1.192382 0.8745912 -0.144926 0.4626953 5853771 male
-2.393728 0.06045084 -1.407375 0.7903737 -0.1845625 0.584163 2368807 male
-2.153976 0.8644946 -1.897049 -0.7641864 0.2445156 -0.5968514 15584455 male
-2.498064 0.3632219 -1.433947 -0.6201584 0.5424286 -0.5667229 4868418 male
-2.384307 0.04358871 -1.476401 0.8483319 -0.1071462 -0.5185105 4079943 male
-2.35499 -0.1888992 -1.311162 0.3604176 -0.1194351 -0.9251134 2697257 male
-2.43416 -0.1574456 -1.540654 0.05323344 -0.2778004 -0.9591628 1973793 male
-2.117532 0.8156798 -1.396589 0.9761679 -0.2046024 0.07234854 15192260 male
-2.381185 -0.1458954 -1.229812 -0.03585812 0.1309717 0.9907376 2696233 male
-2.464016 0.07672476 -1.365467 -0.1995153 -0.3964474 0.8961157 2631464 male
-2.241255 0.6655053 -1.269544 0.7497981 0.6088902 -0.2589513 7039331 male
-2.483475 -0.158363 -1.523514 -0.6272761 0.09651972 -0.7727929 1908256 male
-2.588125 -0.3456477 -1.558188 -0.5180496 0.3617524 -0.7750871 2171173 male
-2.311325 0.655409 -1.197933 -0.7687424 0.2610654 0.5838495 8617851 male
-2.322231 -0.0863493 -1.295427 0.938767 -0.1424725 0.313717 2171945 male
-2.257138 0.7587445 -1.815877 -0.6017343 0.2595917 -0.7553332 16706278 male
-2.321968 0.5110666 -1.473865 0.4496808 -0.2116834 -0.8677429 5722959 male
-2.50927 -0.2962317 -1.498222 0.6479113 0.09634134 0.7555988 1973534 male
-2.392206 0.4292983 -1.469934 0.09650388 -0.2193169 -0.9708694 4472380 male
-2.268837 0.8833286 -1.338312 -0.8160197 0.4097076 0.4077398 6576979 male
-2.221664 0.6406491 -1.210941 0.9575769 -0.2641363 0.1152332 6710366 male
-2.273189 0.8807207 -1.38262 -0.9066177 0.3383924 -0.2520618 4077878 male
-2.163513 0.7962995 -1.440343 0.1051731 0.3493081 -0.9310869 13282728 male
-2.432616 0.02323908 -1.305009 -0.9734269 -0.1346511 -0.1852275 2565674 male
-2.339874 -0.1906782 -1.255156 0.8239477 -0.1621656 0.5429666 2434085 male
-2.289163 0.4116846 -1.306631 0.8990452 -0.3713553 0.2319771 5722703 male
-2.401764 0.6278835 -1.288365 -0.8945339 0.3550365 0.2715849 9406847 male
-2.32868 -0.08391257 -1.27945 0.8581921 0.004991123 0.5133047 2434601 male
-2.498008 0.299058 -1.454437 -0.6391097 0.1825298 -0.7471426 4537917 male
-2.20477 0.9046063 -1.309419 -0.01643953 0.5512164 0.8342004 4406587 male
-2.228153 0.7768387 -1.449129 -0.3951613 -0.1338762 -0.9088042 15389897 male
-2.388137 0.1480753 -1.39279 0.9449161 -0.09765723 0.3124049 2697259 male
