# .PCD v0.7 - Point Cloud Data file format
VERSION 0.7
FIELDS x y z normal_x normal_y normal_z rgb label
SIZE 4 4 4 4 4 4 4 4
TYPE F F F F F F U U
COUNT 1 1 1 1 1 1 1 1
WIDTH 256
HEIGHT 1
VIEWPOINT 0 0 0 1 0 0 0
POINTS 256
DATA ascii
1.339039 0.1990294 -1.337098 0.7204746 0.5092455 0.4707285 10986679 male
1.347166 0.306328 -1.085226 -0.5972053 0.8012555 0.03654435 6450041 male
1.74991 0.3437513 -1.207819 0.93295 0.2969001 0.2036041 526600 male
1.421446 0.2069536 -1.082397 0.853341 -0.4667495 0.2322799 7304583 male
1.347435 0.2049874 -1.323725 0.4642344 0.881502 0.08625944 12433613 male
1.65707 0.3141792 -1.286084 0.5788048 -0.01004858 -0.8154042 526600 male
1.265405 0.06826931 -1.368891 -0.573329 -0.6985097 -0.4282266 13354716 male
1.330301 0.01364845 -1.295025 -0.3683643 -0.9282801 0.05102849 5855073 male
1.306164 0.5753469 -1.531444 0.5251185 -0.2855973 -0.8016762 11570315 male
1.517655 0.2412262 -1.248295 -0.599708 0.786731 0.1463034 5724513 male
1.467194 0.3917516 -0.9538803 0.7726092 0.6298397 0.07985669 526600 male
1.269508 0.6974285 -1.493749 -0.01551119 0.9975666 -0.06797316 526600 male
1.32981 0.3550407 -1.380529 0.8842589 0.236729 0.4025488 15855296 male
1.408965 0.1203761 -1.342633 0.2213473 0.7859298 -0.5773385 12633553 male
1.29125 0.07189626 -1.164037 -0.5643027 -0.5223593 0.639299 12436176 male
1.404363 0.3751948 -1.020246 -0.01463979 -0.5415714 -0.8405273 526600 male
1.529579 0.1015729 -1.316046 0.5776054 -0.319124 -0.7513533 4145479 male
1.16972 0.4241759 -1.276375 -0.2588405 0.7731776 0.5789629 14071477 male
1.671624 0.2383842 -0.8324671 -0.6247526 0.7587787 -0.1842256 526600 male
1.299182 0.3855201 -1.354005 0.6470292 0.5258172 0.55215 15326353 male
1.351104 0.4935521 -1.453766 0.989433 -0.03331218 0.1411121 16768477 male
1.407057 0.2350744 -1.158795 0.6648196 0.4971457 -0.5575492 3026230 male
1.839814 0.2242641 -0.9993967 -0.04269828 0.9856999 -0.1630111 526600 male
1.588459 0.2449774 -1.388352 0.9603167 -0.2600191 0.1009052 15318712 male
1.747254 0.2328651 -1.111946 -0.858398 0.3091873 0.4093361 526600 male
1.305895 0.2406958 -1.554054 -0.1606615 -0.499054 -0.8515474 8552078 male
1.171675 0.4146931 -1.480216 -0.7781401 0.2953793 -0.5543004 13552092 male
1.132805 0.3996001 -1.387316 -0.9958993 -0.0472302 -0.07716194 11711162 male
1.732697 0.2847578 -1.124189 -0.2844576 0.67364 0.682124 526600 male
1.314859 0.4966986 -1.16942 0.07789461 -0.842361 -0.5332546 12960459 male
1.258425 0.06408112 -1.344455 -0.573737 -0.7301726 -0.3710443 14406884 male
1.658946 0.2281721 -0.7852997 0.6205513 -0.7586359 0.1984631 526600 male
1.350995 0.3961672 -0.9805704 -0.8808505 -0.3968465 0.2580993 526600 male
1.149102 0.3820604 -1.34721 -0.4984391 -0.7778634 -0.3827362 9144467 male
1.39235 0.5943022 -1.424663 0.8574436 0.1174911 0.5009853 12560033 male
1.535939 0.3337998 -1.451895 0.6384662 0.5863134 -0.4985954 13144709 male
1.367735 0.1871098 -1.235675 0.3541706 0.6343183 -0.6871706 5922155 male
1.173586 0.2825621 -1.173076 -0.1119167 -0.9759532 -0.1870559 15706013 male
1.631984 0.3277688 -1.233058 -0.5451515 -0.3939065 0.7400321 526600 male
1.289106 0.230306 -1.545781 -0.3217679 -0.5001395 -0.8039439 10196388 male
1.238923 0.2306715 -1.509727 -0.7677909 -0.4072271 -0.4946345 12434125 male
1.578591 0.2617378 -1.421194 -0.1511935 0.1882975 -0.9704043 16371662 male
1.298443 0.5144992 -1.507588 -0.1401169 -0.4314938 -0.8911679 16771297 male
1.225569 0.2549197 -1.504604 -0.7993212 -0.3739223 -0.4703909 11973060 male
1.218271 0.6385948 -1.429832 -0.4435502 0.3293779 0.8335307 9933206 male
1.636231 0.2889278 -1.246039 -0.1904898 -0.8485831 0.4935791 526600 male
1.472393 0.4574718 -1.391192 0.02711071 0.9042366 0.4261702 10191753 male
1.494999 0.309865 -1.465063 0.09995346 -0.9164362 -0.3874972 16440788 male
1.227914 0.3303522 -1.533849 -0.83727 -0.0512601 -0.5443816 13946334 male
1.398452 0.3220106 -1.489482 0.8949431 -0.3455274 -0.2822897 7564411 male
1.221764 0.2073143 -1.45894 -0.5863464 -0.4968286 -0.6398119 9735845 male
1.717925 0.3683134 -1.205695 0.3512235 0.7322778 0.5834476 526600 male
1.259453 0.1622852 -1.184856 -0.9085194 0.3197134 0.2690274 3552566 male
1.414127 0.004799201 -1.24013 0.1342004 -0.840352 0.5251655 8883624 male
1.192501 0.349853 -1.193249 0.4966764 0.8245599 0.2709492 14527405 male
1.190804 0.649835 -1.459402 -0.732716 0.4981778 0.4636227 526600 male
1.467912 0.3537565 -0.9808341 0.6003748 -0.2301439 -0.7658875 526600 male
1.550075 0.3080045 -0.846991 0.279947 0.1895228 -0.9411221 526600 male
1.33244 0.4354712 -1.571916 0.2379233 0.6141476 -0.7524727 6513003 male
1.512282 0.07096018 -1.315749 0.6625856 -0.3972577 -0.634954 3752266 male
1.26974 0.1649879 -1.155266 -0.9098876 0.1848298 0.371406 4802899 male
1.826097 0.2020863 -0.9549681 -0.4954284 -0.04635924 0.8674109 526600 male
1.657013 0.3462922 -1.27916 0.4861992 0.5164927 -0.7048728 6777717 male
1.377369 0.03277927 -1.386033 0.1978057 -0.8010416 -0.5649826 8486281 male
1.336024 0.0693718 -1.145498 -0.02310213 -0.5867643 0.8094282 9410213 male
1.891931 0.1521602 -1.067332 0.422062 -0.7380506 -0.5264456 526344 male
1.514527 0.3293128 -1.426751 0.01943858 0.896512 0.4425928 16434885 male
1.598875 0.313116 -0.7579924 -0.06132768 0.8326924 0.5503291 526600 male
1.761846 0.2353419 -1.10423 -0.7760891 0.4647408 0.4262648 526600 male
1.772911 0.2206223 -1.099889 -0.7925576 0.4617882 0.3982512 526600 male
1.221771 0.3645572 -1.238042 0.9933417 0.1049964 -0.04741216 9798536 male
1.214495 0.3140976 -1.151902 -0.2918316 -0.07832423 -0.9532574 15185589 male
1.39075 0.2192676 -1.393257 0.9690143 0.07245875 0.2361374 12104130 male
1.241212 0.6695647 -1.541085 -0.2027575 0.6321373 -0.7478581 526600 male
1.671292 0.2772788 -0.7879655 0.5018489 0.602274 -0.620817 526600 male
1.324908 0.03968534 -1.385326 -0.4041806 -0.7757213 -0.4846592 10460328 male
1.687741 0.3935321 -1.267185 0.521955 0.7582332 0.3906985 526600 male
1.221226 0.1816813 -1.281664 -0.6973507 0.6808188 0.2240263 4934223 male
1.308311 0.4845991 -1.194296 0.394784 -0.8507883 -0.3468499 15201015 male
1.246778 0.4789827 -1.468075 -0.9350305 0.2346385 -0.2658246 15644328 male
1.373891 0.3636037 -0.9752287 -0.7038673 -0.7038881 0.09545848 526600 male
1.220246 0.0772811 -1.293116 -0.7704005 -0.6362498 -0.04085556 10196131 male
1.160521 0.3337241 -1.166157 -0.6133247 0.7098678 0.3462954 14855581 male
1.204384 0.3929523 -1.233731 0.4034835 0.8361676 0.371517 16770786 male
1.413899 0.4064742 -0.9255968 -0.1724974 0.3074476 0.9357995 526600 male
1.686911 0.3199285 -1.159425 -0.5842513 0.3921157 0.7105601 526600 male
1.158972 0.3758954 -1.341434 -0.2005538 -0.8565601 -0.4754819 5789794 male
1.367325 0.4363276 -0.9912542 -0.6083778 0.3630882 0.705722 789516 male
1.322137 0.6740939 -1.501795 0.6369501 0.6717775 -0.378166 15319481 male
1.206311 0.1055343 -1.269832 -0.8999288 -0.3105944 0.306038 7696502 male
1.262831 0.4639063 -1.506273 -0.8436359 0.1926429 -0.5011657 11314606 male
1.151583 0.4042059 -1.27371 -0.8264807 0.3541144 0.4376441 16505041 male
1.736654 0.2619809 -1.113312 -0.5800833 0.5447679 0.6055835 526600 male
1.544388 0.5184675 -1.372139 -0.8017794 -0.5618587 -0.2036286 855052 male
1.216737 0.3443238 -1.332403 -0.4108094 0.09323236 0.9069417 723723 male
1.731807 0.3619585 -1.204606 0.4921511 0.6839336 0.5385371 526600 male
1.376194 0.1263818 -1.099527 0.1898749 -0.6849396 0.7034239 7633549 male
1.618766 0.3229988 -1.268694 -0.06814145 0.844345 -0.5314493 7831440 male
1.287638 0.6463646 -1.415684 -0.169365 0.5246139 0.8343235 13412256 male
1.18451 0.3481562 -1.289599 0.3240986 -0.8693389 -0.3731086 7234401 male
1.548917 0.121237 -1.194873 0.3841954 -0.5613915 0.7329621 2171945 male
1.21035 0.4691141 -1.424347 0.03505595 0.9236575 0.3816123 11182252 male
1.691472 0.3956447 -1.230809 0.08688217 0.7476286 0.6584095 526600 male
1.865249 0.1505981 -1.087054 0.4389826 -0.5996324 -0.6691301 526600 male
1.177812 0.4165472 -1.264036 -0.1350626 0.8500127 0.5091528 15711935 male
1.338834 0.2653271 -1.051181 -0.750913 0.008683149 0.660344 4277321 male
1.526922 0.3188489 -1.461311 0.7715002 -0.07511341 -0.6317794 16502726 male
1.341059 0.4723607 -1.452866 0.9515337 -0.05335942 0.3028803 15060438 male
1.768971 0.2500083 -1.129978 0.8384557 -0.4317061 -0.3325988 526600 male
1.27371 0.2827162 -1.561344 -0.4986759 -0.420013 -0.7582291 11052214 male
1.203382 0.6010153 -1.551657 -0.5086161 -0.1401062 -0.8495175 6578276 male
1.197652 0.4247896 -1.281038 0.3514719 0.8085728 0.4718871 14927307 male
1.253056 0.574231 -1.552024 0.04480046 -0.5112272 -0.8582771 7103849 male
1.285461 0.5599299 -1.54747 0.7272771 -0.2521274 0.6383572 16232622 male
1.374613 0.3876052 -1.026732 -0.01977891 -0.8472073 -0.530894 526600 male
1.401893 0.09592859 -1.213609 0.9906977 0.06283894 -0.1207033 526344 male
1.285234 0.2547024 -1.30246 0.2105386 0.2914657 0.9331244 8552586 male
1.178301 0.3052958 -1.480728 -0.6622466 -0.3155167 -0.6796166 13289945 male
1.366592 0.1419057 -1.08553 0.0148958 -0.6769622 0.735867 11713489 male
1.428732 0.1156212 -1.320506 -0.334456 0.4522931 -0.8267829 12764117 male
1.19052 0.5573174 -1.478237 -0.7855868 -0.6147789 0.07000121 9735828 male
1.386494 0.5978668 -1.451944 0.9046641 0.2045225 -0.3738361 13872291 male
1.578437 0.2950583 -1.215585 -0.5395662 0.6088272 0.5815477 3948098 male
1.350111 0.264381 -1.346567 0.7160335 0.4076424 0.5666776 12051373 male
1.775617 0.1764015 -0.9047982 0.3409442 -0.7180828 0.6067241 526600 male
1.463479 0.3206168 -1.440467 -0.6825571 -0.4962571 0.5365116 1052688 male
1.39899 0.1079248 -1.13143 0.6314965 -0.601801 0.488925 2828851 male
1.438489 0.4075408 -0.9273916 0.3557651 0.6074434 0.710242 526600 male
1.347731 0.1912077 -1.517155 0.4260777 -0.5528541 -0.7161077 4210502 male
-2.582254 0.3143957 -1.451249 0.09812686 -0.4172246 -0.9034905 7038818 male
-2.581316 0.02679247 -1.392375 -0.9178101 -0.1173999 -0.3792652 2698289 male
-2.644142 -0.244887 -1.32557 0.8800385 -0.2207638 -0.420471 1644569 male
-2.480895 0.1219352 -1.31905 0.6935683 -0.1685602 0.7003933 2302507 male
-2.587521 0.2714033 -1.444275 0.02958655 -0.2163041 -0.9758777 7039331 male
-2.715353 -0.1773912 -1.349917 -0.706306 0.01039764 -0.7078305 2566703 male
-2.61108 0.2280757 -1.225834 0.2701797 -0.1000925 0.9575932 3882563 male
-2.586406 0.6095698 -1.535627 -0.3703106 0.2484698 -0.8950604 8618358 male
-2.627526 0.8307792 -1.598297 -0.7402658 0.6412145 -0.2021155 15517882 male
-2.632593 0.07866143 -1.376165 0.6660641 -0.1144183 -0.7370666 2894380 male
-2.515778 -0.3326811 -1.374535 -0.2299226 0.127106 -0.964873 2369066 male
-2.612353 0.8672573 -1.530107 -0.8156154 0.477597 0.3266079 7563106 male
-2.656798 0.5925411 -1.315233 -0.03516203 0.1267982 0.9913053 6380119 male
-2.626375 0.2237067 -1.444312 -0.243133 -0.003580336 -0.9699866 7697269 male
-2.471049 0.24092 -1.321012 0.9534495 0.08476349 0.2893949 9471873 male
-2.530878 -0.04237138 -1.310379 -0.1196682 -0.07399504 0.9900528 3026222 male
-2.721665 0.02075441 -1.306743 -0.8130467 -0.2542899 0.523729 1908771 male
-2.531604 0.6086912 -1.570816 -0.6649283 0.6339263 0.3949785 7563882 male
-2.529078 -0.4222116 -1.389973 -0.8905547 0.2595702 -0.373545 2500137 male
-2.463238 0.5876842 -1.579733 0.8481901 0.145461 -0.5093279 11184032 male
-2.632726 0.6944669 -1.541545 -0.8876884 -0.07655372 -0.4540364 16773863 male
-2.513272 0.1202454 -1.452151 0.2022546 -0.04259435 -0.9784064 3752010 male
-2.682705 -0.441311 -1.495067 -0.1351183 -0.9905205 0.02474275 1052688 male
-2.660179 0.586724 -1.747016 0.9761387 0.04155635 -0.2131349 16771810 male
-2.718576 -0.3499295 -1.310562 -0.9514515 -0.05433298 0.3029658 2105377 male
-2.697069 0.6905391 -1.375608 -0.3092483 0.6790403 0.6657852 11248803 male
-2.474672 0.6255992 -1.44623 0.8264489 0.439685 0.3516527 9144191 male
-2.575716 0.4598767 -1.519049 0.001108646 -0.4059475 -0.9138959 5789010 male
-2.653444 0.05268129 -1.388598 0.4961228 -0.06850304 -0.865546 3288627 male
-2.917737 0.4043564 -1.707601 0.03115603 0.5122802 -0.8582532 16767950 male
-2.50227 0.2961665 -1.282944 0.5508513 0.3134577 0.7735033 9734787 male
-2.537151 0.6780023 -1.444476 0.4799542 0.7121233 0.5123717 7038301 male
-2.474461 -0.2143774 -1.329117 0.9845636 -0.089779 0.1502482 1842977 male
-2.569891 0.5914828 -1.613124 -0.272482 0.8241388 -0.4965369 7236451 male
-2.586147 0.779046 -1.634036 0.2055228 -0.165437 -0.964568 14666688 male
-2.734528 0.6667199 -1.430343 -0.6314317 -0.7000144 0.3335776 4999748 male
-2.529289 0.197181 -1.44745 0.03309694 0.2022499 -0.9787748 3027253 male
-2.467787 0.5592126 -1.536938 -0.3821216 -0.8657116 0.3233057 657418 male
-2.712823 -0.0870097 -1.304833 -0.9292849 0.1250882 0.347538 1973791 male
-2.604004 0.581493 -1.323575 0.4146441 0.1934012 0.8891943 8748669 male
-2.557028 0.6823677 -1.426014 0.6204133 0.6135628 0.4884959 11315105 male
-2.71495 0.5902053 -1.70066 -0.9801419 -0.1571445 0.1209447 16768986 male
-2.587112 0.7931581 -1.472981 -0.5120396 -0.1967476 0.8361256 5919310 male
-2.623847 0.3414961 -1.256037 0.1848346 0.5456378 0.8173835 8747893 male
-2.486226 0.7836016 -1.553119 0.8066198 -0.4499385 -0.3833015 3814449 male
-2.691959 -0.08657623 -1.382077 -0.2816501 -0.3795799 -0.8812449 3947583 male
-2.663056 0.675042 -1.559598 0.8143541 0.5461823 -0.1962461 12498605 male
-2.700729 0.6588192 -1.455175 0.396037 -0.8831967 0.2512339 2960168 male
-2.658 0.332041 -1.249524 -0.1878802 0.4093036 0.8928449 6643031 male
-2.706341 0.5379999 -1.33094 -0.8241438 0.01240642 0.5662451 3223601 male
-2.560811 0.4639395 -1.326485 0.3367096 0.1856806 0.9231195 8025714 male
-2.666573 0.03839573 -1.394356 0.273565 -0.07225507 -0.9591359 3553598 male
-2.494433 0.2488871 -1.434643 0.3724594 0.1453774 -0.9165913 3750969 male
-2.677582 0.3718868 -1.437654 -0.7492316 -0.1863483 -0.6355522 6510677 male
-2.678138 0.4939227 -1.577817 -0.5807346 0.2280953 0.7814858 16373971 male
-2.489434 0.7678118 -1.518438 0.7816624 -0.6219407 0.0468381 5524040 male
-2.553456 -0.09613146 -1.324593 -0.6651304 -0.05050991 0.7450172 2499627 male
-2.514836 -0.4233827 -1.445003 -0.2237207 0.9024992 -0.3680275 2631720 male
-2.640613 0.6924735 -1.48333 -0.9056021 0.3971595 -0.1488273 4933179 male
-2.71611 0.1669959 -1.254442 -0.6117963 -0.1498493 0.7766922 3419956 male
-2.508583 0.2296409 -1.440491 0.1735071 0.1968154 -0.964966 2105119 male
-2.707507 -0.4232709 -1.353368 0.9696125 -0.2401917 -0.04647249 921102 male
-2.724554 -0.1782099 -1.295645 -0.9384063 0.00310933 0.3455203 1973534 male
-2.654484 0.2609372 -1.229627 -0.3073016 0.1129257 0.9448883 7958888 male
-2.548895 0.1558292 -1.289045 -0.1812372 -0.3432167 0.9216049 5724511 male
-2.762637 -0.4437182 -1.410484 -0.6818135 -0.7045084 0.1969732 2236962 male
-2.723512 0.7403634 -1.481406 -0.2740345 0.921582 -0.2749394 7368296 male
-2.517316 -0.383042 -1.384864 -0.4669628 0.385084 -0.7960253 3092015 male
-2.648163 -0.2009752 -1.343956 0.5428246 -0.07209343 -0.8367463 2697257 male
-2.723736 -0.4169729 -1.279254 0.2668582 -0.01300076 0.9636483 5988453 male
-2.670527 0.5145859 -1.597416 -0.5538987 0.7524544 0.3563827 16374736 male
-2.820479 0.391061 -1.707675 0.07676771 -0.9300032 0.359445 7037279 male
-2.458772 0.5761619 -1.564475 0.9306874 -0.09090342 -0.3543415 11576991 male
-2.540172 0.9090719 -1.52383 0.04901755 0.969214 0.2412918 6116172 male
-2.644909 0.6548719 -1.482206 -0.338512 0.5067674 -0.792841 6314583 male
-2.62769 0.213907 -1.223668 0.1307628 -0.1716866 0.9764348 4342346 male
-2.726251 -0.2197568 -1.311386 -0.9873945 -0.1293009 0.0912891 1908256 male
-2.473558 0.3397199 -1.36907 0.9041813 0.4266426 -0.02079523 4340793 male
-2.522525 0.5401276 -1.603707 0.4229614 -0.7658191 -0.484381 7893616 male
-2.541585 0.7069942 -1.507856 0.9490296 -0.03552607 0.313179 16768982 male
-2.483598 -0.2826223 -1.347957 0.9751874 -0.1694234 -0.1424976 2236706 male
-2.505888 0.3793855 -1.336352 0.6913568 0.1567907 0.7052963 10654609 male
-2.699131 0.4840768 -1.661836 0.3507486 0.2387258 -0.9055307 16771552 male
-2.488554 0.5806274 -1.620646 0.4136462 -0.2034975 -0.887404 9736070 male
-2.481497 -0.2660794 -1.330983 0.967161 -0.1778065 0.1816172 1972766 male
-2.658787 0.0917286 -1.392776 0.3693526 -0.04653027 -0.9281237 3157808 male
-2.504125 -0.1263818 -1.300863 0.366722 0.3311023 0.8694173 2893870 male
-2.561726 -0.08426953 -1.378341 -0.7706332 -0.2632051 -0.5803862 2368036 male
-2.533472 0.9005001 -1.583617 0.3246388 0.8063297 -0.494411 6971226 male
-2.467012 0.2898283 -1.39425 0.9755756 0.09981353 -0.1956781 3552305 male
-2.626415 0.7141454 -1.454276 -0.5472913 0.8349113 -0.05826983 4340793 male
-2.543589 0.6094722 -1.601344 -0.5587254 0.7794368 -0.28338 8420984 male
-2.62079 -0.06480204 -1.333494 0.9747032 -0.2012099 -0.09730619 1908514 male
-2.702011 0.5497575 -1.864715 -0.8047891 0.5922635 -0.03922707 15849161 male
-2.701241 0.3777753 -1.394454 -0.9175372 -0.111622 -0.3816624 5854289 male
-2.675996 0.03710882 -1.395792 0.08447823 -0.1083079 -0.9905217 3553598 male
-2.481627 -0.01107 -1.371944 0.9762089 -0.2155354 -0.02368623 2368807 male
-2.670728 -0.1353832 -1.268062 0.1271047 0.2307554 0.9646743 2763824 male
-2.532112 0.8473434 -1.612987 0.4787919 0.1118744 -0.8707713 7563103 male
-2.507258 -0.1055394 -1.307196 0.3559956 0.3045788 0.8834587 2631209 male
-2.610433 0.05450016 -1.306346 0.9433888 -0.2201437 0.2481021 2368292 male
-2.539781 0.6256344 -1.538601 -0.3315493 0.7771246 -0.5349323 4341050 male
-2.671468 -0.1681355 -1.261831 0.1352677 0.033007 0.9902594 3157808 male
-2.718403 -0.3721854 -1.30039 -0.4760401 -0.1377965 0.8685609 2894636 male
-2.460578 0.5553384 -1.563323 0.5400913 -0.8401418 0.04963017 7170661 male
-2.54767 -0.3064254 -1.346047 -0.9372928 -0.1582448 -0.3105496 2039071 male
-2.693858 0.6094038 -1.75768 -0.3268429 0.8901582 -0.3174776 14139566 male
-2.654902 0.6121981 -1.500446 -0.4927568 0.1755385 -0.8522778 9801093 male
-2.656013 -0.2848683 -1.325793 0.8609617 -0.185077 -0.4738055 1644825 male
-2.583632 0.6139542 -1.341957 0.619199 0.2444887 0.7462025 7037532 male
-2.529584 0.8641555 -1.457447 0.06492764 0.4708564 0.8798175 4012085 male
-2.48396 0.6159084 -1.607935 0.5778016 0.5640489 -0.5899105 10130319 male
-2.572612 0.8273199 -1.461313 -0.4840195 0.0271051 0.8746376 3288874 male
-2.621642 0.8406737 -1.588197 -0.5827969 0.716524 -0.3833292 15191238 male
-2.530724 -0.01913226 -1.308955 -0.05658796 -0.08632009 0.9946592 3158067 male
-2.517189 -0.1567928 -1.289076 0.02479705 0.2025838 0.978951 3487031 male
-2.559971 0.3986347 -1.483249 0.1859428 -0.4426908 -0.8771833 6051411 male
-2.508316 0.5625514 -1.379001 0.5236647 0.1550773 0.8376912 9209471 male
-2.460705 0.08490361 -1.390924 0.9841179 -0.1136545 -0.1363635 2170145 male
-2.707967 0.1830965 -1.247536 -0.5956398 -0.1134687 0.7951969 3222578 male
-2.497938 0.7997088 -1.466818 0.5337821 -0.3053941 0.78855 10195339 male
-2.654012 0.7849792 -1.579487 -0.9940385 0.07264993 0.08130193 14996682 male
-2.722018 0.1502976 -1.389615 -0.5623053 0.08783722 -0.8222517 3619135 male
-2.73391 0.2788463 -1.340456 -0.9000317 0.1297368 -0.4160666 4801601 male
-2.756967 -0.4391552 -1.312801 -0.5404127 -0.7921526 0.2836345 3092271 male
-2.730271 0.6544618 -1.560054 -0.9877559 -0.002274001 -0.1559917 16770782 male
-2.577688 0.2113395 -1.264402 -0.8897752 -0.2871801 0.3547224 2764335 male
