# .PCD v0.7 - Point Cloud Data file format
VERSION 0.7
FIELDS x y z normal_x normal_y normal_z rgb label
SIZE 4 4 4 4 4 4 4 4
TYPE F F F F F F U U
COUNT 1 1 1 1 1 1 1 1
WIDTH 250
HEIGHT 1
VIEWPOINT 0 0 0 1 0 0 0
POINTS 250
DATA ascii
1.178497 0.2870285 -1.251617 0.5992 0.5893567 0.5418654 12499406 male
1.252011 0.3228284 -1.023257 0.3675214 0.8249655 -0.4293715 4672079 male
1.574517 0.3966549 -1.131363 0.2830818 0.7241001 0.6289226 526600 male
1.217454 0.1638647 -1.028456 0.01347126 -0.8494745 0.5274575 9936562 male
1.195717 0.2752933 -1.216542 0.1986196 0.912347 0.3580128 13025749 male
1.577255 0.3760652 -1.217384 0.7761675 -0.1529827 -0.6116863 526600 male
1.14128 0.1498538 -1.339045 -0.5509844 -0.5764973 -0.6033796 11840705 male
1.177885 0.08788395 -1.253699 -0.3232998 -0.9456136 -0.0359477 5921131 male
1.145344 0.691243 -1.216391 0.8870375 0.3467595 -0.3048316 13741226 male
1.542283 0.3861888 -1.126748 -0.5294786 0.5733834 0.6252069 526600 male
1.389311 0.3072737 -0.7924769 0.6607941 0.7333271 0.1599452 526600 male
1.130732 0.715905 -1.135391 0.8071916 0.2714935 0.5241497 2169889 male
1.230662 0.3636061 -1.365385 0.9746702 0.1237301 -0.1863032 7564667 male
1.272595 0.1811536 -1.318231 0.4950571 0.4520049 -0.742031 2631984 male
1.108123 0.1204216 -1.151318 -0.6949303 -0.5858663 0.4169324 3421500 male
1.289783 0.3716587 -0.920568 0.3599243 -0.05164883 -0.9315507 526600 male
1.426425 0.2356528 -1.249243 0.5655816 0.05981885 -0.82252 4146507 male
0.9138465 0.4980398 -1.22585 -0.8936719 0.368135 0.2565682 6184039 male
1.502979 0.2022274 -0.6719551 0.4333291 -0.8339524 0.341686 526600 male
1.122764 0.4313831 -1.216368 0.5979181 0.183861 0.7801853 12498127 male
1.1391 0.6076069 -1.289051 0.9699816 0.231579 -0.07420933 15844032 male
1.218671 0.2692915 -1.116462 0.3555178 0.7977003 -0.4871154 2304556 male
1.626803 0.2094789 -0.8774486 -0.195253 -0.4648459 0.8635941 526600 male
1.233178 0.4931302 -1.610496 0.6412169 0.7293788 0.2384267 16634324 male
1.584947 0.2976407 -1.143019 0.2965009 -0.8377517 -0.4585404 526600 male
1.077146 0.2694443 -1.378809 -0.8217919 -0.4155828 -0.3898063 10459559 male
1.029484 0.5585904 -1.331207 -0.4216945 0.6549373 -0.6270812 16248831 male
0.9978447 0.5215847 -1.203807 0.2728583 0.6635375 0.6966106 13486549 male
1.469111 0.3494813 -1.173966 -0.3188196 0.827157 0.4627801 855565 male
0.9626234 0.1452496 -1.161104 -0.3107885 -0.9498827 0.03366521 8152937 male
1.088496 0.1370266 -1.266727 -0.5725415 -0.6841691 -0.4517842 6316913 male
1.541078 0.2405953 -0.6946274 0.8572597 -0.5088922 -0.07832333 526600 male
1.245291 0.3840007 -0.8429149 -0.6556605 0.01756254 0.7548515 526600 male
0.9063633 0.4762914 -1.25669 -0.8653284 0.3125464 -0.3918181 6775664 male
1.086831 0.6080046 -1.149507 -0.04689878 -0.5932527 0.803649 15382192 male
1.20955 0.5815828 -1.417242 0.9996452 -0.01595396 0.02132627 9997718 male
1.122446 0.2241159 -1.064008 -0.8692527 0.1352695 0.4755018 4474698 male
0.8578947 0.3516055 -1.302971 0.2429759 -0.2168069 -0.9454932 13276822 male
1.522541 0.3416556 -1.196138 -0.6619356 -0.6906921 0.29118 526600 male
1.081564 0.291194 -1.39573 -0.7548386 -0.3978413 -0.5214796 12696274 male
1.114834 0.4316836 -1.44657 -0.3440792 -0.09277312 -0.9343461 8288391 male
1.149979 0.553479 -1.675387 0.3879738 0.312327 -0.8671379 12094339 male
1.096141 0.7157575 -1.269301 0.4107182 0.3332587 -0.848675 10195090 male
1.147439 0.2026271 -1.387174 -0.07613137 -0.7654254 -0.6390054 7827580 male
1.004363 0.6922641 -1.158694 -0.8493883 -0.2977001 0.4357914 9735055 male
1.473869 0.263009 -1.228499 0.6443869 -0.1109841 -0.7566031 592137 male
1.183148 0.5466766 -1.543788 0.8871278 -0.3271696 0.3255216 15840437 male
1.127828 0.5769172 -1.420801 -0.9443554 -0.3200992 -0.07569277 10850447 male
1.066663 0.3493985 -1.400512 -0.7595366 -0.3133331 -0.5700232 10788528 male
1.212046 0.476918 -1.375494 0.9735455 -0.01433179 -0.2280435 986639 male
1.060471 0.2856168 -1.363921 -0.5152097 -0.3857118 -0.7653661 9736869 male
1.620358 0.2389289 -1.04482 0.629312 -0.6511865 -0.4241727 526600 male
1.10787 0.1765714 -1.103814 -0.8396655 -0.08846662 0.5358502 3421245 male
1.269753 0.07507184 -1.248212 0.2679697 -0.9370804 -0.2237686 8554392 male
0.8241364 0.3646846 -1.256639 -0.1456153 0.4564275 0.8777642 16505042 male
1.013133 0.6600084 -1.240818 -0.7898565 -0.5092041 -0.3418155 11971502 male
1.249051 0.3243 -0.9388296 0.08074423 -0.9906688 -0.1097978 592137 male
1.49269 0.2544288 -0.7062663 0.8949246 0.07314581 -0.4401813 526600 male
1.19219 0.5568441 -1.318543 0.5054271 0.5411049 0.6721227 12498118 male
1.261374 0.189974 -1.271036 -0.2927172 0.7053348 -0.6456155 8883613 male
1.10863 0.2391193 -1.132822 -0.6868754 0.7240792 0.06254199 8093068 male
1.678276 0.201986 -0.9374866 -0.439728 0.6425168 0.627544 526600 male
1.517661 0.3799015 -1.188469 -0.001924142 0.9569387 0.2902836 5396319 male
1.19404 0.1323715 -1.347983 -0.0473845 -0.6650556 -0.7452891 7171963 male
1.160962 0.09552701 -1.124246 -0.1535638 -0.7899845 0.5935845 9146780 male
1.695445 0.1368816 -0.9609401 -0.4896264 -0.6611314 0.5684815 526600 male
1.140196 0.5737955 -1.42383 -0.586431 0.04913613 -0.8085074 6053476 male
1.53005 0.2130491 -0.7169861 -0.3837926 0.8919096 0.2391664 1052431 male
1.57873 0.2938434 -1.140103 0.1619601 -0.8638008 -0.4770922 526600 male
1.631037 0.1667862 -1.018282 -0.8894339 0.02397686 -0.4564345 526600 male
0.8669494 0.3790734 -1.227531 -0.1192222 0.1912721 0.9742694 16698310 male
0.824407 0.2561736 -1.308526 -0.002450109 -0.7049323 -0.7092704 4604742 male
1.213398 0.353971 -1.283894 0.8318933 0.1937407 0.5200174 10988715 male
1.074021 0.7803928 -1.16067 0.1718871 0.9029726 0.3938214 526600 male
1.042591 0.590498 -1.308898 -0.6066169 0.7144716 -0.3486348 12171207 male
1.158833 0.1298067 -1.331245 -0.4493009 -0.674173 -0.5861907 9670812 male
1.598134 0.4113692 -1.168653 0.4053636 0.592057 0.6965263 526600 male
1.034464 0.2039185 -1.237697 -0.9949356 -0.1005015 -0.001589239 6776175 male
0.9613739 0.1423324 -1.224761 0.4022006 -0.8479746 -0.3452154 11239553 male
1.059942 0.7308075 -1.114356 -0.2276943 0.3471509 0.9097481 2960173 male
1.31039 0.3476855 -0.8072632 -0.1728379 0.1819669 0.9679954 526600 male
1.067185 0.1424531 -1.214029 -0.8018832 -0.578813 0.1481857 5199972 male
0.8046067 0.3464476 -1.296534 -0.9948593 0.0863293 0.05293605 15051936 male
0.9280052 0.4497659 -1.204271 -0.2337069 -0.02684235 0.9719365 14005176 male
1.288719 0.3171327 -0.8251528 -0.6237139 -0.439986 0.6460599 526600 male
1.432658 0.3230993 -1.174935 -0.3994036 0.845125 0.3553033 2829871 male
1.240623 0.1444338 -1.165007 0.9598593 0.1836187 -0.2120246 526600 male
1.227423 0.3585482 -0.9290293 -0.7669798 0.3797811 0.517212 5066580 male
1.081242 0.7130834 -1.10693 0.01514101 0.1950724 0.9806719 526600 male
1.050901 0.1835932 -1.192253 -0.8354014 -0.2728331 0.477144 8354695 male
1.092839 0.595961 -1.364565 -0.4227092 0.7785219 -0.4639188 9933728 male
0.8986807 0.4185817 -1.2126 -0.403212 0.2075293 0.8912641 15511467 male
1.563791 0.3534665 -1.092869 -0.1257924 0.6284834 0.7675838 526600 male
1.390434 0.3888923 -1.627593 -0.3800896 -0.6287856 -0.6783515 11573405 male
1.016606 0.394449 -1.230091 -0.4559352 -0.2782062 0.8454137 526600 male
1.619282 0.2474102 -1.047852 0.7136918 -0.6061257 -0.3510778 526600 male
1.166887 0.165526 -1.042287 -0.4529525 -0.5301301 0.7167957 8884123 male
1.588781 0.4142766 -1.191737 0.4915222 0.4973612 0.7148691 526600 male
1.059899 0.6582832 -1.122728 -0.4220802 -0.45105 0.7863855 10518658 male
0.9790258 0.4451159 -1.242728 -0.01975204 -0.952315 0.3044763 526600 male
1.323676 0.1494684 -1.137684 -0.08544147 -0.2625133 0.9611381 2697257 male
1.200865 0.2300925 -1.387303 0.7059644 -0.1914588 -0.6818781 5394778 male
1.614516 0.3680714 -1.207791 0.805317 -0.3838129 -0.4518319 526600 male
1.67389 0.2324588 -0.9869584 0.2219263 0.9227563 0.3150706 526600 male
0.9517462 0.4318705 -1.208904 0.4731687 -0.2879054 0.8325995 15714509 male
1.292059 0.4024713 -0.8404264 0.411842 0.7244982 0.5527102 526600 male
1.193601 0.5435287 -1.646159 0.7406292 0.6103124 -0.2810465 12360598 male
1.202265 0.4636817 -1.281446 0.6524187 0.1315561 0.746353 13877185 male
1.600294 0.3421678 -1.097562 0.5724425 0.532398 0.6235878 526600 male
1.089854 0.551344 -1.412929 -0.5196742 0.5267922 -0.6726283 11973824 male
1.08472 0.7352011 -1.264924 0.3740575 0.4380099 -0.8174523 14471896 male
0.9183184 0.4757343 -1.206969 -0.6523706 0.02481886 0.7574937 6842742 male
1.08788 0.7433829 -1.257838 0.4149165 0.496878 -0.7622051 10590109 male
1.153172 0.6733844 -1.207253 0.9620957 0.1976705 -0.1878785 15777717 male
1.271598 0.368534 -0.9335036 0.4685699 -0.5542734 -0.6879122 526600 male
1.222976 0.373183 -0.8928335 -0.8815199 -0.4670599 0.06912166 526600 male
1.135098 0.3147505 -1.220962 0.2271421 0.1065494 0.9680153 9538714 male
1.026284 0.5059988 -1.363186 -0.3827718 0.4032058 -0.8312105 13945821 male
1.206772 0.2175251 -0.9835499 -0.473308 -0.51487 0.7147645 5528421 male
1.318361 0.1665063 -1.294497 0.3955594 0.04239786 -0.9174612 2237738 male
0.9960174 0.7501705 -1.20283 -0.8957713 0.4360232 -0.08647254 526344 male
1.142946 0.6221773 -1.166336 0.9725889 -0.1825194 -0.1440749 13012624 male
1.415473 0.2861961 -1.144169 -0.486863 0.4894249 0.723483 3553084 male
1.208243 0.3092747 -1.284165 0.8949635 0.2545894 0.3663669 12433102 male
-2.585828 0.321845 -1.431949 0.7869887 -0.4653819 -0.4050539 6839644 male
-2.570094 0.05338627 -1.372233 0.595264 -0.179082 -0.7833203 3685185 male
-2.748184 0.02041976 -1.436049 0.1652244 -0.2639076 -0.9502915 4145735 male
-2.593249 0.07153662 -1.259361 0.4757591 -0.1693859 0.8631117 2499879 male
-2.569504 0.3627258 -1.458999 0.7286965 -0.5165974 -0.4495873 6445144 male
-2.795738 -0.09927024 -1.32391 -0.5479478 0.2797315 0.7883551 3092022 male
-2.818077 0.3031338 -1.347394 -0.9665581 0.2070783 0.151275 5920594 male
-2.501415 0.5228767 -1.516951 0.5298707 -0.1194467 -0.8396248 8355191 male
-2.539435 0.7190971 -1.646015 -0.7841994 -0.1597348 -0.5995969 16507346 male
-2.6996 0.0799227 -1.359861 0.9804192 -0.1564833 0.1195469 3157808 male
-2.590561 -0.3416568 -1.330683 -0.6045695 0.2151731 -0.7669397 1973534 male
-2.468453 0.7815354 -1.682007 0.1384582 0.09829292 -0.9854786 7759717 male
-2.758231 0.4844504 -1.438108 -0.9736876 0.09798566 0.2057463 5327688 male
-2.629768 0.2497737 -1.420514 0.6750004 -0.2385111 -0.6982027 8156273 male
-2.636728 0.2627035 -1.230647 0.3032955 0.1655423 0.9384072 8748921 male
-2.643784 -0.1137964 -1.287684 -0.9509646 0.04558123 0.3059233 2499622 male
-2.820203 0.05109648 -1.359453 -0.9539725 -0.2565584 0.1552888 2829361 male
-2.395782 0.6073796 -1.526262 -0.07261923 0.3636762 -0.9286907 8222578 male
-2.568992 -0.4409309 -1.341675 -0.3117765 -0.8614842 -0.4007997 1052688 male
-2.428826 0.6086463 -1.513971 0.09694865 0.317447 -0.9433072 8682614 male
-2.560602 0.6337252 -1.582069 -0.1448286 -0.4924753 -0.8581917 16771039 male
-2.656547 0.1314433 -1.378987 -0.3906039 -0.1182931 -0.912927 2105380 male
-2.71641 -0.4211777 -1.433946 0.9111722 0.3112653 0.2699619 1907997 male
-2.556292 0.6425338 -1.937125 0.9403204 -0.2129252 0.2654442 16375770 male
-2.801356 -0.3507066 -1.361879 -0.9487645 -0.1091673 -0.2965276 2105377 male
-2.677622 0.6686676 -1.505425 -0.3993708 0.8925411 0.20946 11906983 male
-2.587725 0.6402748 -1.418285 -0.4467731 0.7205713 0.5302556 8880246 male
-2.486193 0.5130166 -1.391345 0.8591923 -0.4255419 0.2840824 3223601 male
-2.704479 0.03188461 -1.361491 0.9868031 -0.03823443 0.1573474 2565928 male
-2.336702 0.5654941 -1.484484 0.528469 -0.2603796 0.8080367 7959665 male
-2.664737 0.2480458 -1.224223 -0.05723876 0.09406181 0.9939197 3421236 male
-2.531391 0.6796913 -1.473509 0.2823116 0.9427727 0.1774257 9735813 male
-2.552892 -0.1781314 -1.309055 0.9770272 0.06742369 -0.2021686 2500910 male
-2.352377 0.6151225 -1.531399 -0.03399432 0.9297465 -0.3666275 8815483 male
-2.43188 0.6941796 -1.622315 0.879835 -0.3460721 -0.325768 16770006 male
-2.720842 0.6298406 -1.630041 -0.9768581 0.1758888 -0.1217033 9472129 male
-2.550002 0.1791268 -1.299787 0.9716375 0.04578846 0.2320008 3224625 male
-2.44394 0.5457009 -1.40849 0.5865455 -0.420796 0.6920226 4407610 male
-2.761873 -0.05959764 -1.424822 -0.3759153 -0.09783733 -0.9214748 3289397 male
-2.669988 0.6724605 -1.508206 -0.3669036 0.9118088 0.1843547 13420996 male
-2.657119 0.6350584 -1.442461 -0.1342309 0.6845711 0.7164809 9407879 male
-2.605467 0.6514086 -1.953712 -0.8192048 0.1991234 -0.5378231 16771814 male
-2.568301 0.7355043 -1.571963 -0.993387 0.02433032 0.1122077 3618352 male
-2.722546 0.3358562 -1.280823 -0.305627 0.5922999 0.7455019 9077378 male
-2.41884 0.782506 -1.578255 0.946858 0.00781336 0.321557 5919050 male
-2.730664 -0.05942503 -1.422704 0.5034929 -0.2081901 -0.8385416 4278352 male
-2.653394 0.6559726 -1.712649 -0.06638763 0.9950986 -0.07329088 6314324 male
-2.842032 0.13693 -1.367933 -0.9876428 -0.1550017 0.0231595 2170657 male
-2.783435 0.3086036 -1.290735 -0.539991 0.4592976 0.7053055 8880254 male
-2.71392 0.5103096 -1.539561 -0.6118753 -0.1170878 -0.78224 3091239 male
-2.682396 0.3418942 -1.268865 -0.2867315 0.6202027 0.7301602 9471874 male
-2.705921 0.02615426 -1.401106 0.9481442 -0.04531136 -0.3145946 3619136 male
-2.567663 0.199994 -1.266588 0.8046043 0.05419272 0.5913335 2697257 male
-2.74947 0.3192447 -1.453902 -0.2285356 0.06576558 -0.9713119 4669758 male
-2.252311 0.5624222 -1.601578 -0.5303664 0.4841095 -0.6959524 16574686 male
-2.425739 0.8161594 -1.579905 0.8858473 0.4131758 0.2110937 3354670 male
-2.646725 -0.1394605 -1.293169 -0.9963344 0.08425555 0.01480222 2368292 male
-2.514207 -0.4337656 -1.46249 -0.5818902 0.8059077 -0.1091633 2631981 male
-2.57308 0.6303267 -1.576099 -0.2046272 -0.4500329 -0.8692516 11640985 male
-2.840206 0.2190252 -1.348469 -0.9962249 0.07251973 0.04771882 2631469 male
-2.557471 0.221179 -1.287136 0.9212533 0.08778595 0.3789277 2368808 male
-2.742942 -0.4219749 -1.41228 0.9298797 -0.1819951 0.3196902 3486005 male
-2.823871 -0.1667271 -1.350858 -0.9999285 0.01195932 0.0004432201 2235682 male
-2.81302 0.3289776 -1.36148 -0.9409966 0.3127871 0.1291896 6511962 male
-2.684728 0.1684027 -1.243864 -0.5634869 -0.4754726 0.6755801 3684152 male
-2.8099 -0.4464023 -1.406633 0.05467209 -0.9947618 0.08637154 658442 male
-2.627434 0.6493025 -1.668752 0.8300176 0.5086679 -0.2287535 7300455 male
-2.580108 -0.4042159 -1.344761 -0.8305913 0.1775921 -0.5278062 2303014 male
-2.730184 -0.1971492 -1.357878 0.9540945 -0.04055491 -0.2967477 2697257 male
-2.826186 -0.424684 -1.335162 -0.9436835 0.06378455 0.3246434 3093047 male
-2.321612 0.5509589 -1.547922 -0.2271215 -0.8406405 -0.49167 11049624 male
-2.089002 0.6031122 -1.672144 0.7063538 -0.6975021 -0.1206445 16112857 male
-2.424474 0.6403636 -1.474211 0.1831304 0.9819813 0.04664767 5196359 male
-2.493014 0.8191826 -1.666751 -0.1865641 0.5504244 -0.8137733 4867394 male
-2.562523 0.5977178 -1.557941 0.5095789 -0.2138285 -0.8334308 9669251 male
-2.801888 0.3530588 -1.38435 -0.80352 0.5876791 -0.09481084 4867394 male
-2.814237 -0.2151309 -1.376256 -0.8730949 -0.175512 -0.4548638 1907998 male
-2.581998 0.2890607 -1.388874 0.7558084 -0.1550529 -0.6361703 7169381 male
-2.301551 0.5924851 -1.512471 0.5258417 0.4160903 0.7418622 16375512 male
-2.564814 0.6907251 -1.504725 -0.2371744 0.7620625 0.6025024 14730428 male
-2.567868 -0.206053 -1.332271 0.5354853 -0.0147138 -0.8444165 2697265 male
-2.645423 0.3354219 -1.254373 0.001421779 0.5239597 0.851742 8419187 male
-2.179385 0.5389553 -1.586376 0.6777726 -0.5407101 0.4982538 14334900 male
-2.384452 0.6077428 -1.452418 0.491642 0.5020919 0.7114719 9933711 male
-2.558678 -0.2271534 -1.320978 0.85049 -0.07137202 -0.521127 2303275 male
-2.697841 0.09720006 -1.385332 0.9764937 -0.09145972 -0.1951808 3091247 male
-2.578314 -0.09979664 -1.275261 0.7411584 0.2387468 0.627443 1974306 male
-2.619563 -0.07488351 -1.358981 -0.4009326 -0.3131022 -0.8609415 2500905 male
-2.492876 0.7641893 -1.680839 -0.2121249 -0.004243128 -0.9772335 12691613 male
-2.595762 0.3238278 -1.264378 0.5311558 0.2343665 0.814215 4340793 male
-2.630041 0.6839994 -1.505487 -0.07200142 0.9562685 0.2834896 9669252 male
-2.373331 0.6245388 -1.514406 0.2613816 0.8606205 -0.4370493 6775388 male
-2.712598 -0.03509945 -1.340776 0.9245148 -0.05217956 0.3775575 1973278 male
-2.79594 0.3574561 -1.393986 -0.7543184 0.6246607 -0.2019974 4472636 male
-2.707577 0.04095412 -1.408636 0.9176846 -0.05518359 -0.3934591 3749945 male
-2.563574 0.05695106 -1.289024 0.7891119 -0.1989979 0.5811217 2172713 male
-2.769851 -0.1981111 -1.405771 0.1418701 -0.08944446 -0.9858361 2170913 male
-2.418057 0.7474714 -1.636 0.9782655 -0.1002451 -0.1815149 15192006 male
-2.572496 -0.08469246 -1.292494 0.9441528 0.1012004 0.3135832 2302243 male
-2.733758 0.03975776 -1.313744 0.4715098 -0.1514973 0.8687505 2302499 male
-2.467268 0.6306756 -1.410814 0.3063653 0.7330716 0.607245 11117209 male
-2.75896 -0.09243298 -1.319729 0.2465592 0.1439005 0.9583849 2566695 male
-2.813219 -0.3822653 -1.362279 -0.986801 -0.1596138 -0.02734321 2368292 male
-2.389872 0.5921209 -1.439417 0.4736423 0.1531763 0.8672949 10262164 male
-2.62778 -0.1646829 -1.324918 -0.4653814 -0.03636844 -0.8843629 2303274 male
-2.567186 0.6503057 -1.912034 0.8344677 0.2828588 0.4729216 16770780 male
-2.56372 0.5413255 -1.549027 0.4479069 -0.2849042 -0.8474723 14273948 male
-2.736835 0.0173078 -1.431256 0.3481845 -0.2123383 -0.9130609 3948357 male
-2.672315 0.48201 -1.365029 -0.3161904 0.3719529 0.8727399 7433062 male
-2.567528 0.7869704 -1.57127 -0.9887538 0.1089747 0.1024237 3025702 male
-2.395134 0.6343111 -1.474767 0.3796564 0.8938671 0.2384587 8487289 male
-2.566563 0.7950236 -1.578773 -0.9864423 0.1608131 0.03272516 4143671 male
-2.532603 0.7216493 -1.654325 -0.6729691 -0.1261861 -0.7288279 16506320 male
-2.65098 -0.06162009 -1.289712 -0.7622176 -0.1786821 0.6221714 2960430 male
-2.596069 -0.1489712 -1.246396 0.1702962 0.2052023 0.9637902 2434601 male
-2.522507 0.4062094 -1.412885 0.8984302 -0.4390703 0.006382346 4472636 male
-2.63027 0.5609236 -1.373426 -0.5054111 0.3948931 0.7672153 8090221 male
-2.569954 0.1095681 -1.268148 0.7083563 -0.1316102 0.6934772 2434086 male
-2.825022 0.1595755 -1.316221 -0.7951508 -0.2666988 0.5446166 2697265 male
-2.519517 0.810903 -1.519288 -0.3248235 0.4025239 0.8558413 6313295 male
-2.481842 0.6787125 -1.658988 -0.1228723 -0.0624477 -0.9904559 12691360 male
-2.71973 0.1777218 -1.428489 0.6569154 0.05467368 -0.7519795 3157816 male
-2.774177 0.2616951 -1.4382 -0.06419957 0.05728669 -0.9962915 5854801 male
-2.819556 -0.4423521 -1.33885 -0.1559792 -0.9644951 0.2131189 1052688 male
-2.657412 0.6108208 -1.821969 -0.9489253 0.05723113 -0.3102669 16373707 male
-2.681418 0.0350856 -1.322566 -0.9501368 -0.2317967 -0.2085922 2303014 male
