# .PCD v0.7 - Point Cloud Data file format
VERSION 0.7
FIELDS x y z normal_x normal_y normal_z rgb label
SIZE 4 4 4 4 4 4 4 4
TYPE F F F F F F U U
COUNT 1 1 1 1 1 1 1 1
WIDTH 245
HEIGHT 1
VIEWPOINT 0 0 0 1 0 0 0
POINTS 245
DATA ascii
1.420858 0.7860137 -0.8061559 -0.1576472 -0.812076 0.561854 6513003 male
1.406805 0.6358129 -0.7397158 0.229202 0.5565338 0.7985841 7369345 male
1.660719 0.567637 -0.8653219 -0.01495785 -0.04026177 0.9990771 657674 male
1.311154 0.6023599 -0.8108354 -0.8924126 -0.2675617 0.3633326 4803673 male
1.463002 0.789991 -0.7675368 -0.1427755 -0.8250372 0.5467438 8288903 male
1.751871 0.4886479 -0.8689631 0.4735967 -0.4011777 0.784068 526600 male
1.394523 0.7426232 -1.064112 -0.0447849 0.1774072 -0.9831181 12369613 male
1.601413 0.8688504 -0.691633 0.5341121 -0.6664923 0.520108 12630483 male
1.800038 0.9331778 -0.5611153 0.9311668 -0.3622913 -0.04090649 15713989 male
1.55459 0.6573644 -0.9476373 0.5618065 0.738166 0.3734762 6515834 male
1.388812 0.3747183 -0.6586673 -0.8773241 -0.06638969 0.475284 526600 male
1.811505 0.9957256 -0.5860289 0.9623679 0.1952579 -0.1890039 16040647 male
1.530309 0.8895206 -0.9695366 0.3022614 0.1855601 -0.9349896 6643558 male
1.433899 0.7065375 -0.8786267 0.4117954 0.1035854 0.9053699 7435401 male
1.33166 0.849366 -0.920934 -0.630194 0.7049415 -0.3254427 9078674 male
1.416108 0.5267905 -0.7427558 -0.3590339 -0.6977992 -0.6198153 7501446 male
1.477181 0.5878214 -1.049559 0.1590472 -0.4420906 -0.882757 8093324 male
1.537949 0.8677283 -0.6152617 0.4665024 -0.8845116 0.003854811 11051697 male
1.383522 0.2529353 -0.7098369 -0.09831373 -0.992622 0.07096501 526600 male
1.540249 0.9323469 -0.6085698 0.2272088 0.4099813 0.8833411 6447722 male
1.699234 0.8803747 -0.6372958 -0.4030439 -0.8876895 0.2226275 13283757 male
1.420521 0.6781401 -0.81588 0.7780848 0.5655313 0.2734199 9015969 male
1.63241 0.2557376 -0.8488703 -0.2664999 0.2278146 0.9365246 526600 male
1.710127 0.6250291 -0.9813207 -0.8356202 -0.4649174 0.2925588 856077 male
1.722792 0.4361464 -0.8828808 0.4353747 -0.4597979 0.7739734 526600 male
1.632747 1.013966 -0.7501894 0.02277318 0.955391 0.2944646 15722744 male
1.520299 1.007381 -0.7563964 -0.128879 0.9564576 -0.2618763 11644610 male
1.49878 0.8005041 -0.7444898 -0.1005431 -0.8802863 0.4636671 10131625 male
1.722496 0.5340689 -0.8486564 -0.2339012 -0.1590945 0.9591554 921102 male
1.454365 0.9045257 -0.64508 -0.7590702 0.5081074 -0.4069883 8355212 male
1.272549 0.6864886 -0.9348966 -0.9564742 -0.2040265 -0.2086392 3883075 male
1.673022 0.9013408 -0.7528284 0.7438042 -0.4999065 0.4436765 12630993 male
1.444086 0.419562 -0.5948858 -0.08347866 -0.4895554 0.867967 526600 male
1.491541 0.8280584 -0.6097539 0.6307604 -0.4601088 0.624853 16645115 male
1.713424 0.8658558 -0.6043184 -0.5772552 -0.8149045 0.05202955 9730419 male
1.749066 0.9399229 -0.8487545 0.7784916 0.6027186 -0.1751598 6840944 male
1.382733 0.7172274 -0.8500969 0.4397072 0.772478 0.4581869 6580602 male
1.407869 0.5418121 -0.6862867 -0.9823377 -0.1292518 0.1353015 591370 male
1.603949 0.6162725 -0.942162 0.7927632 0.5907891 0.1499825 6186095 male
1.645089 1.021863 -0.7869359 0.1825923 0.9825823 -0.03452808 13091282 male
1.558175 1.004103 -0.8390227 -0.3551495 0.91763 -0.1783929 11577793 male
1.651569 0.7675515 -0.9610084 -0.9811597 -0.1699556 0.09187347 1579032 male
1.797149 1.028587 -0.5960302 0.8211325 0.505689 -0.2646126 3486773 male
1.347656 0.8106981 -0.9978158 -0.6480129 0.5832993 -0.4897357 7039864 male
1.696645 0.9817637 -0.5220078 -0.516533 -0.1800527 0.8371228 14207184 male
1.658224 0.5866778 -0.9269325 0.8232753 0.5368765 -0.1843405 1183250 male
1.749485 0.8866202 -0.851456 0.9389746 -0.3213006 -0.1228518 7695731 male
1.528794 0.6792504 -0.9914849 0.6454388 0.7405487 -0.1870729 1907745 male
1.368265 0.7893306 -1.040088 -0.5011296 0.4804433 -0.7197523 13422818 male
1.625542 0.8688082 -0.8871864 0.7164252 -0.3778055 -0.5865133 8881290 male
1.294948 0.7797515 -0.9548436 -0.7670785 0.4132943 -0.4906918 7107452 male
1.607027 0.6051055 -0.9090292 0.5321825 0.6005586 0.5967505 8685973 male
1.384021 0.5498052 -0.8562592 0.09329815 -0.814819 -0.5721584 6581626 male
1.504059 0.7727117 -0.8681353 0.4374159 -0.8787211 0.1910928 13421026 male
1.366425 0.739475 -0.680894 0.328058 -0.2060858 -0.9219038 9932437 male
1.695565 1.029859 -0.5255325 -0.4628909 0.3544721 0.812454 526600 male
1.351925 0.5589088 -0.7589063 -0.8904586 -0.2529805 0.3782649 6383474 male
1.602857 0.9905967 -0.6654239 0.1286926 0.8184983 0.5599096 6051932 male
1.707495 0.9810408 -0.7676018 0.9596221 0.09964714 0.2630511 4539469 male
1.403556 0.6512101 -1.073092 -0.008829445 -0.2053639 -0.9786459 9409952 male
1.290921 0.7260713 -0.8554395 -0.8338372 0.1496437 0.5313401 4936026 male
1.606683 0.3186015 -0.9507631 -0.5856672 0.03806061 0.8096575 526600 male
1.749913 0.5337034 -0.9385836 0.3167293 0.165525 -0.9339615 526600 male
1.351387 0.6806076 -1.052267 -0.6049345 -0.1666454 -0.7786421 9408927 male
1.452603 0.5403622 -0.7799361 0.6767766 -0.3865786 -0.6265224 3027248 male
1.619164 0.2836453 -1.017894 -0.02967569 -0.7309375 -0.6817989 526600 male
1.697507 0.8569959 -0.8300332 -0.5888125 -0.5699139 0.5731474 855053 male
1.366576 0.2633646 -0.7384904 -0.01387498 -0.999269 -0.03562268 526600 male
1.716589 0.4040342 -0.905597 0.803297 -0.517486 0.2948259 526600 male
1.600992 0.3430271 -0.9792428 -0.1944138 0.2899889 -0.9370751 526600 male
1.390117 0.7516273 -0.6556512 0.913412 -0.2913644 -0.2842276 12623522 male
1.337806 0.5758356 -0.641897 0.6002742 0.2885214 -0.7459398 13740207 male
1.517522 0.9569027 -0.6245301 -0.1753686 0.5992362 0.7811285 9013906 male
1.75735 1.059364 -0.549199 0.374885 0.8194544 0.4335386 526600 male
1.622469 0.8297499 -0.7953463 0.4180179 -0.8188277 0.3934237 10787219 male
1.36259 0.6792563 -1.060592 -0.4554757 -0.1089245 -0.8835595 8751774 male
1.721725 0.5321157 -0.9418575 -0.1311096 0.3098517 -0.9417018 526600 male
1.358177 0.7638181 -0.8214644 0.19809 0.156315 0.9676393 4471364 male
1.454252 0.866831 -0.5977483 -0.5301216 0.1750644 0.8296527 15911111 male
1.649717 0.9821037 -0.6912647 -0.2881792 0.9514762 0.1079161 15712447 male
1.442474 0.3778958 -0.6752605 0.8716881 -0.3834641 -0.3051476 526600 male
1.355009 0.8806202 -0.9110565 -0.7467801 0.5447875 -0.3814788 12696273 male
1.337102 0.7071368 -0.6137014 -0.3968487 0.09039064 0.9134225 14465207 male
1.472494 0.9373521 -0.627962 -0.7883911 0.572538 0.2250325 9078162 male
1.448007 0.3887261 -0.6767112 0.7965773 -0.3232426 -0.5108609 526600 male
1.528682 0.6553027 -0.9290074 0.2608065 0.6141578 0.7448424 8883616 male
1.428042 0.5184244 -0.6334109 -0.7664713 0.5203629 -0.3764893 526600 male
1.511498 0.5357103 -0.6621107 0.9415908 -0.2623896 -0.2110887 2368548 male
1.813105 0.9903306 -0.5819536 0.9773978 0.1506618 -0.1483058 15713222 male
1.292354 0.8109279 -0.9035291 -0.8753335 0.4755252 -0.08756199 9077650 male
1.640178 1.005403 -0.7313919 0.04868932 0.9381002 0.3429246 13618399 male
1.4744 0.8685585 -0.5892146 -0.1467781 -0.08091693 0.9858543 8288639 male
1.531084 0.5929955 -0.9039739 -0.2159404 0.05440299 0.9748898 4146762 male
1.781808 0.5395443 -0.973464 0.9064866 0.2957187 0.3013843 16632015 male
1.398826 0.6819228 -1.073697 -0.0376654 0.0648684 -0.9971827 4607061 male
1.596031 0.6162397 -0.9223582 0.6231447 0.6109254 0.4883244 7106172 male
1.368561 0.6042222 -0.730113 -0.5757831 0.1843225 0.7965544 3224898 male
1.736164 0.5367611 -0.94043 0.07067421 0.27044 -0.9601393 526600 male
1.754329 0.9823697 -0.5072523 0.04538637 -0.02497222 0.9986573 9275016 male
1.425637 0.4942486 -0.5890607 -0.7899393 0.1191018 0.601507 526600 male
1.538687 0.5313002 -0.9755445 -0.3772505 -0.8384829 -0.3932284 8817822 male
1.582918 0.9552154 -0.6396455 0.4563013 -0.1653044 0.8743361 9998751 male
1.710467 0.4967904 -0.9472123 -0.1499276 0.1229585 -0.9810214 526600 male
1.641616 0.3396966 -0.9741 0.3616574 -0.003535683 -0.9323043 526600 male
1.48962 0.9198501 -0.589852 -0.4895921 0.3562954 0.7958349 7827323 male
1.444745 0.386726 -0.6804441 0.7650616 -0.2791989 -0.5802833 526600 male
1.670287 0.6940857 -0.9819874 -0.8979022 -0.4371233 0.05191225 1052944 male
1.587415 0.833782 -0.7620221 0.4741832 -0.8694218 0.1387654 14406504 male
1.649224 0.369757 -0.9130634 -0.3116241 0.05556612 0.9485794 526600 male
1.433402 0.8697351 -1.003872 -0.2749117 0.4136063 -0.8679594 6709358 male
1.703858 1.027328 -0.6553643 -0.1578841 0.4568128 -0.8754396 4078653 male
1.527045 0.8930247 -0.5804543 0.2994824 -0.07600107 0.95107 10262950 male
1.730461 1.035259 -0.6505638 0.131686 0.4808609 -0.8668514 7367280 male
1.795524 0.888601 -0.5614735 0.1238515 -0.2452251 0.9615225 11961212 male
1.360309 0.5408833 -0.776362 -0.8267442 -0.5604885 -0.04844281 6448755 male
1.449597 0.4467939 -0.5793033 -0.2174602 -0.3580159 0.9080393 526600 male
1.387188 0.8444244 -0.7812655 -0.7945635 -0.1217314 0.5948531 7434361 male
1.452203 0.9489543 -0.854625 -0.3230238 0.8334684 -0.4483145 10262180 male
1.31773 0.6320081 -0.7902777 -0.8039786 0.0381102 0.5934358 3947845 male
1.39322 0.5891356 -1.034475 -0.2347424 -0.8798274 -0.4132792 6250863 male
1.674059 1.049273 -0.5643194 -0.7213162 0.6177975 0.3130961 526344 male
-2.545351 0.3693241 -1.328152 0.9705489 -0.0231211 -0.2397926 6577244 male
-2.586653 -0.03317404 -1.373342 -0.4992937 -0.1198793 -0.8580996 2105121 male
-2.67005 -0.1783061 -1.396972 0.7671222 -0.05561078 0.6390862 1974566 male
-2.57617 0.1120175 -1.239835 0.04853454 -0.2956998 0.9540473 2303531 male
-2.551791 0.3251878 -1.337103 0.9118788 0.1234406 -0.3914585 7564651 male
-2.690718 -0.1987266 -1.480242 0.4750732 -0.2117394 -0.8540914 2500651 male
-2.543889 0.6396415 -1.310384 0.5677845 0.5703663 -0.5935514 7497060 male
-2.526557 0.6303595 -1.302659 0.6103872 0.5360358 -0.5831751 9011838 male
-2.599913 0.8375177 -1.39407 -0.1823577 0.0826806 -0.9797499 12759720 male
-2.657159 0.1352831 -1.471383 0.6363827 0.09514627 -0.7654833 4212045 male
-2.538685 -0.2266504 -1.2652 0.2285628 -0.09825652 0.9685582 1842977 male
-2.602727 0.8980173 -1.389262 -0.257171 0.3893267 -0.8844704 5326917 male
-2.758399 0.4225122 -1.327177 -0.9857963 -0.1009609 0.1342119 6576467 male
-2.571951 0.4620261 -1.385107 0.6495987 0.09988686 -0.7536873 7892841 male
-2.629949 0.330184 -1.217645 -0.1778149 0.4041512 0.8972424 7629416 male
-2.58664 -0.09287719 -1.346152 -0.9713172 -0.1910931 -0.1415152 2169889 male
-2.751269 0.04729209 -1.389771 -0.9236671 -0.2422962 0.2968704 2500397 male
-2.51036 0.6374857 -1.255559 0.4613642 -0.4599179 -0.7586955 5064773 male
-2.51257 -0.4483959 -1.409239 -0.4169742 0.7418727 -0.5251262 2368292 male
-2.529707 0.5525377 -1.253698 0.9475828 -0.2159547 0.2354792 3552558 male
-2.578052 0.7269017 -1.331401 0.8827169 -0.4094489 -0.2305706 14929090 male
-2.518716 0.1541299 -1.366732 0.651203 0.1768048 -0.7380209 3685184 male
-2.642663 -0.4249341 -1.492859 0.9407667 0.1945599 0.2776771 2040095 male
-2.520406 0.7146602 -1.71573 0.8097707 -0.2452585 0.5330291 15848912 male
-2.700251 -0.3236171 -1.437889 0.98913 0.1421453 -0.03764278 2434860 male
-2.744699 0.5788913 -1.259429 -0.5723387 -0.02931557 0.8194933 8486261 male
-2.655622 0.6391507 -1.203503 -0.5927618 0.3009794 0.7470242 9078146 male
-2.53107 0.4809197 -1.272867 0.9779932 -0.0879929 0.1891741 3617327 male
-2.647161 0.08152089 -1.465149 0.774856 -0.005642924 -0.6321127 3883079 male
-2.46196 0.6064473 -1.227866 0.4671598 -0.6199458 0.6304199 8092019 male
-2.705224 0.2989333 -1.250551 -0.5810186 0.2657618 0.7692778 11247517 male
-2.667537 0.5982289 -1.428242 0.2668629 0.1398905 -0.9535277 6840159 male
-2.511372 -0.2300479 -1.285483 0.8162547 -0.1367724 0.5612681 2434342 male
-2.481079 0.646341 -1.298581 -0.5231301 0.5099537 -0.6828487 7958384 male
-2.56462 0.73895 -1.352659 0.2926757 -0.9223499 0.2522133 11182484 male
-2.775942 0.7083973 -1.416939 -0.8883286 0.4539568 -0.06925195 9405311 male
-2.531381 0.1772834 -1.250211 0.6678805 9.156314E-05 0.7442687 2697257 male
-2.543898 -0.04974198 -1.28795 0.1561078 0.007509654 0.9877117 1776928 male
-2.653187 -0.06906182 -1.489463 0.5672537 -0.2664013 -0.7792649 4211528 male
-2.708957 0.6385384 -1.25006 -0.4123482 0.2440771 0.8777218 10129801 male
-2.744978 0.3996985 -1.395251 -0.7945026 0.08425871 -0.601387 3092012 male
-2.564937 0.7246682 -1.669164 0.48032 0.744034 0.4644418 16505032 male
-2.624285 0.9179949 -1.369796 -0.4313676 0.5665308 -0.7021147 3222825 male
-2.770533 0.2068203 -1.307261 -0.8509789 -0.1890658 0.4899892 3554110 male
-2.531929 0.8789012 -1.286695 0.9070116 0.06367574 0.4162638 5919050 male
-2.658072 -0.1351436 -1.443521 0.9655812 -0.2341385 -0.1132807 2959921 male
-2.720624 0.728012 -1.478498 -0.3616719 0.8534041 -0.3753596 6644316 male
-2.749913 0.1474322 -1.4617 -0.7013203 0.04515983 -0.7114146 2171685 male
-2.783307 0.2846962 -1.349679 -0.9992034 0.0393781 0.006482065 5854287 male
-2.699548 0.6089048 -1.428288 -0.1826273 -0.1830467 -0.9659924 5459531 male
-2.693252 0.3408856 -1.257147 -0.5512953 0.3315457 0.7656052 9800324 male
-2.645925 -0.09534637 -1.44987 0.915549 -0.394324 -0.07923895 2631464 male
-2.531837 0.2218452 -1.252448 0.7245687 0.08383709 0.6840847 2303014 male
-2.666258 0.3049222 -1.431689 0.2114328 0.05844487 -0.9756436 6642007 male
-2.395006 0.5301189 -1.383804 -0.8741716 -0.1053778 -0.4740463 15849944 male
-2.559999 0.9193718 -1.26411 0.633746 0.5203681 0.572349 4340793 male
-2.55299 0.007397752 -1.272292 0.2979077 -0.2094603 0.9313311 3156784 male
-2.57699 0.6975316 -1.304157 0.9837431 -0.1615628 -0.07840365 4866361 male
-2.658588 0.7048047 -1.34934 -0.2317032 0.2527106 -0.9393889 4933179 male
-2.731154 0.1634604 -1.301772 -0.190131 -0.6648311 0.7223918 3947326 male
-2.520608 0.2541355 -1.308064 0.9029112 0.3159182 -0.2914577 7959409 male
-2.724351 -0.4016085 -1.418045 0.7963139 0.06632948 0.6012361 2434853 male
-2.740189 -0.1504319 -1.402086 -0.7210302 0.1860966 0.6674458 3092532 male
-2.641811 0.4615903 -1.426196 0.1879747 0.03848693 -0.9814197 7103585 male
-2.655401 0.139425 -1.268975 -0.7767827 -0.4921611 0.3929203 5724511 male
-2.760783 -0.4324788 -1.459463 -0.1313494 -0.9866064 0.09672189 592649 male
-2.703425 0.6667142 -1.421109 0.4764923 -0.3201877 -0.818801 7629927 male
-2.497379 -0.4569511 -1.407189 0.3352568 -0.9286942 0.1585244 2698289 male
-2.686193 -0.2782106 -1.427507 0.9748877 -0.2226736 -0.003275275 2236963 male
-2.778659 -0.4007944 -1.410262 -0.9254127 0.3517814 -0.14093 3027254 male
-2.422848 0.5425799 -1.332806 -0.6447129 -0.7626616 -0.05189252 12167334 male
-2.320697 0.5608685 -1.514728 -0.4076827 0.910702 -0.0664587 16772062 male
-2.538733 0.5652712 -1.193744 0.4781019 -0.8332369 0.277732 2697257 male
-2.579615 0.9429889 -1.345146 0.1963512 0.9198549 -0.339578 10786699 male
-2.616736 0.5988752 -1.394123 0.7280731 0.2527722 -0.6371939 11315363 male
-2.624017 0.4748541 -1.420225 0.4020951 0.1123414 -0.90868 6709339 male
-2.669266 -0.1281901 -1.405571 0.7357495 0.1093989 0.6683596 2105120 male
-2.530987 0.304879 -1.301051 0.9307933 0.3051764 -0.2012252 5262152 male
-2.427965 0.632968 -1.261621 0.8738316 0.246254 0.4192584 11509660 male
-2.638783 0.7541506 -1.260218 -0.4188136 0.1444208 0.8965144 16380126 male
-2.534281 -0.2712865 -1.336367 0.2749963 -0.1937946 -0.9417117 2565671 male
-2.646753 0.2985573 -1.212085 -0.296998 0.2201051 0.9291642 7563619 male
-2.327853 0.5632977 -1.406176 0.700868 0.698999 0.1420732 16374221 male
-2.49172 0.655232 -1.185037 0.3660647 0.2539542 0.8952677 10460310 male
-2.523724 -0.2797327 -1.329364 0.6217035 -0.2152853 -0.7530851 2434600 male
-2.637226 0.1335091 -1.443674 0.8937718 0.04171994 -0.4465778 3223607 male
-2.577934 -0.1403938 -1.282936 -0.6949419 0.2977543 0.6545216 3158325 male
-2.563009 -0.05684488 -1.378083 -0.2869364 -0.243788 -0.9264098 2433573 male
-2.6003 0.8919326 -1.392569 -0.2322936 0.3261463 -0.9163343 4932162 male
-2.606142 0.2892618 -1.209578 0.1918415 0.02446761 0.9811211 5919826 male
-2.722934 0.7037253 -1.287274 -0.5504554 0.6048762 0.5754337 10920860 male
-2.481045 0.6837071 -1.25774 0.1720925 0.6106786 -0.7729528 8090477 male
-2.630158 0.09108645 -1.402649 0.9915065 -0.1221823 0.04457182 3156784 male
-2.473807 0.7573014 -1.806398 -0.411886 0.8492707 -0.3302867 15256252 male
-2.576932 0.4374098 -1.390688 0.6374772 0.06160671 -0.7680024 7235686 male
-2.637917 -0.04812981 -1.438782 0.9651939 -0.2573055 0.04684979 2434089 male
-2.501006 -0.1097144 -1.322426 0.9595025 0.04273159 0.2784408 2698288 male
-2.752947 -0.2025909 -1.429108 -0.996406 -0.06428751 0.05515879 2302499 male
-2.524318 0.8631943 -1.362643 0.9354017 0.1311229 -0.3283761 11574671 male
-2.52471 -0.1426189 -1.275217 0.4958855 0.2329605 0.8365569 2303014 male
-2.68404 -0.02337321 -1.378775 -0.08144432 -0.1650142 0.9829228 2698289 male
-2.500736 0.6621516 -1.269437 0.3571391 0.2371814 -0.9034362 7761000 male
-2.712446 -0.186929 -1.385593 -0.1849875 -0.05689031 0.981093 2434085 male
-2.764043 -0.3852566 -1.440014 -0.918661 0.07540208 -0.3877846 2697257 male
-2.486975 0.6532463 -1.184648 0.4064676 0.1570207 0.9000716 11182745 male
-2.582838 -0.246584 -1.325805 -0.8417617 -0.2132333 -0.4959527 1775131 male
-2.543293 0.7305272 -1.693069 0.4919353 0.6399505 0.5903078 16045254 male
-2.697503 0.5032305 -1.423813 -0.2235375 0.09963533 -0.9695897 5263176 male
-2.663756 -0.1986947 -1.420026 0.9764916 -0.1864763 0.1081243 1974050 male
-2.763232 0.3432496 -1.33668 -0.8275373 0.5127224 0.2286872 7694694 male
-2.674239 0.8742533 -1.266629 -0.8908678 0.08102392 0.4469789 4932413 male
-2.489609 0.6867017 -1.255667 0.09836824 0.4893602 -0.8665162 9275261 male
-2.674658 0.8987496 -1.315218 -0.9488522 0.2621527 -0.1759425 4538941 male
-2.634855 0.8574212 -1.378904 -0.6559061 0.051849 -0.7530597 8089452 male
-2.610497 -0.005772427 -1.299031 -0.8532255 -0.2430649 0.461439 3223865 male
-2.550172 -0.17425 -1.262728 -0.04766038 0.09320606 0.9945056 2565932 male
-2.544477 0.3436147 -1.298725 0.9996007 0.02243616 0.01718849 4736831 male
-2.674724 0.5860348 -1.20599 -0.7181331 0.04118563 0.6946863 9077881 male
-2.517012 -0.04212821 -1.305787 0.8730274 -0.05960362 0.4840154 2697265 male
-2.775765 0.177321 -1.34166 -0.9046882 -0.329663 0.2699296 2632496 male
-2.60291 0.9166935 -1.239689 0.06895584 0.5063218 0.8595834 4406587 male
-2.596175 0.7922917 -1.394046 -0.1244967 -0.1109627 -0.9859961 16443613 male
-2.688434 0.1948404 -1.47348 0.1834197 0.3181528 -0.930127 3224375 male
-2.602553 0.2150508 -1.42083 0.2438875 -0.4850992 -0.8397607 2696233 male
