# .PCD v0.7 - Point Cloud Data file format
VERSION 0.7
FIELDS x y z normal_x normal_y normal_z rgb label
SIZE 4 4 4 4 4 4 4 4
TYPE F F F F F F U U
COUNT 1 1 1 1 1 1 1 1
WIDTH 247
HEIGHT 1
VIEWPOINT 0 0 0 1 0 0 0
POINTS 247
DATA ascii
1.484082 1.030709 -0.7124133 0.0417195 -0.1725322 0.9841199 9144216 male
1.449808 0.6181692 -0.8201959 0.7992982 -0.3357169 -0.4984142 526600 male
1.543204 0.4828931 -0.9097984 -0.5254589 -0.3208037 0.7880214 526344 male
1.382784 0.7775518 -0.7274196 -0.8547024 -0.03244557 0.5181032 3488065 male
1.492967 1.016178 -0.714353 0.1790255 -0.02949125 0.9834023 9078680 male
1.538678 0.5837241 -0.9536849 -0.7554351 0.3583765 -0.548529 526600 male
1.570526 1.20146 -0.7432954 0.6129873 0.2519667 0.7488387 14348754 male
1.431563 1.385381 -0.7340118 0.3334731 0.8035356 0.4930784 15261682 male
1.59408 1.551978 -0.7840967 0.9742427 -0.009061587 -0.2253196 15780031 male
1.557314 0.7928507 -0.8026032 -0.1828012 -0.2737657 0.9442648 4343379 male
1.327254 0.4717443 -0.8399737 -0.8141854 -0.04581953 -0.5787941 526600 male
1.590405 1.595301 -0.7741369 0.9452555 0.3262323 -0.008026958 16040647 male
1.596195 1.106516 -0.881353 0.7858354 0.0495488 -0.6164475 3223601 male
1.549332 1.105975 -0.7173739 0.5941298 0.00104664 0.8043684 11644094 male
1.377714 0.9375793 -0.7842218 -0.9802613 0.1597655 0.1164601 3027255 male
1.431689 0.6477406 -0.8356456 0.1917775 -0.08732622 -0.9775457 855055 male
1.56119 0.7889225 -0.9373918 -0.1146138 0.01100041 -0.9933493 12437462 male
1.381497 1.250393 -0.7170593 0.9770254 -0.2086456 0.04345408 2500653 male
1.370192 0.2376058 -0.7359831 -0.06887046 -0.9944672 0.07932072 526600 male
1.378353 1.267779 -0.7322488 -0.4975678 -0.4579514 0.7366864 657930 male
1.525713 1.418557 -0.7513327 0.211689 -0.3994648 0.8919728 16570323 male
1.519342 0.8377839 -0.7347058 0.8185103 -0.34135 0.4620833 5856105 male
1.693002 0.2607224 -0.8462055 0.1476656 -0.9792873 -0.1385326 526600 male
1.639939 1.061165 -0.9411643 -0.6381526 -0.373495 0.6732479 723723 male
1.613625 0.34102 -0.9470513 0.8877367 0.3681865 0.2763368 526600 male
1.448665 1.271887 -0.8965463 -0.7755478 0.01816309 -0.6310275 12302539 male
1.392207 1.323562 -0.8508148 -0.6372701 0.2093954 -0.741647 13748186 male
1.545402 1.201549 -0.7214946 0.63293 0.2382392 0.7366422 12051622 male
1.526422 0.6982442 -0.854413 -0.7748984 -0.1662591 0.6098282 1118225 male
1.319947 1.276692 -0.7158203 -0.9392598 0.1670665 0.2998 15118247 male
1.429564 0.9825327 -0.8909936 -0.5969572 0.25554 -0.7604876 6975610 male
1.551643 1.371429 -0.7832857 0.6523674 0.4705222 0.5941596 15197429 male
1.352462 0.4539238 -0.7706518 -0.2767254 -0.1705701 0.9456896 526600 male
1.369996 1.340889 -0.6924497 0.2079203 -0.2045447 0.9565201 14538990 male
1.527397 1.471692 -0.706394 -0.2159879 -0.2993064 0.9293895 12689815 male
1.555974 1.335621 -0.9472146 -0.4482813 -0.4633605 -0.7644219 1973793 male
1.382918 0.8800347 -0.7370571 -0.8974615 0.09270636 0.4312404 2828851 male
1.346915 0.5896894 -0.7967343 -0.9025912 0.3448343 0.2577175 526600 male
1.613647 0.5965974 -0.8726737 0.5037447 -0.5876897 0.6331367 526600 male
1.448548 1.303161 -0.8914605 -0.7998409 0.1724627 -0.5749011 12629706 male
1.475008 1.087086 -0.8833332 -0.659757 -0.1037712 -0.7442796 11116209 male
1.685983 1.07704 -0.9518455 0.9198477 0.3912619 0.0281826 16042440 male
1.534871 1.529124 -0.8616862 0.3842956 -0.2964954 -0.874304 12168624 male
1.568452 0.9766732 -0.9329414 0.3654105 0.1078765 -0.9245744 5133408 male
1.467299 1.587815 -0.7400716 -0.715905 0.1936286 0.6708114 11314087 male
1.56831 0.5577458 -0.8887085 -0.1060533 -0.2945945 0.9497194 526600 male
1.635471 1.292032 -0.9254906 0.9559974 0.2548983 0.1452442 15189440 male
1.640108 0.785714 -0.9014779 0.8518814 0.002160802 -0.5237302 7303552 male
1.536592 0.9154114 -0.9488246 0.02554426 0.08402979 -0.9961357 9080219 male
1.60898 1.227554 -0.8693536 0.9673235 -0.04659978 -0.249226 3750721 male
1.393158 0.9825916 -0.8605826 -0.7259495 0.2611898 -0.6362211 6909825 male
1.572821 0.6599059 -0.837579 -0.2548651 -0.3543371 0.899716 987927 male
1.399558 0.9437724 -0.7222694 -0.8024559 0.1353815 0.5811511 7435905 male
1.624915 0.9860078 -0.8467132 0.9423862 0.1456341 0.3011628 9143694 male
1.330331 1.135125 -0.7053199 0.8906388 0.2444167 0.383436 14397104 male
1.467727 1.61719 -0.7581572 -0.6446469 0.5670164 0.51276 723723 male
1.387947 0.722976 -0.824748 -0.7172804 0.03466589 -0.6959218 7303808 male
1.430509 1.423375 -0.7896171 -0.3645945 0.889301 0.2760699 13678002 male
1.527104 1.377123 -0.924062 -0.1955909 0.5750827 -0.7943701 11708858 male
1.51275 0.8788429 -0.9383217 -0.3305911 -0.397246 -0.8560988 6843516 male
1.409883 0.9176982 -0.7078015 -0.5999376 0.1147409 0.7917761 3421497 male
1.581896 0.2975532 -0.9466675 -0.8092901 -0.06432332 0.5838767 526600 male
1.604201 0.483216 -0.9764502 0.6557314 -0.04290038 -0.7537744 526600 male
1.533645 1.25601 -0.717216 0.8212122 -0.02517842 0.5700672 11117240 male
1.451656 0.8003193 -0.8496242 0.02046692 -0.1287167 -0.9914702 5989227 male
1.62198 0.2750118 -0.9963151 0.2916591 -0.7273997 -0.6211479 526600 male
1.637304 1.356141 -0.8810884 0.806577 0.04091929 0.5897112 13484750 male
1.351364 0.2472413 -0.7760376 0.1009976 -0.9915547 -0.08135565 526600 male
1.599939 0.384804 -0.9348663 0.5452522 0.01243173 0.8381799 526600 male
1.558413 0.3275474 -1.005998 0.3571322 0.3520028 -0.8651882 526600 male
1.328135 1.161449 -0.7182374 0.9265615 0.2522266 0.2790438 16043211 male
1.292083 1.097107 -0.7413087 -0.4651815 -0.5184593 -0.7175 13474726 male
1.460138 1.252741 -0.6881411 -0.2041759 -0.3342585 0.9200996 7170933 male
1.562051 1.632401 -0.7604407 0.5518108 0.8056305 0.2155556 526600 male
1.58664 1.267317 -0.76377 0.5688086 0.09525587 0.8169352 16446711 male
1.511895 1.26517 -0.6959566 0.5229266 0.04337588 0.8512732 15723519 male
1.534018 0.5930602 -0.9200594 -0.978425 0.1861921 0.08953711 526600 male
1.404013 1.033845 -0.7377681 -0.6684512 0.4172092 0.6157187 8683661 male
1.344731 1.285016 -0.6935408 -0.2255268 0.2774011 0.9339092 15249068 male
1.470306 1.447079 -0.8333145 -0.6424572 0.1837002 -0.7439778 15643044 male
1.375912 0.38689 -0.8033665 0.927237 -0.1935326 0.320588 526600 male
1.402129 1.043242 -0.8301279 -0.6719954 0.5432701 -0.5032692 11643836 male
1.313508 1.064471 -0.6596393 -0.2854657 0.3421108 0.8952483 15911629 male
1.407936 1.342419 -0.7006556 0.4605246 -0.6260533 0.6292648 1250849 male
1.381523 0.3960567 -0.8101715 0.9356983 -0.2642005 0.2338092 526600 male
1.535911 0.8011609 -0.8063251 -0.4197454 -0.2744978 0.8651385 3881535 male
1.340305 0.5403333 -0.7789393 -0.7405257 0.1740141 0.6491077 526600 male
1.424098 0.6870719 -0.7213871 -0.08189115 -0.3970955 0.9141165 7634057 male
1.59388 1.579484 -0.7814173 0.9793766 0.1602124 -0.1230995 13348791 male
1.393294 0.9868249 -0.7361834 -0.860698 0.1386164 0.4898821 5460571 male
1.485479 1.40935 -0.8681253 -0.519442 0.6878918 -0.5069368 12632016 male
1.336303 1.359624 -0.7570475 -0.8793374 0.2174293 -0.4236628 7038579 male
1.548621 0.7414096 -0.8236792 -0.4083488 -0.3114761 0.8580408 4145735 male
1.737445 0.9215406 -0.9764286 0.460051 -0.06531766 -0.8854867 10453889 male
1.605141 1.052631 -0.7949319 0.9602231 -0.1452845 0.2384616 9078681 male
1.567273 0.6748534 -0.8342474 -0.2765332 -0.2853542 0.9176614 5331041 male
1.39681 0.4697962 -0.795671 0.8596523 -0.2051019 0.4679007 526600 male
1.568935 0.5308853 -0.9880165 -0.03478566 0.1096497 -0.9933614 526600 male
1.499781 1.604933 -0.7231541 -0.3949609 0.4530827 0.7992009 8748925 male
1.339233 0.5317954 -0.8497989 -0.6361398 0.2030547 -0.7443755 526600 male
1.528799 0.6568095 -0.9050977 -0.9157113 -0.04494664 -0.3993151 527368 male
1.420039 1.292403 -0.7019394 -0.4023206 -0.6366264 0.6579095 592137 male
1.544661 0.5101213 -0.9798235 -0.593926 -0.02033157 -0.8042627 526600 male
1.601542 0.3225831 -0.9948984 0.5472646 0.06599353 -0.8343539 526600 male
1.4018 1.350439 -0.693219 0.5453189 -0.4098897 0.7311756 7367288 male
1.409836 0.5809817 -0.7505043 0.263238 -0.5576483 0.7872319 526600 male
1.668708 1.074656 -0.9323119 0.1166257 0.27181 0.955258 15845066 male
1.547318 1.270176 -0.7425982 0.7566069 0.02317534 0.6534593 15980019 male
1.54739 0.420871 -0.9379883 -0.7472631 -0.2542138 0.6139814 526600 male
1.50438 1.021235 -0.927617 -0.3605077 0.4327927 -0.8262715 8421003 male
1.528566 1.592327 -0.8719537 0.2889342 0.1923523 -0.937826 4933195 male
1.391282 1.340096 -0.7370667 0.4711456 -0.865033 0.1724516 526344 male
1.549762 1.612196 -0.8518178 0.5599988 0.4811981 -0.6744255 4276805 male
1.576809 1.544214 -0.7421174 0.3569859 0.1948382 0.9135641 9203051 male
1.447161 0.6943955 -0.8342959 0.3944409 -0.1066246 -0.9127144 4672854 male
1.350082 0.4858128 -0.767101 -0.4221559 -0.06571652 0.9041381 526600 male
1.458576 1.057996 -0.7077161 -0.2089387 -0.1307027 0.969155 4605772 male
1.416522 1.301491 -0.8670555 -0.4635491 0.1144643 -0.8786468 12499919 male
1.370172 0.5907347 -0.7641445 -0.6445841 0.09701935 0.7583526 526600 male
1.559062 0.9024152 -0.9449977 0.177778 0.01981798 -0.9838709 6514547 male
1.450174 1.612231 -0.8284875 -0.8142493 0.4796583 -0.3269954 526344 male
1.59221 1.502974 -0.7604254 0.9810911 -0.1604743 0.1082044 16236730 male
1.618044 0.8657067 -0.8011485 0.5784643 0.0528943 0.813991 6712703 male
-2.414619 0.412774 -1.411154 0.9544655 -0.2899416 -0.07021153 6708830 male
-2.463692 0.01207676 -1.424572 -0.3443559 -0.09478936 -0.934042 2106151 male
-2.623779 -0.2821469 -1.457837 0.900911 -0.07565209 0.4273597 2302246 male
-2.455782 0.1085133 -1.292397 0.3450627 -0.1724949 0.9225928 2697257 male
-2.433474 0.3534823 -1.423164 0.9221769 -0.2838887 -0.2626731 8090995 male
-2.544535 -0.1640565 -1.503805 0.9255051 -0.3703184 0.07940322 2500138 male
-2.667845 0.2279979 -1.381753 -0.841397 -0.1628941 0.5152832 3618875 male
-2.59814 0.3814245 -1.50031 -0.5620744 -0.04597729 -0.8258079 2697257 male
-2.361498 0.847574 -1.452689 -0.3228386 0.3222119 -0.8899185 13153965 male
-2.528408 -0.06417057 -1.477377 0.4989903 -0.1994803 0.8433367 1710619 male
-2.370828 -0.2347549 -1.319288 0.726861 -0.08045612 0.682056 2170913 male
-2.347698 0.8835658 -1.441854 -0.1607143 0.5185685 -0.8397962 9732475 male
-2.591593 0.5810747 -1.491886 -0.9499886 0.1313197 -0.2833322 6248022 male
-2.475169 0.3051473 -1.462148 0.7006295 -0.1693007 -0.6931493 7958377 male
-2.519482 0.2880666 -1.268011 0.1222024 -0.004349697 0.9924959 4801601 male
-2.46973 -0.02234871 -1.364065 -0.8755986 -0.3194477 0.3623267 2828851 male
-2.600427 0.1002958 -1.550577 -0.3554553 -0.01670263 -0.9345442 2565671 male
-2.37711 0.5946133 -1.266482 0.8493021 -0.1662915 -0.5010322 8683132 male
-2.418013 -0.3685904 -1.316046 -0.8299427 0.09649722 -0.5494395 2170913 male
-2.437738 0.6408285 -1.253478 -0.1582072 0.5704434 0.8059559 6446425 male
-2.339258 0.7154506 -1.409822 0.7016183 -0.7100689 0.05944845 12628392 male
-2.515163 0.1564867 -1.421665 -0.1182291 -0.1070917 -0.9871948 2499878 male
-2.632162 -0.4151006 -1.463086 -0.2325866 -0.9563335 0.1770021 526600 male
-2.34095 0.8255065 -1.82456 -0.2825771 -0.230223 -0.9312077 16573921 male
-2.614188 -0.2315483 -1.525481 -0.1975945 -0.4648427 -0.8630631 2105380 male
-2.567386 0.646083 -1.50508 -0.8528669 0.452908 -0.2597934 7497833 male
-2.485032 0.6952373 -1.348644 -0.5851357 0.7827097 0.2120892 9341315 male
-2.40048 0.532656 -1.309937 0.3356353 -0.602904 0.723779 4012342 male
-2.516897 -0.006961018 -1.4884 0.9393404 -0.1518579 0.3075373 2895408 male
-2.33663 0.2854094 -1.318412 -0.8170967 -0.09160867 -0.5691757 4340026 male
-2.598669 0.3006309 -1.292564 -0.6603632 0.2871512 0.6938767 9734787 male
-2.455714 0.7119648 -1.37247 -0.5602347 0.6737564 0.4818605 7039075 male
-2.342659 -0.1226619 -1.368665 0.9960949 0.0397186 0.07885283 3158325 male
-2.382433 0.4907067 -1.231136 0.9861245 0.1626287 0.03332794 15059644 male
-2.278986 0.7783133 -1.403682 0.9639351 -0.2654566 -0.01902837 16374736 male
-2.409493 0.7489775 -1.596535 0.2311114 0.9549969 0.1859257 6248790 male
-2.466951 0.1933676 -1.281619 0.5288936 0.0648584 0.8462064 2565673 male
-2.432229 0.5779341 -1.272526 0.3561339 -0.9344299 0.003041342 526600 male
-2.546884 0.05300727 -1.545732 0.4899733 -0.1825637 -0.8524066 3882051 male
-2.579437 0.6351935 -1.487341 -0.9361605 0.3151859 -0.1557618 6445397 male
-2.501715 0.7058477 -1.399831 -0.5145078 0.6996563 0.4957448 9935767 male
-2.375765 0.7600148 -1.765513 -0.8421741 -0.07962603 -0.5332943 15318965 male
-2.359117 0.9086962 -1.419601 -0.20563 0.7562192 -0.6211674 3551278 male
-2.655804 0.3349797 -1.411502 -0.8331439 0.4702281 0.2911304 8944507 male
-2.296419 0.8401068 -1.32587 0.7387151 -0.1574022 0.6553815 3947060 male
-2.541203 -0.002353468 -1.539059 0.480659 -0.1610987 -0.8619829 3750978 male
-2.36545 0.7716528 -1.683319 0.3668775 0.773945 0.5161494 16441296 male
-2.337539 0.7316685 -1.743249 0.593109 -0.7578464 -0.2718285 6050637 male
-2.657742 0.336715 -1.458392 -0.9056038 0.3531277 -0.2349102 5855313 male
-2.469141 0.6113996 -1.541571 -0.1184878 -0.437124 -0.8915623 5196359 male
-2.579055 0.4680038 -1.364773 -0.9263445 0.1225789 0.3561754 8025714 male
-2.615649 -0.2621036 -1.451011 0.7883568 -0.2296944 0.5707314 1710618 male
-2.471047 0.2656022 -1.285455 0.5461798 0.1267479 0.8280236 4406843 male
-2.42602 0.4392782 -1.460525 0.8741862 -0.1736347 -0.4534865 7300453 male
-2.445882 0.444979 -1.241652 -0.1201816 0.03325173 -0.992195 16572379 male
-2.321533 0.8772498 -1.30564 0.5085198 0.2753599 0.8158338 4340793 male
-2.479465 -0.01252501 -1.358667 -0.8559691 -0.3576653 0.3733533 2961461 male
-2.389119 -0.4115765 -1.39686 -0.6360934 0.4686198 -0.6130096 2499622 male
-2.454568 0.7144987 -1.48 0.5932335 0.7518667 0.2876986 5788751 male
-2.633874 0.227841 -1.523475 -0.6099662 0.1081174 -0.7850173 2236451 male
-2.466199 0.25644 -1.288828 0.6270382 0.1501712 0.7643769 6182997 male
-2.654761 -0.4067943 -1.462497 -0.2026536 -0.9399806 0.2745322 526600 male
-2.556663 -0.1718913 -1.548818 0.6367998 -0.5083773 -0.5796886 4014149 male
-2.67231 0.2259171 -1.391507 -0.8968753 -0.1544168 0.4144521 4737874 male
-2.563143 0.09608934 -1.354 -0.8883513 -0.4587808 0.01877064 3618368 male
-2.647849 -0.4117002 -1.483001 -0.7123213 -0.6634228 -0.2290608 329994 male
-2.487721 0.6840382 -1.584031 -0.8527893 -0.216831 -0.4751157 9143166 male
-2.428251 -0.3762496 -1.301801 -0.8156717 0.2031391 -0.5416775 2697257 male
-2.673296 -0.2810815 -1.465165 -0.8529804 -0.0334832 -0.5208681 1776155 male
-2.690776 -0.3241179 -1.416011 0.6036996 0.1369175 0.7853666 2303016 male
-2.432207 0.4445892 -1.224235 0.5303481 0.2646476 -0.8054147 15980489 male
-2.360176 0.2750857 -1.256394 -0.543752 -0.795451 0.267566 16307921 male
-2.393073 0.6558408 -1.282681 0.5421159 0.8249534 0.1598824 4999491 male
-2.327697 0.9228896 -1.385278 0.2217047 0.9629719 -0.1534019 4932930 male
-2.413526 0.6559646 -1.477674 0.893401 0.3650033 -0.2619305 6905434 male
-2.666633 0.2858308 -1.460782 -0.9246755 0.1134315 -0.3634679 6380633 male
-2.579325 -0.1894221 -1.551184 0.179048 -0.4942514 -0.8506806 2170913 male
-2.541284 0.4087754 -1.301257 -0.4593768 0.1000713 0.8825866 8090995 male
-2.454627 0.5880646 -1.233813 -0.9067988 -0.07333232 0.4151369 7499370 male
-2.428603 0.7337847 -1.364358 -0.7141603 0.222851 0.6635606 16240071 male
-2.365134 -0.2054002 -1.378819 0.5164779 -0.3331483 -0.7888365 2368553 male
-2.55137 0.2261387 -1.266307 -0.1179435 0.01727839 0.9928701 3027249 male
-2.438882 0.3748106 -1.17096 0.245428 -0.2463423 0.9375931 16768982 male
-2.407066 0.5975543 -1.209296 0.2195188 0.0612662 0.9736828 10656407 male
-2.359237 -0.1869455 -1.382534 0.6080374 -0.2959144 -0.7366991 2499881 male
-2.529246 -0.01773683 -1.462758 0.7687376 -0.1041934 0.6310202 1908771 male
-2.400954 -0.1025191 -1.323727 -0.1258313 0.3909203 0.9117829 2500139 male
-2.393677 0.03169912 -1.355211 0.9231369 -0.1195129 0.3654247 3158840 male
-2.345127 0.878868 -1.445201 -0.1424632 0.4810785 -0.8650248 14140091 male
-2.449722 0.3029933 -1.316927 0.9418231 0.2416808 0.2335808 5262152 male
-2.481449 0.7266344 -1.469125 0.03462164 0.9946745 -0.09707775 3815220 male
-2.380521 0.5504288 -1.269189 0.8434906 0.05312729 -0.5345105 8353909 male
-2.511148 -0.07406816 -1.503086 0.8542907 -0.3694406 0.3656517 2697257 male
-2.292253 0.9776272 -1.896402 0.6547599 -0.3007219 -0.6934379 10061187 male
-2.45592 0.422265 -1.494071 0.6082044 -0.213065 -0.7646509 6708313 male
-2.651412 -0.2964155 -1.435786 0.6674529 0.2120963 0.7138081 1841948 male
-2.365788 -0.05346813 -1.37366 0.8863942 0.1132394 0.448868 2763053 male
-2.60106 -0.1428133 -1.560037 -0.4864866 -0.05566423 -0.8719133 2170403 male
-2.275156 0.8600104 -1.360129 0.9258553 0.1347293 0.3530445 6116946 male
-2.419943 -0.07396343 -1.347635 -0.5566107 0.4543246 0.6955386 2829875 male
-2.646249 0.1316256 -1.415993 -0.7558956 -0.336908 0.5613511 3684671 male
-2.361753 0.5747758 -1.341728 0.9956616 0.07323899 -0.05739647 9471617 male
-2.626811 -0.1288312 -1.525317 -0.9108916 0.297966 -0.2854697 2565672 male
-2.737862 -0.3246718 -1.395407 -0.6447961 0.5338751 0.5470059 3224633 male
-2.383435 0.600545 -1.218825 0.6042257 -0.06776734 0.7939264 12956839 male
-2.426288 -0.2355471 -1.357947 -0.8505561 -0.232814 -0.4715423 1973278 male
-2.361994 0.7646878 -1.791855 -0.7374848 -0.2161658 -0.6398349 16640480 male
-2.394846 0.6223196 -1.448919 0.9524996 0.08102168 -0.2935649 9668228 male
-2.587115 -0.2364307 -1.484688 0.8828549 -0.4649893 0.06597275 2499881 male
-2.561642 0.6455573 -1.40836 -0.7666126 0.3796794 0.5178308 6052692 male
-2.436482 0.8505331 -1.361503 -0.9927739 0.1155143 -0.03250903 4208440 male
-2.383627 0.6193762 -1.215911 0.4278908 0.08770979 0.8995649 8684415 male
-2.419341 0.8925541 -1.37701 -0.8265184 0.5211536 -0.2127591 6511192 male
-2.317832 0.8297089 -1.446651 0.9040799 -0.01829292 -0.4269721 10785163 male
-2.49758 0.01090816 -1.345298 -0.7996302 -0.4194015 0.4297607 3026998 male
-2.361213 -0.1365567 -1.328676 0.7133621 0.1130459 0.6916181 2367780 male
-2.41773 0.4120522 -1.372912 0.9159932 -0.3755651 0.1410947 5920850 male
-2.547574 0.5909343 -1.321496 -0.9034386 0.1766416 0.3906364 9670026 male
-2.407516 0.04209484 -1.333646 0.6961579 -0.1560243 0.7007289 2237738 male
-2.651595 0.1868349 -1.51085 -0.7961737 0.001521038 -0.6050665 2697257 male
-2.369249 0.8761166 -1.293384 -0.107871 0.2889202 0.9512568 4406587 male
-2.332038 0.7930508 -1.466622 0.2163395 0.1472239 -0.9651542 16772834 male
-2.524034 0.12776 -1.439922 0.9181916 -0.1291205 0.3745028 2828846 male
-2.549152 0.31831 -1.514462 0.4464963 0.112621 -0.8876699 5526606 male
