# .PCD v0.7 - Point Cloud Data file format
VERSION 0.7
FIELDS x y z normal_x normal_y normal_z rgb label
SIZE 4 4 4 4 4 4 4 4
TYPE F F F F F F U U
COUNT 1 1 1 1 1 1 1 1
WIDTH 255
HEIGHT 1
VIEWPOINT 0 0 0 1 0 0 0
POINTS 255
DATA ascii
1.338053 0.2041653 -1.308998 0.1707535 0.9545095 0.244448 12039367 male
1.364045 0.3149934 -1.095618 -0.4625844 0.8764536 -0.1335838 7042435 male
1.73571 0.3701606 -1.230854 0.5457538 0.6812833 0.4878584 526600 male
1.408544 0.2096121 -1.064935 0.4967496 -0.6678729 0.5542433 7764103 male
1.356528 0.2043013 -1.351608 0.684263 0.4487159 0.5748374 10986423 male
1.64134 0.295464 -1.298664 0.4909817 0.1044231 -0.8648889 591113 male
1.282312 0.0629672 -1.380933 -0.5548431 -0.7109815 -0.4320351 11380921 male
1.332466 0.01406671 -1.300884 -0.3660154 -0.9292938 0.04945436 5855073 male
1.310699 0.5780191 -1.522874 0.4558735 -0.303683 -0.8366337 12161938 male
1.531725 0.2491157 -1.271574 -0.4785573 0.8679354 -0.1329319 132619 male
1.476147 0.3930252 -0.964369 0.7764459 0.6273416 0.05978465 526600 male
1.273303 0.7008961 -1.484344 -0.008331211 0.9987187 -0.04991639 526600 male
1.336856 0.3402862 -1.385311 0.7747652 0.2251359 0.5908068 15644654 male
1.409313 0.1211409 -1.348969 0.201669 0.7930385 -0.5748212 12633553 male
1.303388 0.05936372 -1.171559 -0.4557194 -0.6017461 0.6559127 7304064 male
1.411089 0.3772891 -1.028615 -0.04477626 -0.5326323 -0.8451614 526600 male
1.530272 0.1023199 -1.326987 0.5517856 -0.3114299 -0.7736561 4145479 male
1.186491 0.4358256 -1.281963 0.1133659 0.7578118 0.6425492 13480629 male
1.684074 0.2378355 -0.851719 -0.6312625 0.7599472 -0.1548802 526600 male
1.315033 0.3726393 -1.359027 0.7711879 0.3926226 0.5011153 14539397 male
1.353089 0.4952899 -1.450588 0.9916077 -0.04920474 0.1195539 16768477 male
1.411821 0.2348514 -1.166035 0.6429967 0.500944 -0.5793188 3026230 male
1.852034 0.2234878 -1.021945 -0.05826801 0.9860402 -0.155979 526600 male
1.601157 0.2486889 -1.397308 0.9925164 -0.1170663 -0.0347369 13212827 male
1.75522 0.2325221 -1.130529 -0.8442065 0.2982005 0.445412 526600 male
1.293895 0.2272148 -1.544769 -0.2743835 -0.4969926 -0.8232326 10591146 male
1.172206 0.4190548 -1.475136 -0.7835336 0.315198 -0.5354673 13552092 male
1.134357 0.4085525 -1.370904 -0.9990134 -0.02057468 -0.03935403 7303031 male
1.782713 0.2589705 -1.118646 -0.515172 0.7752905 0.3654073 526600 male
1.319228 0.4945607 -1.158291 0.3942697 -0.9100955 -0.1275834 3881267 male
1.259106 0.06507734 -1.347763 -0.5828847 -0.7259057 -0.3651113 14406884 male
1.649955 0.2617674 -0.7584269 0.670629 -0.7004563 -0.2441675 526600 male
1.359255 0.4040147 -0.9775745 -0.8390075 -0.2784047 0.467501 526600 male
1.147443 0.3866744 -1.319617 -0.8650388 -0.4907568 -0.104238 8486025 male
1.381384 0.6255591 -1.4331 0.6724515 0.6175057 0.4080388 10776947 male
1.520129 0.358413 -1.463907 0.5947828 0.7069831 -0.3826331 15970985 male
1.322024 0.211235 -1.21991 -0.3269733 0.7028055 -0.6317855 8358296 male
1.178282 0.2847379 -1.167229 -0.122402 -0.9751053 -0.1848982 15706013 male
1.634422 0.3282875 -1.245914 -0.5142016 -0.4031647 0.757004 526600 male
1.286614 0.234913 -1.546393 -0.3402622 -0.481467 -0.8077196 10196388 male
1.250862 0.250726 -1.534249 -0.6164361 -0.3916051 -0.6831194 10790069 male
1.58495 0.2632861 -1.429025 -0.1844229 0.1922704 -0.9638571 16371916 male
1.299952 0.5181935 -1.502484 -0.1632348 -0.4103726 -0.8971894 16771297 male
1.227054 0.2426804 -1.497557 -0.8308443 -0.3724 -0.4135407 10789043 male
1.222875 0.6413295 -1.420481 -0.4235936 0.3176141 0.8483453 9933206 male
1.638385 0.2895971 -1.259372 -0.1676065 -0.8528576 0.4945117 526600 male
1.487021 0.4570764 -1.392113 0.539198 0.8416662 -0.02938592 16634324 male
1.502457 0.3093041 -1.462498 0.03665485 -0.9397756 -0.339821 16769495 male
1.223537 0.3522598 -1.522475 -0.8176932 0.0384292 -0.57437 13550550 male
1.397877 0.3244579 -1.490233 0.8867867 -0.3477352 -0.3044497 7564411 male
1.220706 0.2107066 -1.458804 -0.6025977 -0.478126 -0.6389613 9735845 male
1.721354 0.3690413 -1.221549 0.367895 0.7302848 0.5756191 526600 male
1.264403 0.1606762 -1.186946 -0.9026732 0.3108113 0.2976196 3552566 male
1.41805 0.004788015 -1.24828 0.1522936 -0.8459337 0.51108 8883624 male
1.1975 0.3518923 -1.187638 0.5068512 0.8205675 0.2641415 14527405 male
1.194909 0.65332 -1.449266 -0.7191075 0.4951271 0.4875792 526600 male
1.475839 0.3553163 -0.9917205 0.573213 -0.2232496 -0.7884076 526600 male
1.581426 0.3070708 -0.8324663 0.3295987 0.2902603 -0.898395 526600 male
1.331346 0.4403342 -1.569137 0.2249774 0.631241 -0.7422398 6513003 male
1.513172 0.07164446 -1.326219 0.6415893 -0.3899381 -0.6605387 3752266 male
1.275451 0.1633756 -1.157865 -0.8997438 0.1764325 0.3991649 4802899 male
1.840413 0.2009268 -0.977055 -0.4561201 -0.05490856 0.8882226 526600 male
1.657689 0.3474589 -1.292945 0.4570573 0.5239593 -0.7187247 6777717 male
1.362933 0.03367194 -1.3937 0.01407853 -0.8213062 -0.5703138 7237501 male
1.342575 0.06863425 -1.150483 0.002951175 -0.5882648 0.808663 9410213 male
1.878026 0.1504665 -1.090439 -0.1776318 -0.7367632 0.6524008 526600 male
1.519736 0.3329527 -1.430226 0.02958956 0.8904268 0.4541634 16434885 male
1.653382 0.2814088 -0.7932215 -0.3395723 0.8664867 0.3659118 526600 male
1.755611 0.2463428 -1.126488 -0.6891927 0.4760573 0.5462444 526600 male
1.781335 0.220249 -1.119732 -0.7798922 0.4520373 0.4329322 526600 male
1.22544 0.3595203 -1.241455 0.9373019 -0.2357874 -0.2566506 2566446 male
1.222963 0.3266582 -1.148649 -0.478435 0.03007088 -0.8776079 14857399 male
1.392023 0.2273627 -1.398724 0.9690682 0.09018618 0.2297244 11840959 male
1.243812 0.6741282 -1.531589 -0.2124676 0.6472303 -0.7320864 526600 male
1.696834 0.2698393 -0.8218687 0.3755368 0.5529347 -0.7437979 526600 male
1.282441 0.05945477 -1.372661 -0.5557807 -0.7249933 -0.4068078 11973317 male
1.68853 0.3947335 -1.281692 0.5335168 0.7582439 0.3747346 526600 male
1.244197 0.1933337 -1.285643 -0.3928466 0.8600811 0.325472 9142668 male
1.314937 0.4855745 -1.187469 0.5504607 -0.8281603 -0.1055629 10397611 male
1.250363 0.4884208 -1.457619 -0.9796292 0.1888803 -0.0681974 16105647 male
1.382125 0.3652849 -0.982715 -0.7018117 -0.7034574 0.1122855 526600 male
1.225274 0.07857636 -1.317456 -0.7006475 -0.6580233 -0.2758595 10526128 male
1.17138 0.3500047 -1.173025 -0.55852 0.7456707 0.3633601 14459802 male
1.20918 0.3949082 -1.228223 0.4149139 0.8328118 0.36643 16770786 male
1.414041 0.4227444 -0.9421559 -0.09087867 0.420205 0.902867 526600 male
1.704077 0.3006617 -1.158384 -0.5088875 0.4529493 0.7320317 526600 male
1.19567 0.3488097 -1.274013 0.4773423 -0.7842253 -0.3964025 657673 male
1.398621 0.4645283 -0.9902911 0.5252104 0.5764861 0.6259537 526600 male
1.32553 0.6773025 -1.4939 0.6344827 0.6732658 -0.3796642 15319481 male
1.216889 0.1152178 -1.248762 -0.8185843 -0.1702178 0.5485852 8354695 male
1.726728 0.1902769 -0.8629147 0.5778264 -0.148992 -0.8024451 526600 male
1.155922 0.4065913 -1.267492 -0.8174939 0.3609774 0.4487751 16505041 male
1.744452 0.2617705 -1.13111 -0.5601496 0.5348709 0.6325705 526600 male
1.54196 0.5355322 -1.377342 -0.7764851 -0.5315428 -0.3384273 1052691 male
1.1446 0.3316365 -1.381539 -0.885388 -0.3679817 0.2840381 7829637 male
1.73522 0.3436475 -1.198247 0.431023 0.6819454 0.5909058 526600 male
1.371844 0.1380129 -1.093986 0.03512427 -0.6617963 0.7488605 7436676 male
1.62002 0.3239061 -1.281293 -0.09091032 0.8473312 -0.5232258 7831440 male
1.321912 0.6739886 -1.443165 0.8417966 0.3746078 0.3886482 12163992 male
1.172767 0.3639749 -1.312868 -0.07847096 -0.8988394 -0.4311959 11902620 male
1.55387 0.121332 -1.206552 0.4129194 -0.5646691 0.7145953 2171945 male
1.221496 0.4692407 -1.415271 0.1283701 0.8729606 0.4705962 11511479 male
1.693683 0.3963797 -1.245357 0.1070746 0.7427627 0.6609378 526600 male
1.874299 0.1504237 -1.111413 0.4146529 -0.5938647 -0.6894837 526600 male
1.182386 0.4187131 -1.258166 -0.1215973 0.8508848 0.5110862 15711935 male
1.326499 0.2594069 -1.08323 -0.8098711 0.2690736 0.5212564 3224642 male
1.51823 0.3375688 -1.476983 0.7237645 -0.0343248 -0.6891927 15845310 male
1.319016 0.4740489 -1.422707 0.4207567 0.0944253 0.902246 16770023 male
1.776232 0.2503196 -1.149103 0.8284928 -0.4213769 -0.3688375 526600 male
1.283626 0.3033719 -1.575518 -0.4122834 -0.3892589 -0.823711 10921143 male
1.205203 0.6060968 -1.542627 -0.526938 -0.1202973 -0.8413471 6578276 male
1.202075 0.4267911 -1.275427 0.363934 0.8055568 0.467579 14927307 male
1.254642 0.5789204 -1.544495 0.02294451 -0.4958232 -0.8681203 7103849 male
1.288529 0.5640016 -1.538315 0.7630309 -0.2010615 -0.6142949 16104116 male
1.381852 0.389474 -1.033175 -0.03678782 -0.8426808 -0.5371553 526600 male
1.406802 0.0918775 -1.216011 0.9856932 0.06807902 -0.1541885 526344 male
1.288785 0.2499796 -1.302536 0.2370024 0.2659808 0.9343897 8618379 male
1.177635 0.3095901 -1.477889 -0.6770446 -0.2958893 -0.6738397 13289945 male
1.375236 0.1481194 -1.086866 0.04001588 -0.6706944 0.7406536 10331578 male
1.429417 0.115962 -1.327588 -0.3655289 0.4565139 -0.811162 12764117 male
1.193458 0.5611743 -1.469771 -0.7892824 -0.6094374 0.07496095 9735828 male
1.393672 0.6045778 -1.436642 0.8366448 0.3371366 -0.4316993 13544617 male
1.641898 0.3788635 -1.246209 -0.4784259 0.4069874 0.7781195 5459798 male
1.375678 0.2033267 -1.371472 0.9266161 0.2654524 0.2663034 12433102 male
1.838927 0.1582495 -1.107694 -0.9739127 -0.221862 0.04765815 526602 male
1.462122 0.3291628 -1.446074 -0.6687515 -0.4752308 0.5717754 1382170 male
1.405577 0.107716 -1.138278 0.6525181 -0.5933332 0.4713553 2828851 male
1.448413 0.4085864 -0.9367329 0.3813767 0.599198 0.7039272 526600 male
1.318733 0.2009914 -1.531434 0.04406637 -0.5981849 -0.8001456 7038572 male
-2.515508 0.3719876 -1.442838 0.8529655 -0.4896964 -0.1806858 5065029 male
-2.601548 0.04896402 -1.390247 -0.471322 -0.05782292 -0.8800639 3092272 male
-2.70403 -0.306592 -1.340432 0.989592 -0.1028057 -0.1006934 1644826 male
-2.53876 0.005575734 -1.303741 0.8240228 -0.1797727 0.5372788 1908259 male
-2.537819 0.3459266 -1.447257 0.7184162 -0.5904199 -0.3678079 5788495 male
-2.749088 -0.1116219 -1.299017 -0.2884599 0.2391902 0.9271349 3092022 male
-2.760362 0.3580379 -1.386961 -0.9730909 0.2240416 -0.0538494 3552302 male
-2.557021 0.4268775 -1.547613 0.02395284 -0.5870561 -0.8091919 16769462 male
-2.570657 0.6763915 -1.737849 -0.626826 -0.1309523 -0.7680761 16243662 male
-2.673608 0.05246056 -1.343177 0.9922526 -0.1200632 -0.03193337 1842205 male
-2.52655 -0.3627669 -1.391183 -0.2161066 0.3554923 -0.9093533 2698281 male
-2.564453 0.7373658 -1.755165 -0.545695 0.09580549 -0.8324894 5195076 male
-2.737252 0.4340672 -1.406127 -0.8816251 0.1524705 0.4466436 9866633 male
-2.571162 0.3592344 -1.509106 0.3841029 -0.5510572 -0.7408111 7367782 male
-2.609515 0.3419026 -1.273446 -0.001325965 0.6797345 0.7334571 9472128 male
-2.580308 -0.02573166 -1.280574 0.1183049 -0.2103432 0.9704432 2565930 male
-2.773887 0.02840353 -1.304685 -0.7461404 -0.2670964 0.6098642 4079174 male
-2.456135 0.5437283 -1.542289 -0.5945435 -0.7916434 -0.14078 8092275 male
-2.501489 -0.4609545 -1.429367 -0.1191027 -0.9911059 -0.05936018 591881 male
-2.466019 0.5214823 -1.49997 0.556563 -0.8164945 0.1535396 1579032 male
-2.543537 0.5836141 -1.652843 0.531242 -0.7530667 -0.3881656 16704477 male
-2.645169 0.1278328 -1.366879 -0.7170187 -0.1141396 -0.6876458 2565162 male
-2.640383 -0.4503495 -1.480255 0.9739354 -0.2043023 -0.09854364 2631464 male
-2.512103 0.3509607 -1.775913 0.7689345 -0.104568 0.6307182 14270909 male
-2.708889 -0.2071164 -1.368683 0.6820592 -0.0004396646 -0.7312971 2500137 male
-2.699965 0.5969268 -1.499616 -0.4313363 0.7912254 0.4334874 10656657 male
-2.588949 0.58801 -1.430255 -0.4206795 0.6262077 0.6564242 9471874 male
-2.474103 0.5684348 -1.436422 0.5504681 0.4137795 0.7251012 9537152 male
-2.68646 0.0509827 -1.390314 0.8533928 -0.04592635 -0.5192415 3091249 male
-2.366014 0.5099991 -1.54691 0.8179026 0.107855 0.5651574 7827567 male
-2.652012 0.2709783 -1.236315 -0.2319019 0.2531339 0.9392257 8945790 male
-2.662839 0.4879524 -1.613719 0.1255868 -0.3525184 -0.9273397 5854033 male
-2.519226 -0.1871626 -1.357738 0.7964224 0.1157123 -0.5935674 2434861 male
-2.433403 0.533322 -1.584478 -0.5581404 -0.02802441 -0.8292733 7236453 male
-2.510012 0.5953302 -1.704561 0.1287492 -0.9624059 0.2391622 12170409 male
-2.739844 0.5277714 -1.635785 -0.8948569 -0.4358392 0.09630978 8682875 male
-2.572817 0.1994192 -1.384626 0.3084919 0.2458446 -0.9189089 2829617 male
-2.550633 -0.01559427 -1.294954 0.6990741 -0.1585705 0.6972453 3158066 male
-2.761206 -0.08582196 -1.382401 -0.8579357 -0.04766301 -0.5115415 2369324 male
-2.628265 0.6251625 -1.510866 -0.1647698 0.8800887 0.4453031 13547170 male
-2.641618 0.5638349 -1.43479 -0.2000055 0.6125003 0.7647493 7892591 male
-2.525341 0.3696879 -1.832393 -0.5435194 0.2445469 -0.8029842 16044485 male
-2.58633 0.7636681 -1.729349 -0.7374998 0.3315787 -0.5883449 3222825 male
-2.69747 0.2562858 -1.24164 -0.08851275 0.1144413 0.9894792 13022893 male
-2.468406 0.7589365 -1.669648 0.9469107 0.2902402 0.1382786 3947060 male
-2.72645 -0.1058127 -1.399066 0.2431147 -0.4623976 -0.8526922 4210497 male
-2.632269 0.5287094 -1.673095 0.8297027 0.5442589 -0.1239995 6578779 male
-2.810159 0.09805744 -1.345727 -0.9853942 -0.1692988 0.01834512 1908257 male
-2.694209 0.279024 -1.246152 -0.1201582 0.3059762 0.9444262 9208443 male
-2.729467 0.4467856 -1.522321 -0.8007528 -0.2740232 -0.5326411 3946035 male
-2.639487 0.2994949 -1.24541 -0.1328876 0.4768495 0.8688819 9010552 male
-2.707422 0.03489699 -1.412093 0.4805102 -0.09714294 -0.8715925 3883594 male
-2.521567 0.2200847 -1.299312 0.9577882 0.1026416 0.2685273 2303014 male
-2.648839 0.3014959 -1.473501 0.04504338 -0.5904365 -0.8058263 7893610 male
-2.32987 0.3555823 -1.587051 -0.5748851 -0.809554 0.1188679 10588044 male
-2.482709 0.7864902 -1.670457 0.7667527 0.6394921 0.05603832 3354670 male
-2.561962 -0.01332927 -1.285094 0.5115325 -0.1958321 0.8366508 2434085 male
-2.556507 0.6456584 -1.553194 -0.0001194254 0.9717017 0.2362112 7037531 male
-2.693632 0.6248632 -1.583725 -0.4997338 0.8143066 -0.2952477 4933187 male
-2.7943 0.148613 -1.284436 -0.7523586 -0.2379521 0.6142766 3092022 male
-2.522729 0.2071633 -1.291972 0.9377771 0.08741196 0.3360559 2699056 male
-2.737793 -0.3977824 -1.357099 0.9497129 0.1535501 0.2728882 1777186 male
-2.781463 -0.1800466 -1.319057 -0.9491972 -0.02448164 0.3137285 2235682 male
-2.749023 0.3514576 -1.43616 -0.8795476 -0.1631638 -0.4469607 2894121 male
-2.634244 -0.03252251 -1.330372 -0.9907802 -0.1255756 0.05084926 2301475 male
-2.786801 -0.4566748 -1.333036 -0.401769 -0.8542537 0.3298976 7631476 male
-2.649502 0.5485231 -1.683451 0.8075887 0.3288757 -0.489532 7300455 male
-2.536847 -0.4257613 -1.389475 -0.9560325 0.171723 -0.2377256 1777444 male
-2.76156 -0.3675172 -1.331404 -0.7066996 -0.2765042 0.651246 2565927 male
-2.792332 -0.4392322 -1.369469 -0.9779675 0.06190822 0.1993672 2171169 male
-2.348627 0.3797363 -1.588008 -0.9403506 -0.3303394 -0.0813446 16374744 male
-2.31222 0.3945298 -1.782863 -0.07789964 0.9731102 0.2167678 16506832 male
-2.475718 0.4691315 -1.520762 0.8264413 -0.5567564 -0.08376986 4472636 male
-2.54392 0.7827703 -1.745014 -0.2078537 0.6626397 -0.7195175 15590106 male
-2.639812 0.4422065 -1.587168 0.0807073 -0.6073144 -0.7903515 7499108 male
-2.518914 0.5572827 -1.577659 0.4789774 0.06875745 -0.8751304 9077885 male
-2.779016 -0.2275433 -1.347879 -0.9664242 -0.1977961 -0.1640167 1907998 male
-2.566802 0.2405752 -1.379343 0.4696388 0.06709486 -0.8803055 9407880 male
-2.338146 0.4742479 -1.610507 0.4434318 0.7858276 -0.4310954 16636876 male
-2.56909 0.646241 -1.572083 -0.1075283 0.7853069 0.6096975 14991799 male
-2.513639 -0.2931254 -1.345164 0.9850898 -0.07527315 -0.1547005 1974564 male
-2.547955 0.4666714 -1.368667 0.338248 0.2445766 0.9087193 5460555 male
-2.265232 0.356622 -1.667742 0.939448 -0.3176153 -0.1286793 16572635 male
-2.40069 0.5939086 -1.540758 0.7565919 0.6525137 0.04236284 10590865 male
-2.519897 -0.265095 -1.360996 0.7581457 -0.04810075 -0.650309 2499625 male
-2.670476 0.07204856 -1.34428 0.9883527 -0.1429498 -0.05219829 2171429 male
-2.52822 -0.110852 -1.326626 0.971087 0.2143229 0.1051487 2960437 male
-2.530396 -0.009466604 -1.356668 0.9268973 -0.2666499 -0.2641203 3289915 male
-2.510686 0.7768604 -1.748645 0.3185912 0.6252694 -0.7124171 7168860 male
-2.583007 0.230627 -1.232338 0.4826581 0.08203708 0.8719584 2829875 male
-2.699224 -0.4631795 -1.459081 -0.7397507 -0.6727852 0.01136887 264457 male
-2.38237 0.5632545 -1.553783 0.8290948 0.5546249 -0.07066429 10326409 male
-2.678988 -0.06474312 -1.34462 0.9830161 -0.1245526 -0.1347823 1972766 male
-2.400187 0.3909077 -1.917095 -0.5448211 0.05029931 -0.8370426 16770526 male
-2.693192 0.3293126 -1.476411 -0.4590816 -0.4076051 -0.7893683 6839386 male
-2.695963 -0.0003853608 -1.400914 0.6352813 -0.03965871 -0.7712622 3619391 male
-2.532129 -0.009090889 -1.326186 0.9464843 -0.1896608 0.2611446 2368807 male
-2.746435 -0.2081502 -1.389162 -0.1737106 -0.06465284 -0.9826725 2170913 male
-2.46731 0.7470226 -1.709121 0.9442027 0.2221147 -0.2432013 6314583 male
-2.528459 -0.1278966 -1.307449 0.8664756 0.284078 0.4105117 2697257 male
-2.700507 0.01563518 -1.296186 0.5276383 -0.1443277 0.8371187 2500141 male
-2.421599 0.5952363 -1.506274 0.6289847 0.6935529 0.3512301 3222569 male
-2.748295 -0.1794698 -1.287089 -0.2335085 -0.005572141 0.9723389 3157808 male
-2.758838 -0.3880103 -1.396344 -0.5757925 0.4788156 -0.6627207 2368804 male
-2.396759 0.5841757 -1.56979 0.7329606 0.5111369 -0.4488962 7631979 male
-2.57332 -0.3076032 -1.346076 -0.8871806 -0.2217435 -0.4046488 2039071 male
-2.508616 0.3918361 -1.823579 -0.439034 0.8706107 -0.2220053 14467251 male
-2.594296 0.4347146 -1.555017 0.4322834 -0.5120013 -0.7422843 16509877 male
-2.709475 -0.321505 -1.341533 0.9956576 -0.06099518 -0.0703271 1644825 male
-2.736292 0.3701747 -1.33728 -0.5157279 0.6962929 0.4992005 4868418 male
-2.608639 0.7729728 -1.661028 -0.9272175 0.36903 0.06391281 5327945 male
-2.438283 0.5526057 -1.578709 -0.4030407 -0.1715563 -0.8989588 7367272 male
-2.600131 0.7777149 -1.692834 -0.8230037 0.4757059 -0.3104337 5196100 male
-2.590193 0.7048562 -1.719218 -0.8683339 -0.2107326 -0.4489857 6314326 male
-2.563563 0.0120427 -1.27736 0.4635358 -0.2095724 0.8609381 2499878 male
-2.521763 -0.1331405 -1.33273 0.9705231 0.2328792 -0.06206888 2565672 male
-2.506222 0.390956 -1.419192 0.9237127 -0.3262798 0.2007405 3553590 male
-2.630635 0.4721693 -1.372306 -0.4237691 0.4916864 0.7607 8353393 male
-2.51278 0.08099339 -1.323825 0.9791039 -0.08438224 0.1850282 2236450 male
-2.796505 0.1718531 -1.283742 -0.8350122 -0.1533958 0.5284172 3814714 male
-2.552809 0.7505514 -1.591475 -0.1904732 0.2366926 0.9527312 6313295 male
-2.561722 0.6237425 -1.713567 -0.6965118 -0.6176106 -0.3652789 14469564 male
-2.684019 0.1611472 -1.391452 0.7155443 -0.07392333 -0.6946452 2828846 male
-2.667907 0.1873574 -1.403247 -0.08427602 -0.6825927 -0.7259235 2829619 male
-2.748502 -0.4562577 -1.406193 0.4375796 -0.8989734 -0.01926056 592137 male
-2.621069 0.3526962 -1.727252 -0.5574342 -0.8263459 0.0801228 16505810 male
