# .PCD v0.7 - Point Cloud Data file format
VERSION 0.7
FIELDS x y z normal_x normal_y normal_z rgb label
SIZE 4 4 4 4 4 4 4 4
TYPE F F F F F F U U
COUNT 1 1 1 1 1 1 1 1
WIDTH 247
HEIGHT 1
VIEWPOINT 0 0 0 1 0 0 0
POINTS 247
DATA ascii
1.396269 0.8122004 -0.7480678 -0.4071274 -0.4375796 0.8017302 7367289 male
1.46614 0.5994748 -0.7260767 0.9455993 0.3253065 -0.004203796 4672079 male
1.689373 0.3973076 -0.8485575 0.8005472 -0.1814836 0.5711286 526600 male
1.352711 0.5762619 -0.8394118 -0.227784 -0.7996035 -0.5556517 9409952 male
1.439266 0.816511 -0.7049527 -0.6097273 -0.3169205 0.7264944 6380385 male
1.762583 0.5767989 -0.7934346 0.8551807 -0.5059958 0.1124023 526346 male
1.403261 0.7165453 -1.024006 0.01301706 0.2204795 -0.9753048 6186099 male
1.515786 0.7342544 -0.8390315 0.1030452 -0.9800025 -0.1702254 12368332 male
1.855844 0.7550724 -0.6225289 0.6259553 -0.02180854 -0.7795538 14597820 male
1.532557 0.5920728 -0.8401623 -0.3857463 -0.08953776 0.9182498 3948356 male
1.43963 0.3364213 -0.7169592 0.5759377 0.1531798 -0.8030142 526600 male
1.886168 0.7320712 -0.5817139 0.8206036 -0.3874124 -0.4201443 15446707 male
1.523747 0.8446329 -0.9287953 0.4948011 0.1145218 -0.8614271 6512747 male
1.444389 0.7649774 -0.8059067 0.1547141 -0.8420695 0.5167034 11446975 male
1.2928 0.8096932 -0.8769532 -0.829895 0.524343 -0.1906273 8752283 male
1.466899 0.5421335 -0.6644198 -0.4746006 -0.19232 -0.8589339 526088 male
1.530993 0.6157296 -0.9767876 0.5104778 -0.1359981 -0.8490683 4804180 male
1.611287 0.9381996 -0.5816712 0.2497656 0.8420416 0.4781036 8618379 male
1.432044 0.254273 -0.7402688 0.06314627 -0.9749142 -0.2134359 526600 male
1.607924 0.8801218 -0.5537611 0.3722654 -0.18334 0.9098378 9209492 male
1.699248 0.7527585 -0.6330894 -0.6259893 -0.6942343 0.3552129 14728378 male
1.421097 0.6749223 -0.7698011 0.8328166 0.5126354 0.2088576 6448758 male
1.713807 0.2881826 -0.8273682 -0.3137511 0.1590819 -0.936084 526600 male
1.708579 0.4374141 -0.7484802 -0.9695749 -0.1705143 -0.1756397 2960690 male
1.636256 0.409151 -0.8870667 -0.6212278 0.1754994 -0.7637252 526600 male
1.732885 0.8561963 -0.7778401 0.7185162 0.6652356 -0.2029681 12892878 male
1.697272 0.8887472 -0.7219954 0.6764171 0.6984117 -0.23384 14078693 male
1.571227 0.9530516 -0.6668815 -0.3171348 0.9473659 0.04385769 10788524 male
1.7008 0.5316505 -0.7705058 -0.1241821 -0.2114242 0.9694735 526600 male
1.346382 0.8774421 -0.7753916 -0.4124871 0.1940499 -0.8900555 10850448 male
1.316213 0.8037398 -0.9217554 -0.6012795 0.5484338 -0.5811052 5067098 male
1.663802 0.7844232 -0.6403602 -0.4626342 -0.5556548 0.6908091 10064546 male
1.489614 0.4922737 -0.5568324 -0.2215041 -0.1787661 0.9586338 526600 male
1.506976 0.9297116 -0.5818481 -0.2696997 -0.3304272 0.9044777 16233132 male
1.730425 0.6996992 -0.6034209 -0.7741475 -0.5909218 0.2269518 11900812 male
1.753628 0.6937067 -0.8000748 0.8912756 0.06072761 -0.4493771 5066580 male
1.315611 0.6845579 -0.7548546 -0.5479438 0.2616098 0.7945551 4474698 male
1.549108 0.9713414 -0.6276891 0.09354272 0.8407826 -0.53323 15512755 male
1.674626 0.5885014 -0.8416368 -0.7136886 -0.02773736 -0.6999137 526600 male
1.721066 0.8673221 -0.7078442 0.6872436 0.725199 0.04221979 14670831 male
1.657402 0.8992216 -0.7929879 0.3111367 0.9300625 -0.1953915 12367047 male
1.759441 0.3940591 -0.7716599 0.2777143 -0.1942372 -0.9408224 13545133 male
1.891429 0.7733452 -0.5911254 0.8476413 -0.01886568 -0.5302342 5723223 male
1.347738 0.8133572 -0.9428115 -0.5707574 0.6123576 -0.5470412 11711170 male
1.796448 0.7601537 -0.491956 -0.4921132 -0.2496458 0.8339673 14207184 male
1.612607 0.6196867 -0.9031885 0.8242272 0.3644088 -0.4334233 1053204 male
1.743191 0.6421078 -0.7392452 0.6208856 -0.3113425 0.7194213 13814739 male
1.687232 0.6566128 -0.7875465 -0.9721822 -0.2335493 -0.01779091 526600 male
1.408269 0.7863563 -1.005041 -0.05062222 0.3858589 -0.9211679 6515319 male
1.614061 0.7676641 -0.8731355 0.3180296 -0.6837733 -0.6567429 198147 male
1.288942 0.8013849 -0.8808362 -0.8543197 0.4809018 -0.1971581 8028302 male
1.671394 0.3966332 -0.8426995 -0.07292455 -0.03377343 0.9967654 526600 male
1.280057 0.7234647 -0.8002992 -0.7358244 0.1829115 0.6520014 2894900 male
1.473897 0.7587213 -0.9956691 0.6097667 0.15303 -0.7776672 6117988 male
1.536234 0.9359094 -0.6386382 0.2031986 -0.2103802 -0.9562691 853256 male
1.755348 0.8273599 -0.5497121 -0.8263101 0.4602289 0.324655 11708329 male
1.436697 0.541469 -0.6808684 -0.8002728 -0.4052288 -0.4419876 526600 male
1.704593 0.8570722 -0.6261234 0.5801435 0.4421209 0.6840779 15846082 male
1.767459 0.7980867 -0.7697162 0.9916803 0.08977291 -0.09225556 11249847 male
1.413658 0.6122576 -1.00966 0.09652048 -0.6501099 -0.7536849 6975871 male
1.279851 0.7087708 -0.7975169 -0.728451 0.1639015 0.6652033 3289915 male
1.618434 0.3471087 -0.8972769 -0.65169 -0.07213444 0.7550476 526600 male
1.748727 0.5410832 -0.7837676 0.4462483 -0.4778125 0.7566755 526600 male
1.522055 0.7728676 -0.8972678 0.3547419 -0.7756363 -0.5220599 9143443 male
1.319659 0.6108957 -0.8922262 -0.1592312 -0.8181902 -0.5524584 6185835 male
1.629726 0.3244898 -0.9587977 0.01291957 -0.6515923 -0.7584594 526600 male
1.748045 0.6666492 -0.7383192 0.6468517 -0.2764971 0.7107264 8617867 male
1.444722 0.2853539 -0.741385 0.9279202 0.1403654 -0.3453424 526600 male
1.704347 0.4256791 -0.8678817 0.6609028 -0.2887672 -0.6926911 526600 male
1.632736 0.3362528 -0.9548939 0.2434253 0.3795794 -0.8925602 526600 male
1.562331 0.9350784 -0.6335049 0.2004472 -0.2489927 -0.9475354 133640 male
1.337162 0.9827579 -0.6951434 -0.4470995 0.2433772 -0.8607378 1051656 male
1.616536 0.8666052 -0.5667327 0.4976313 -0.3411688 0.7974753 15065581 male
1.894508 0.7817491 -0.5094321 0.8515946 -0.005544363 0.5241717 526600 male
1.577473 0.7229832 -0.7788859 -0.2249075 -0.9667739 0.1215108 12957361 male
1.443694 0.7559746 -1.010897 0.2984791 0.1616358 -0.9406296 5791593 male
1.755866 0.5686516 -0.84778 0.6314723 0.147239 -0.7612906 526600 male
1.349386 0.7706953 -0.773546 0.1529326 0.06552246 0.986062 9601409 male
1.595682 0.9701109 -0.5982364 0.1544479 0.9864182 -0.05590164 10592686 male
1.873333 0.7215008 -0.5152323 0.564216 -0.5636005 0.6033363 789516 male
1.447625 0.4125323 -0.6019717 -0.4876241 -0.3159613 0.8138742 526600 male
1.375071 0.8819985 -0.8622191 -0.466983 0.8003482 -0.3759916 12829652 male
1.401814 1.030988 -0.6193545 -0.439022 0.6758133 0.5920609 16762813 male
1.575021 0.8912255 -0.5635939 -0.581933 -0.7078665 0.4003485 13617632 male
1.49842 0.4382759 -0.5842253 0.52758 -0.5527418 0.6450858 526600 male
1.691218 0.5742904 -0.770247 -0.5255231 -0.3359281 0.7816507 5788496 male
1.406761 0.5570179 -0.6677521 -0.7947119 -0.009767007 0.6069082 4605518 male
1.5355 0.5121378 -0.6237522 0.8455192 -0.2522793 -0.4705875 526344 male
1.880489 0.7284675 -0.5885745 0.7670636 -0.4167603 -0.4877748 15845835 male
1.26805 0.7496181 -0.8718833 -0.9734026 0.2247296 0.04454097 3026228 male
1.746701 0.837372 -0.6963083 0.7080566 0.6357532 0.3073659 8814478 male
1.497159 0.9100308 -0.6199321 -0.1533442 -0.9825018 -0.1057157 11766413 male
1.697159 0.5519877 -0.7714995 -0.3883123 -0.06068762 0.9195274 526600 male
1.738545 0.1990013 -0.7076225 0.09631211 -0.002149744 0.9953489 15245733 male
1.499779 0.7674537 -0.8826286 0.4513497 -0.8121116 -0.3698085 9473695 male
1.680112 0.4127811 -0.8340701 0.05054045 -0.2263552 0.9727328 526600 male
1.372469 0.5815689 -0.702502 -0.6926508 -0.1143818 0.7121459 4211528 male
1.76544 0.5469325 -0.7933317 0.7184008 -0.491016 0.492751 526600 male
1.828372 0.7243436 -0.4984991 -0.07990286 -0.5463126 0.8337614 9801614 male
1.399603 0.563242 -0.6772289 -0.7204779 -0.01941413 0.6932061 4014152 male
1.418902 0.587694 -0.9012879 -0.534826 -0.6082358 0.586524 2894383 male
1.661038 0.9126154 -0.6154736 0.5215474 0.6554041 0.546291 9933215 male
1.757681 0.5091407 -0.8342124 0.8994631 -0.3100724 -0.3079305 526600 male
1.677353 0.3626707 -0.892022 0.8662638 0.3783414 -0.3262587 526600 male
1.562289 0.9265382 -0.5593386 -0.4419893 -0.08876271 0.8926178 8420229 male
1.512778 0.5187395 -0.563112 -0.115517 -0.2643865 0.9574736 526600 male
1.698258 0.5176105 -0.7528045 -0.9904322 -0.1372865 0.01401454 525832 male
1.528818 0.7555062 -0.72663 -0.009523839 -0.9657329 0.2593629 10980535 male
1.70291 0.4129188 -0.8447151 0.8625851 -0.3885934 0.3239475 526600 male
1.45812 0.9004984 -0.8582034 -0.1624233 0.9377031 -0.3071347 9999265 male
1.834728 0.854604 -0.5898279 0.230861 0.8373752 -0.4954856 4078653 male
1.591297 0.9514264 -0.5598786 -0.05845097 0.7040592 0.7077317 6710126 male
1.860471 0.845211 -0.5852509 0.4589466 0.7438966 -0.4857837 10328216 male
1.838961 0.7146952 -0.6146129 0.4970654 -0.5634193 -0.6599127 12165025 male
1.512776 0.5310818 -0.6461143 0.2315053 -0.006372912 -0.9728128 526600 male
1.473883 0.545527 -0.6199778 -0.6487524 0.6541435 -0.3888656 526600 male
1.463716 0.8939406 -0.6980326 -0.6733378 0.4855103 0.5575804 7104884 male
1.613908 0.9156455 -0.7864576 0.2694052 0.8727321 -0.4071358 14076894 male
1.323467 0.5979778 -0.7554407 -0.8270675 -0.3250453 0.4585901 3817802 male
1.425362 0.640542 -1.025491 0.2396391 -0.3484745 -0.9061669 6514806 male
1.832079 0.8244385 -0.4849069 -0.04339567 0.4649266 0.8842851 526344 male
1.804388 0.7288781 -0.6490565 0.3483295 -0.3119704 -0.8839349 14989234 male
1.518279 0.6904817 -0.9027112 0.4278929 0.8297163 0.3584389 10133675 male
-2.456182 0.3070842 -1.260143 0.4959823 -0.4584736 -0.7374306 6840670 male
-2.443664 0.06825262 -1.26553 -0.2830388 -0.01184065 -0.9590356 3223601 male
-2.735145 -0.3187971 -1.186946 0.9416568 0.04165841 -0.3339871 2236194 male
-2.38805 0.09743489 -1.1443 0.8078073 -0.1578216 0.5679262 2434085 male
-2.463496 0.3036778 -1.262973 0.4558938 -0.4805257 -0.7491702 6775135 male
-2.731449 -0.1040307 -1.193908 -0.9041721 0.3253924 -0.2767542 3553598 male
-2.639872 0.3629878 -1.21876 -0.9662229 -0.1608318 -0.2013622 3223598 male
-2.515932 0.5066187 -1.435784 -0.2596334 -0.2369454 -0.9361879 7895157 male
-2.697474 0.6608292 -1.529568 -0.871554 -0.4523029 -0.1892509 14205367 male
-2.611371 -0.06397198 -1.184914 0.8898846 -0.4308994 -0.1497712 1645085 male
-2.390346 -0.3502691 -1.255527 -0.7610477 0.181948 -0.6226571 1972766 male
-2.694656 0.7142668 -1.580756 -0.6875009 -0.1341517 -0.7136849 6445395 male
-2.635314 0.5399459 -1.215261 -0.2496865 0.2964365 0.9218364 6380119 male
-2.52247 0.2709751 -1.268187 0.04652372 -0.3477899 -0.9364176 8156275 male
-2.418736 0.2343442 -1.090739 0.7546772 0.06137504 0.6532195 2829610 male
-2.429916 -0.05412537 -1.197714 -0.4739403 -0.1995244 0.8576543 2500654 male
-2.694598 0.0672166 -1.171063 -0.9996735 0.009087081 0.02388811 1907997 male
-2.408872 0.614258 -1.433824 0.7866578 0.6151598 -0.05242175 10986911 male
-2.393018 -0.3762889 -1.221285 -0.9890937 0.1454531 -0.023184 2038815 male
-2.484444 0.528312 -1.44442 -0.08935434 -0.3481213 -0.9331814 8090995 male
-2.586933 0.6054699 -1.49173 0.7487301 -0.5997278 -0.2823652 12496806 male
-2.442625 0.1432755 -1.259407 -0.09116796 0.1674475 -0.9816568 3421756 male
-2.774856 -0.3908533 -1.280286 -0.01937705 0.9075486 -0.4194998 2763565 male
-2.635474 0.2858037 -1.322103 0.9884315 0.133266 -0.0724135 14205372 male
-2.752707 -0.2752549 -1.191301 -0.6379882 -0.04294495 -0.7688479 2434597 male
-2.639238 0.6212791 -1.28251 -0.230288 0.7867819 0.572662 10656403 male
-2.580799 0.6443567 -1.359789 -0.1120135 0.9476269 0.2990923 7368296 male
-2.42885 0.5072816 -1.371969 0.7625472 -0.2598228 -0.5924645 3749169 male
-2.607965 -0.02285148 -1.206322 0.7882855 -0.3430556 -0.5108024 2763050 male
-2.302124 0.1804965 -1.549953 -0.9178957 0.2730525 -0.2879411 13020587 male
-2.468159 0.3261989 -1.09531 0.1870824 0.5675954 0.8017705 9603202 male
-2.362511 -0.418685 -1.355211 0.2028809 0.9023849 -0.3801854 3355961 male
-2.347842 -0.181344 -1.218845 0.9506134 0.001701063 0.3103734 1842977 male
-2.374021 0.513341 -1.438994 0.9061375 0.3400034 -0.2516207 16708326 male
-2.584661 0.6025734 -1.512009 0.7544954 -0.5691625 0.3267886 11182484 male
-2.749 0.5034312 -1.313414 -0.9503043 -0.3050596 0.06213462 8551029 male
-2.445401 0.2093564 -1.237777 0.1124529 0.3615 -0.925566 3027253 male
-2.435816 0.5388054 -1.399503 -0.7175664 -0.3514891 0.6012938 3157544 male
-2.696888 -0.01545307 -1.197144 -0.9553921 0.1292765 -0.2655443 2369064 male
-2.64456 0.6171069 -1.279199 -0.2705235 0.7679033 0.580639 9472383 male
-2.571648 0.6176021 -1.294318 0.2641029 0.8493298 0.4570433 10261643 male
-2.707064 0.2790441 -1.35392 -0.8517413 -0.4797213 -0.2107236 16642277 male
-2.693509 0.6947182 -1.444425 -0.6982259 -0.2936441 0.6528814 4932673 male
-2.513751 0.3268755 -1.087045 0.1591455 0.5693621 0.8065357 9077378 male
-2.591532 0.7587696 -1.534861 0.8684005 0.4092976 -0.2799224 5919050 male
-2.672811 -0.03175283 -1.238932 -0.3782861 0.08687311 -0.9216035 3553087 male
-2.743924 0.4845015 -1.326717 -0.9595489 -0.1540974 -0.2356272 7893871 male
-2.678374 0.4483002 -1.304429 0.7960743 -0.1982434 0.5718091 6576215 male
-2.534629 0.3207468 -1.079331 0.1529564 0.5319611 0.8328397 9077632 male
-2.663448 0.4563785 -1.33629 -0.7309328 -0.6791269 -0.06726214 5393994 male
-2.509675 0.4733329 -1.187756 0.04492038 0.4803062 0.8759499 8682619 male
-2.628916 -0.03056618 -1.2289 0.5936455 -0.3300265 -0.7339399 3026996 male
-2.39416 0.2465457 -1.202774 0.8861333 0.190523 -0.4224561 7170917 male
-2.650141 0.3109659 -1.190575 -0.8489622 0.2634181 -0.4581205 3222828 male
-2.412189 0.4701151 -1.408388 -0.7084922 -0.4001378 0.5813165 15257807 male
-2.611903 0.786492 -1.534144 0.5953577 0.7173029 -0.3619751 3354670 male
-2.413564 -0.01306543 -1.165276 0.2498969 -0.2353476 0.9392354 2895667 male
-2.347902 -0.4374335 -1.321483 0.05236986 -0.9983114 0.02513644 526600 male
-2.666385 0.62768 -1.32097 -0.5646964 0.7778658 0.2757588 4933187 male
-2.648526 0.1699674 -1.080685 -0.7087446 -0.06899954 0.7020829 2498854 male
-2.417898 0.2498891 -1.221006 0.433139 0.2577934 -0.8636744 7959409 male
-2.745266 -0.3512544 -1.190477 0.9785691 -0.09709578 -0.1815906 1644825 male
-2.668482 -0.07787124 -1.140413 0.2571041 0.24675 0.9343512 2566186 male
-2.641819 0.3728543 -1.193291 -0.9930121 -0.03325558 0.1132311 3157032 male
-2.49005 0.03971276 -1.166025 -0.8407266 -0.4199892 0.3417428 2302499 male
-2.781985 -0.3983677 -1.144326 0.03884906 -0.9540075 0.2972548 591881 male
-2.739899 0.5611542 -1.275837 -0.6094053 0.2176301 0.7624058 9011581 male
-2.39767 -0.41492 -1.202485 -0.9114239 -0.3077864 0.2730827 67593 male
-2.760809 -0.2795883 -1.183511 -0.9103155 0.001164765 -0.4139137 1973534 male
-2.790858 -0.3391875 -1.165132 -0.9647813 0.2347994 0.1186031 2500134 male
-2.417036 0.4582959 -1.43019 -0.8831927 -0.4686776 0.01767331 16376800 male
-2.322384 0.2608794 -1.447274 -0.3910967 -0.663139 0.6381928 5459531 male
-2.432812 0.6145278 -1.448395 0.3349491 0.8457913 -0.4152667 7104868 male
-2.697744 0.7471951 -1.572871 -0.6853106 0.2797734 -0.6723664 5525067 male
-2.515482 0.647633 -1.417526 0.09511507 0.6600803 -0.7451491 6445653 male
-2.626632 0.3457841 -1.117319 -0.6322333 0.5852435 0.5077119 5656651 male
-2.674577 -0.1053924 -1.134243 0.2912435 0.2707245 0.9175434 2500910 male
-2.406903 0.32705 -1.218246 0.8090159 0.3322852 -0.4848507 3749681 male
-2.357138 0.1827366 -1.502833 -0.6459468 -0.734288 0.2087439 4338737 male
-2.631273 0.7744699 -1.567674 0.3618706 0.6716322 -0.6464983 4932155 male
-2.348533 -0.2367965 -1.237649 0.9927883 -0.1052512 -0.05739188 2565418 male
-2.444322 0.4030046 -1.161659 0.517642 0.3086748 0.7979768 8089965 male
-2.316407 0.4092959 -1.387788 0.9234473 0.1610143 0.3483101 16769495 male
-2.389085 0.5603964 -1.438113 0.9302865 0.296753 -0.21565 10656402 male
-2.351334 -0.2331389 -1.217415 0.9332864 -0.08720413 0.3483849 1972766 male
-2.597985 -0.02404633 -1.185877 0.9084258 -0.2960218 -0.2951846 1908771 male
-2.3949 -0.07871332 -1.20314 0.1801456 0.3267828 0.9277719 2630697 male
-2.398896 -0.02102605 -1.27419 0.5568687 0.1195703 -0.8219491 3356991 male
-2.707183 0.6850443 -1.543001 -0.8557069 -0.4478058 -0.2592991 8680819 male
-2.419698 0.3524967 -1.144017 0.647183 0.6379995 0.417266 7564651 male
-2.60499 0.644947 -1.37945 -0.175114 0.878002 0.4454747 2894375 male
-2.401394 0.5342588 -1.463202 0.3687577 0.142013 -0.9186133 7366751 male
-2.655026 0.07373415 -1.228193 -0.3420963 0.00477003 -0.939653 3883595 male
-2.693803 0.4104089 -1.530277 -0.8033898 -0.55501 -0.2157056 16111822 male
-2.64729 0.3170527 -1.1256 -0.8630149 0.2799237 0.4205334 3749941 male
-2.646202 -0.0006991364 -1.232941 -0.04920945 0.01347087 -0.9986978 4869466 male
-2.370823 0.04888718 -1.221255 0.9901494 -0.08075984 -0.1143788 2434600 male
-2.744585 -0.1337523 -1.180307 -0.9545542 0.2766331 -0.110908 2170403 male
-2.610253 0.7569746 -1.56665 0.6244946 0.4804581 -0.6157652 5327936 male
-2.373327 -0.08880249 -1.211159 0.6264136 0.3774109 0.6820317 1711650 male
-2.558177 0.07838982 -1.11122 0.7785305 -0.4195552 0.466759 3157816 male
-2.469615 0.6272268 -1.430385 0.149067 0.7730653 -0.6165624 8947840 male
-2.753003 -0.1892232 -1.184958 -0.9630494 0.05387888 -0.2638813 1908256 male
-2.801265 -0.3564527 -1.196304 -0.8448468 0.5244261 -0.1058834 2171945 male
-2.414865 0.5558392 -1.468458 0.3234633 -0.1215679 -0.9383993 8747375 male
-2.41299 -0.1074858 -1.281416 -0.4309182 -0.3840908 -0.8165684 2170913 male
-2.703449 0.3051849 -1.400913 -0.7291158 -0.5159494 -0.4496515 16576489 male
-2.61281 0.4265088 -1.354839 -0.3035673 -0.7535391 -0.5831172 16768957 male
-2.766744 -0.3330592 -1.207273 -0.313855 0.4085812 -0.8570628 1579032 male
-2.526895 0.4759883 -1.185159 0.336851 0.4799115 0.8100719 7103068 male
-2.724847 0.7590457 -1.481879 -0.9408706 0.2359471 0.2430879 5393737 male
-2.412691 0.5979162 -1.397713 0.5796767 0.2988672 0.7580591 6643032 male
-2.720911 0.7638344 -1.520504 -0.8992693 0.3721763 -0.229782 4669241 male
-2.700396 0.670082 -1.535472 -0.8674657 -0.4528712 -0.2059398 12363936 male
-2.42744 -0.01733976 -1.166589 -0.1335073 -0.2970808 0.9454728 3158067 male
-2.414623 -0.1213549 -1.195209 -0.4445351 0.2427326 0.8622469 3026227 male
-2.425316 0.3409055 -1.257172 0.7887226 -0.303794 -0.5344399 5000003 male
-2.480204 0.5866166 -1.268684 0.252694 0.5664509 0.7843974 9670026 male
-2.369425 0.1132305 -1.19947 0.9967711 0.06015372 -0.05319059 2302501 male
-2.653275 0.2784521 -1.126321 -0.9120614 0.2140255 0.3497677 4537917 male
-2.649939 0.7688936 -1.430446 0.01893029 0.5088375 0.8606545 6313295 male
-2.667052 0.6197337 -1.52474 -0.6478111 -0.7214718 -0.2445799 16771030 male
-2.604226 0.1327112 -1.224257 0.239106 0.03506756 -0.9703602 3619907 male
-2.598082 0.2417018 -1.204975 -0.3019801 0.1723972 -0.9375966 7169125 male
