# .PCD v0.7 - Point Cloud Data file format
VERSION 0.7
FIELDS x y z normal_x normal_y normal_z rgb label
SIZE 4 4 4 4 4 4 4 4
TYPE F F F F F F U U
COUNT 1 1 1 1 1 1 1 1
WIDTH 246
HEIGHT 1
VIEWPOINT 0 0 0 1 0 0 0
POINTS 246
DATA ascii
1.466567 1.144128 -0.7088637 -0.1031586 -0.2596152 0.9601866 7894144 male
1.382556 0.7809695 -0.7348356 -0.488309 -0.1222123 0.864071 5395549 male
1.518553 0.5007387 -0.9296502 -0.5270284 -0.2868519 0.7999731 526344 male
1.358648 0.7400788 -0.7740223 -0.8916044 -0.1556077 0.4252385 4080199 male
1.471735 1.086193 -0.7270705 -0.007937491 -0.1863361 0.982454 6512748 male
1.537101 0.5848922 -1.000256 -0.26267 0.3190776 -0.9106009 526600 male
1.537113 1.321134 -0.6961701 0.5799476 0.1868179 0.7929438 15393419 male
1.49803 1.303766 -0.6681966 0.3838432 0.08942029 0.9190584 13287634 male
1.642148 1.530152 -0.6764049 0.7530556 -0.6550516 -0.0617626 13279902 male
1.528116 0.8141567 -0.8359826 -0.1928672 -0.2385824 0.9517777 4343379 male
1.307706 0.4012119 -0.8366919 -0.993918 -0.09300154 -0.05897167 526600 male
1.643887 1.570635 -0.7594734 0.8537213 -0.05695935 -0.5176055 8352886 male
1.603469 1.136924 -0.8783193 0.8938046 -0.134259 -0.4278877 9470604 male
1.536423 1.08051 -0.7390232 0.581723 -0.2095046 0.7859428 13618400 male
1.351731 0.9536098 -0.8705704 -0.9445705 0.06266928 -0.3222716 2697777 male
1.416512 0.6480064 -0.8586876 0.403127 -0.202281 -0.8925083 526602 male
1.565145 0.8479154 -0.9726232 0.3069595 -0.04815262 -0.9505036 7369343 male
1.358477 1.24763 -0.6670247 0.2763011 0.02046173 0.9608533 15843011 male
1.354294 0.2598169 -0.7535986 -0.05660959 -0.9928243 0.1053339 526600 male
1.473377 1.263724 -0.6727883 -0.2977904 -0.4430535 0.8455912 7368312 male
1.570682 1.406844 -0.710085 0.211632 -0.5097568 0.8338825 16704481 male
1.498183 0.8707996 -0.7772633 0.8713263 -0.2964061 0.3910678 5659238 male
1.604011 0.2870844 -0.910345 -0.625239 -0.5373354 0.5659919 526600 male
1.709167 1.049326 -0.9213828 -0.5709953 -0.2260584 0.789216 526344 male
1.577684 0.3600149 -0.9536638 0.08852774 0.3587131 0.9292405 526600 male
1.503176 1.354103 -0.8888477 -0.6469508 0.4483961 -0.6167623 15329779 male
1.467581 1.374479 -0.83653 -0.3039177 0.491968 -0.8158441 14670567 male
1.447318 1.189036 -0.700988 -0.3100365 -0.1457185 0.939491 5130574 male
1.499313 0.7172337 -0.8843271 -0.7835788 -0.1457852 0.6039461 1118225 male
1.350538 1.275595 -0.6675148 -0.4081793 0.3360952 0.8487813 16433334 male
1.392394 0.9843598 -0.9155756 -0.5776796 0.1581919 -0.800788 7569036 male
1.622937 1.357306 -0.7840034 0.7390655 0.3774523 0.5579534 12037823 male
1.360718 0.4748423 -0.7919623 0.5269063 -0.2150452 0.8222685 526600 male
1.359534 1.355766 -0.7192989 -0.9203073 0.2208735 -0.3228766 6841457 male
1.568634 1.496261 -0.6507379 -0.3805587 -0.2642261 0.8862051 14462891 male
1.640404 1.37873 -0.9256533 0.1429581 0.4517195 -0.8806319 5066580 male
1.452062 0.9180875 -0.7360602 0.398498 0.175078 0.9003037 6646395 male
1.337808 0.6018489 -0.8612512 -0.5677826 0.4149871 -0.7109209 526600 male
1.598064 0.6097582 -0.9114931 0.8375183 -0.4366163 0.328526 526346 male
1.493188 1.364251 -0.8639473 -0.6896458 0.5027314 -0.5212003 15789306 male
1.524183 1.092979 -0.9318206 -0.04740816 0.147182 -0.9879726 6643821 male
1.717566 1.09498 -0.9246494 0.4216564 0.348731 0.837014 15712193 male
1.646327 1.619814 -0.7119988 0.7884392 0.614152 -0.0343661 6644064 male
1.469089 0.9298919 -0.9756098 -0.4115339 -0.1197158 -0.9034976 10726330 male
1.541738 1.581163 -0.6596708 -0.6176425 0.09334067 0.7809002 11314087 male
1.560186 0.5724808 -0.9123884 0.09373453 -0.2969272 0.9502885 526600 male
1.657256 1.288016 -0.8661976 0.2438802 -0.1912079 0.9507691 13278106 male
1.620915 0.8269133 -0.8793763 0.9761403 -0.02875788 0.2152286 1907745 male
1.470966 0.9555758 -0.9769188 -0.3263118 0.02291691 -0.9449843 4407888 male
1.618449 1.21821 -0.8774068 0.92259 -0.1917556 -0.3347498 198147 male
1.38582 1.009944 -0.9023162 -0.6079096 0.3426003 -0.7162898 7107452 male
1.546242 0.6799032 -0.8647038 -0.2695976 -0.3175488 0.9091094 987927 male
1.361798 0.9469302 -0.7705353 -0.8700883 0.1585073 0.4667139 2894900 male
1.586504 0.9989445 -0.8434532 0.876078 -0.1372717 0.4622161 6776182 male
1.30679 1.149661 -0.665746 0.1903428 0.2150404 0.9578763 16771296 male
1.534403 1.626684 -0.6882982 -0.6172184 0.5873249 0.523537 526600 male
1.41403 0.6908672 -0.8647833 0.24734 -0.088754 -0.9648552 5592928 male
1.517348 1.438914 -0.7922369 -0.4380325 0.6821654 -0.5854722 12103867 male
1.565845 1.403427 -0.8820461 -0.08663097 0.7109913 -0.6978441 11381180 male
1.463068 0.8899677 -0.9525314 -0.6819808 -0.4695181 -0.5607626 11976911 male
1.376384 0.9641599 -0.7516077 -0.745124 0.1368525 0.652734 3750978 male
1.56746 0.3191321 -0.9587939 -0.6934372 0.1513064 0.7044511 526600 male
1.579619 0.4982717 -0.9962481 0.6573265 -0.0753273 -0.7498318 526600 male
1.519421 1.32104 -0.6838931 0.5362537 0.2393233 0.8094172 15719300 male
1.421927 0.8576514 -0.8900419 0.014189 -0.2180669 -0.9758306 7500927 male
1.632564 0.292764 -1.004931 0.4738019 0.05161427 -0.8791175 526600 male
1.654715 1.345727 -0.8493949 0.3948449 -0.5557402 0.731608 7827833 male
1.356218 0.2795385 -0.8219393 0.8451379 -0.4541966 -0.2818643 526600 male
1.572278 0.3921961 -0.9538885 0.3543386 0.119477 0.9274532 526600 male
1.557125 0.3062875 -1.0404 0.3029077 0.2911026 -0.9074724 526600 male
1.333241 1.14096 -0.709132 0.9804065 -0.1909971 -0.0481987 11836832 male
1.340778 1.259261 -0.7267466 -0.5498301 -0.01026605 -0.8352134 16766929 male
1.422843 1.299053 -0.7083372 -0.2573329 -0.6666067 0.6995822 526600 male
1.60621 1.648833 -0.7178144 0.3787763 0.9249537 0.03145219 526600 male
1.612536 1.289467 -0.7543663 0.6086924 0.07397072 0.7899505 11246263 male
1.532226 1.302205 -0.6880215 0.5986481 0.1559118 0.7856921 15787402 male
1.507863 0.6224404 -0.9251396 -0.9954383 -0.09184437 0.02582908 789516 male
1.407187 1.029114 -0.7399667 -0.2986152 0.3280431 0.8962235 3353652 male
1.379796 1.304614 -0.6672009 -0.02019492 0.1853622 0.9824628 15782868 male
1.602043 1.622582 -0.6594286 0.08165014 0.6946652 0.7146843 2960173 male
1.357415 0.3647433 -0.8262292 0.97874 0.1359336 -0.1535907 526600 male
1.357469 1.006562 -0.8647711 -0.9246306 0.2297682 -0.303751 7305088 male
1.32758 1.124724 -0.7108731 0.8713794 -0.3558396 -0.3377515 10719638 male
1.438538 1.333924 -0.6853429 0.006043077 -0.9085301 0.4177759 526344 male
1.3516 0.3735989 -0.8450378 0.8298402 -0.1217563 -0.5445555 526600 male
1.506624 0.822071 -0.8403859 -0.4282648 -0.2460168 0.8695199 3881535 male
1.309542 0.51899 -0.8083307 -0.8518931 0.02180902 0.5232615 526600 male
1.376621 0.7390169 -0.7490503 -0.5804351 -0.2449652 0.7765869 5593700 male
1.661353 1.5825 -0.7028404 0.9785501 0.2056306 -0.01248002 15447735 male
1.363756 1.051396 -0.8329306 -0.8999074 0.4080392 -0.1538531 8354175 male
1.535046 1.428749 -0.8248033 -0.3836011 0.8426116 -0.3779628 12632016 male
1.391638 1.367481 -0.6573131 -0.2746904 -0.004427799 0.9615225 8551820 male
1.520451 0.7617654 -0.8549106 -0.4210213 -0.2784532 0.8632525 4145735 male
1.773193 0.9767095 -0.9457495 0.7511548 0.09458867 -0.6533142 15774645 male
1.549885 1.122021 -0.7353922 0.5804888 -0.2198132 0.7840375 13486302 male
1.540266 0.6948785 -0.8621709 -0.2909174 -0.2484636 0.9239225 5331041 male
1.372525 0.5780737 -0.7821327 0.1501263 -0.1774464 0.9726124 526600 male
1.572189 0.4864884 -1.000524 0.526709 -0.08414342 -0.8458709 526600 male
1.603206 1.596567 -0.6418731 0.02295285 0.409527 0.9120092 527368 male
1.33549 0.5808583 -0.7917327 -0.5950006 0.1830847 0.7825946 526600 male
1.500199 0.6534853 -0.9019906 -0.914773 -0.2147226 0.3421763 526600 male
1.446737 1.348319 -0.6592462 0.3964356 -0.2017065 0.89563 6841968 male
1.507055 0.5356618 -0.9863608 -0.8389186 -0.0275623 -0.5435584 526600 male
1.587119 0.3297895 -1.011157 0.6192716 0.1197569 -0.7759904 526600 male
1.437722 1.340632 -0.6873023 0.2209658 -0.9086804 0.3542232 592137 male
1.41878 0.6144868 -0.8108707 0.8911878 -0.4320365 0.1383069 3619392 male
1.729489 1.073896 -0.919812 0.3508537 0.3984955 0.8474097 14199985 male
1.561157 1.304048 -0.7143717 0.7317596 0.02775889 0.6809973 11708599 male
1.5247 0.4589066 -0.9433841 -0.6110514 -0.2698362 0.7441804 526600 male
1.466213 1.074064 -0.9200376 -0.4507065 0.5264914 -0.7208818 12235458 male
1.541895 1.59331 -0.7950953 -0.4181051 0.2925313 -0.8600079 16709374 male
1.417809 1.30932 -0.7011142 0.8605921 -0.4562932 -0.2262251 657930 male
1.578904 1.589374 -0.8014034 0.1291806 0.1795766 -0.9752253 4341570 male
1.643759 1.533986 -0.6601458 0.7925744 -0.3387981 0.5069928 16109004 male
1.429693 0.718878 -0.8615401 0.5078397 -0.1405088 -0.8499153 4211275 male
1.308923 0.4878477 -0.8109877 -0.8647857 -0.04903879 0.4997409 526600 male
1.418197 1.090159 -0.7408278 -0.5863014 -0.09433378 0.8045817 4736589 male
1.456611 1.264629 -0.8715739 -0.6066378 0.06155897 -0.7925913 12104132 male
1.352443 0.5901498 -0.7836156 -0.3825696 0.06348706 0.9217429 526600 male
1.499704 0.8910034 -0.9761324 -0.2165735 -0.2807161 -0.9350371 7961481 male
1.521848 1.630958 -0.7359474 -0.7490246 0.6562372 -0.09118566 526344 male
1.6364 1.489126 -0.7489709 0.7727683 -0.2775379 -0.5707905 13609893 male
1.607215 0.8839687 -0.8548339 0.831145 0.1194622 0.5430716 13290970 male
-2.478209 0.3394354 -1.410415 0.6846487 0.02933321 -0.7282829 5065284 male
-2.416838 0.05338148 -1.457937 0.8409339 0.06816152 -0.536828 3750978 male
-2.64556 -0.2835218 -1.449571 0.9660386 -0.2500143 0.06528771 1841948 male
-2.406937 0.05161285 -1.414166 0.9959361 -0.05656411 0.07008564 2236450 male
-2.476813 0.3587769 -1.408554 0.7209472 0.03398678 -0.6921563 4736320 male
-2.695684 -0.2202432 -1.517333 -0.541842 -0.2451932 -0.8039203 1973534 male
-2.581094 0.5607545 -1.457636 -0.4162064 0.2116427 -0.8842962 9472383 male
-2.544951 0.6397398 -1.44052 -0.6721827 0.5378288 -0.5088326 11050904 male
-2.720991 0.7950334 -1.44949 -0.2616397 -0.2048878 -0.943168 8088939 male
-2.661854 0.08630628 -1.471276 -0.1934422 0.2386683 -0.9516397 4145739 male
-2.442703 -0.212034 -1.405234 0.1632693 0.2545733 0.9531716 2302756 male
-2.738172 0.7930819 -1.371339 -0.9499384 -0.2898275 0.1166934 4933187 male
-2.665571 0.343807 -1.283982 -0.69261 -0.02157912 0.7209895 4669502 male
-2.520432 0.242621 -1.432789 0.3118284 0.1125659 -0.9434469 9669766 male
-2.494277 0.2933046 -1.274737 0.2499818 0.4150373 0.8747877 9603203 male
-2.484897 -0.03819029 -1.384228 -0.3195299 -0.2993379 0.8990539 3092791 male
-2.704464 0.06274321 -1.355982 -0.8457311 -0.2802722 0.4540777 2697257 male
-2.501522 0.651254 -1.477729 -0.4086962 0.08842691 -0.9083768 4735551 male
-2.479637 -0.4395981 -1.374841 -0.1411013 -0.9556093 0.258653 592137 male
-2.506032 0.4990725 -1.443545 0.4960422 -0.05361474 -0.8666418 5130306 male
-2.642072 0.6602982 -1.432961 -0.06796396 -0.3631721 -0.9292402 16773351 male
-2.550847 0.1377733 -1.43527 -0.7386112 0.003016371 -0.674125 1908259 male
-3.053903 0.5623166 -1.534803 -0.8794031 0.324717 0.3481513 16636622 male
-2.94116 0.4724575 -1.433677 0.940327 0.3340968 0.0645358 16509406 male
-2.651869 -0.2696538 -1.481166 0.7544084 -0.3495061 -0.5556203 2434087 male
-2.587039 0.5749531 -1.263151 0.5144687 0.3676527 0.7746959 7103580 male
-2.539847 0.626623 -1.293556 0.2053236 0.4522483 0.8679366 9078146 male
-2.634349 0.1230735 -1.265546 -0.2074098 -0.5153807 0.831483 3026481 male
-2.59208 -0.06141819 -1.470597 0.9501169 -0.114095 -0.2902765 2499878 male
-2.430465 0.344449 -1.709999 -0.7927243 -0.3817768 -0.4752209 10651777 male
-2.554571 0.2587313 -1.2569 0.05222774 0.2644652 0.9629802 11247517 male
-2.699381 0.5964872 -1.379673 -0.5664812 0.49088 -0.6619185 6904664 male
-2.419595 -0.2656688 -1.428824 0.9476908 -0.2788164 0.1553833 2499627 male
-2.47215 0.5888486 -1.5095 -0.5302005 0.4350789 -0.7277321 10065039 male
-2.637993 0.7092302 -1.447899 0.6465045 -0.6220635 -0.4416663 11378324 male
-2.763391 0.5971007 -1.260946 -0.3044789 0.4969836 0.8125886 9077369 male
-2.418188 0.1537892 -1.426161 0.8958446 0.2152592 -0.3887495 3683645 male
-2.40916 -0.09452171 -1.458726 0.8428884 0.1328451 0.5214322 2169889 male
-2.64618 -0.08907843 -1.535748 -0.05548248 -0.1014856 -0.9932889 3948615 male
-2.589483 0.5606161 -1.254287 0.5039835 0.276765 0.8181699 7368808 male
-2.588283 0.3400737 -1.269138 0.1516358 -0.1502213 0.9769547 10393494 male
-2.858663 0.3933228 -1.339224 0.6775191 -0.6624555 -0.3195636 8549487 male
-2.740531 0.8540912 -1.387233 -0.9288998 0.3677379 0.04375291 3551278 male
-2.67741 0.1909842 -1.282863 -0.7558377 -0.04574653 0.6531593 7038049 male
-2.613723 0.8484432 -1.41913 0.8374112 0.3367143 -0.4305417 5919050 male
-2.671311 -0.1508139 -1.539889 -0.3721777 -0.3394876 -0.8638474 3683385 male
-2.822473 0.5540472 -1.3062 -0.756847 0.6439301 0.111968 6314324 male
-2.714532 0.09438904 -1.40924 -0.980452 0.05808719 -0.1879895 1842979 male
-2.631384 0.1475392 -1.25641 -0.2451743 -0.3126451 0.9176835 4802897 male
-2.703203 0.4409821 -1.333198 -0.9570036 -0.2747892 -0.09292594 3946035 male
-2.546624 0.2980731 -1.269125 0.08047953 0.3237716 0.9427063 7826791 male
-2.628707 -0.2338506 -1.459374 0.9562443 -0.2742898 0.1017956 1974302 male
-2.428732 0.2222584 -1.353121 0.9532877 0.1310418 0.2721597 4077878 male
-2.635672 0.2410798 -1.416539 -0.3952743 0.08751187 -0.9143852 6905437 male
-2.400708 0.4633117 -1.528061 -0.7819772 -0.4972343 0.3758589 14928582 male
-2.622915 0.8757632 -1.400147 0.6716921 0.6872439 -0.2766328 3354670 male
-2.503332 -0.07514377 -1.440401 -0.8392791 -0.1585649 0.5200655 2500137 male
-2.59014 0.6857682 -1.345051 0.1927171 0.6802367 0.7072046 8946816 male
-2.704077 0.6411923 -1.305551 -0.6238344 0.7809671 0.0303497 3420462 male
-2.660647 0.09810399 -1.29226 -0.4355454 -0.5450267 0.7164121 2828843 male
-2.421138 0.2090463 -1.369096 0.9806464 0.1458114 0.1306594 4868676 male
-2.685694 -0.3848895 -1.421926 0.9927651 0.119559 0.01111174 1644825 male
-2.709396 -0.2431834 -1.493935 -0.8438022 -0.2201253 -0.4894315 1908256 male
-2.608756 0.4525782 -1.438887 -0.316737 0.1501296 -0.936557 16702132 male
-2.540843 0.08490692 -1.325768 -0.6029536 -0.460389 0.6515284 1908773 male
-2.760555 -0.4329072 -1.384498 -0.7979948 -0.5864102 0.1390236 3026222 male
-2.753927 0.5592986 -1.34006 0.306764 -0.3109113 -0.8995723 4999748 male
-2.489084 -0.4215028 -1.345184 -0.1486495 -0.9758723 0.1599262 657418 male
-2.667395 -0.2931459 -1.481395 0.5703162 -0.3379901 -0.7486671 3156784 male
-2.724957 -0.3696054 -1.397922 -0.7246134 0.006347436 0.6891265 2895151 male
-2.41625 0.4974846 -1.514185 -0.9702574 -0.2416284 0.01471615 16242645 male
-2.396542 0.3915744 -1.677718 -0.2924 0.7331078 -0.6140484 15913668 male
-2.504039 0.526942 -1.447461 0.7254403 -0.1482123 -0.6721383 4407354 male
-2.708882 0.8897117 -1.39687 -0.5040289 0.860126 -0.07834625 4932930 male
-2.675479 0.5414666 -1.41365 -0.4203291 0.2061333 -0.8836474 5395020 male
-2.578261 0.5352855 -1.461046 -0.373684 0.07853712 -0.9242253 9142907 male
-2.655322 -0.1548326 -1.436561 0.1844983 0.3565899 0.9158627 2960429 male
-2.54777 0.1633634 -1.442606 -0.1306908 -0.3139641 -0.9403971 3223601 male
-2.428157 0.6101372 -1.442506 0.9561406 0.1297121 0.2626218 9539208 male
-2.619316 0.700228 -1.341183 0.3771318 0.1936847 0.9056811 16240071 male
-2.475754 -0.2939439 -1.438282 -0.4676494 -0.4475584 -0.7622308 1579032 male
-2.483063 0.238629 -1.263144 0.4470631 0.1169598 0.8868231 9405823 male
-2.364736 0.4686973 -1.602354 0.4884481 0.5227644 -0.6986673 16374221 male
-2.439391 0.6439046 -1.412358 0.8911675 0.23424 0.3885256 10327699 male
-2.484153 -0.2706155 -1.44999 -0.652602 -0.3997664 -0.6436597 1644825 male
-2.644717 0.08367588 -1.473682 0.08958834 0.2378076 -0.9671721 4409683 male
-2.442028 -0.1554902 -1.426823 0.02099833 0.5229445 0.8521082 3552310 male
-2.49519 -0.05707007 -1.489589 -0.6919053 -0.145537 -0.7071679 2564903 male
-2.732458 0.8601159 -1.421938 -0.8389472 0.4724392 -0.2701276 6511189 male
-2.446005 0.2185949 -1.30504 0.8777336 0.02556269 0.478467 6708823 male
-2.643446 0.6663693 -1.31453 0.1528756 0.7518185 0.6414033 4079417 male
-2.446571 0.6271142 -1.483274 0.3980004 0.5975256 -0.6961028 10457988 male
-2.624113 0.05600058 -1.47355 0.4064035 0.1689927 -0.8979298 3554116 male
-3.009463 0.5931456 -1.518642 -0.682232 0.5835612 0.4404725 15122877 male
-2.704048 0.264386 -1.334519 -0.9620679 0.2436852 0.1226504 3553331 male
-2.635662 -0.2491249 -1.452357 0.9326363 -0.2662354 0.2435333 2039327 male
-2.426104 -0.1919846 -1.514038 0.06131491 -0.5478766 -0.8343093 3223609 male
-2.713187 -0.2517398 -1.482107 -0.9323398 -0.1781271 -0.3146641 2105377 male
-2.660637 0.8319707 -1.472158 0.3489539 0.3796112 -0.8568121 15192260 male
-2.397604 -0.1829491 -1.455417 0.960605 0.02445812 0.2768399 2500646 male
-2.64908 -0.0420376 -1.383539 -0.1549721 -0.383488 0.9104508 3553340 male
-2.507021 0.5839642 -1.453484 0.4759891 -0.4756001 -0.7397562 5131077 male
-2.651812 -0.176181 -1.431985 0.2652553 0.213545 0.9402332 3025966 male
-2.692058 -0.394642 -1.447954 0.6397688 0.6474313 -0.4141604 2763050 male
-2.438562 0.6480044 -1.439505 0.861241 0.5076403 -0.02378225 9801863 male
-2.414763 -0.1149546 -1.520401 0.8611435 -0.1600458 -0.4825119 3224377 male
-2.911894 0.37263 -1.383647 0.4152895 -0.5013896 -0.7590411 13152943 male
-2.624964 0.5377753 -1.431471 -0.5078785 -0.0447472 -0.8602659 13811362 male
-2.644245 0.006744746 -1.488976 0.02361602 0.06266711 -0.9977552 4475215 male
-2.590022 0.2802064 -1.262042 0.01188815 0.32845 0.9444466 13155767 male
-2.678015 0.8044349 -1.298428 -0.1715796 -0.1493276 0.9737875 4932154 male
-2.485053 0.6567639 -1.480442 -0.1565241 0.3062692 -0.9389887 6314582 male
-2.717409 0.8329219 -1.318611 -0.6823497 0.07451799 0.7272182 6511192 male
-2.70568 0.7965848 -1.459022 -0.9235833 -0.2993354 -0.2395674 13941943 male
-2.493631 -0.01637755 -1.366737 -0.3101496 -0.3608921 0.8795251 3026483 male
-2.405246 -0.2168123 -1.483464 0.8310588 -0.3905025 -0.396042 2698289 male
-2.467373 0.4661586 -1.412963 0.79585 0.07526664 -0.6007978 3683379 male
-2.546936 0.5894064 -1.279997 0.07753178 0.2649682 0.9611353 6643548 male
-2.397165 -0.1507901 -1.505574 0.9743966 -0.141344 -0.1748528 2632496 male
-2.69069 0.1342267 -1.307011 -0.8122399 -0.2045369 0.5462888 2565935 male
-2.624793 0.8659732 -1.328422 0.6188949 0.5377722 0.5725124 4406587 male
-2.727816 0.7409513 -1.420712 -0.9158068 -0.3951876 -0.07158774 15784911 male
-2.689786 0.1103821 -1.445592 -0.6962425 0.2583847 -0.6696895 2894386 male
