# .PCD v0.7 - Point Cloud Data file format
VERSION 0.7
FIELDS x y z normal_x normal_y normal_z rgb label
SIZE 4 4 4 4 4 4 4 4
TYPE F F F F F F U U
COUNT 1 1 1 1 1 1 1 1
WIDTH 248
HEIGHT 1
VIEWPOINT 0 0 0 1 0 0 0
POINTS 248
DATA ascii
1.366924 0.777034 -0.823194 -0.2521767 -0.5945079 0.7635229 4868177 male
1.399355 0.6142321 -0.7742191 0.2043627 0.6968538 0.6874814 7369345 male
1.666637 0.3585002 -0.9527286 -0.3899064 0.3576269 0.848573 526600 male
1.280629 0.5432701 -0.8858113 -0.6534992 -0.7148895 0.2487402 7238523 male
1.354195 0.745578 -0.8810445 0.1255752 -0.7402683 0.66048 6709098 male
1.771756 0.5646509 -0.9308046 0.9374602 -0.3402161 0.07362974 526600 male
1.31959 0.6816434 -1.106973 -0.2284558 0.01408013 -0.9734524 6317687 male
1.542903 0.8516211 -0.7909364 0.6916013 -0.6131626 0.3817318 12827605 male
1.752136 0.9124181 -0.7119916 0.6999993 0.4727463 -0.5352681 14592677 male
1.607513 0.5653012 -0.9083259 -0.1770675 0.007166308 0.9841726 3618616 male
1.434671 0.4100364 -0.6675286 -0.9324989 -0.01989813 0.3606241 526600 male
1.74545 1.009305 -0.698467 0.8422404 0.5199821 -0.1423012 10392210 male
1.398453 0.8694067 -1.045882 -0.1954781 0.3330829 -0.9224122 6841969 male
1.388494 0.6799999 -0.9249592 0.4955521 0.3401703 0.7991948 6383472 male
1.250815 0.761 -0.9945549 -0.7910474 0.4436346 -0.4212272 14868202 male
1.36788 0.5166296 -0.7783229 -0.7664689 -0.5225711 0.3734232 7896969 male
1.451617 0.5541338 -1.088374 0.2791491 -0.3804738 -0.8816549 5592666 male
1.464616 0.8396074 -0.7244476 0.3137791 -0.6088512 -0.7285896 921361 male
1.41429 0.2758186 -0.7564864 0.1420231 -0.9856517 -0.0912143 526600 male
1.43256 0.9206925 -0.7010797 -0.4928084 0.5908758 0.6387532 7696765 male
1.62957 0.8763095 -0.7719556 -0.03585828 -0.9473276 0.3182524 12098972 male
1.39341 0.6476694 -0.8563582 0.670433 0.7371443 0.08448535 9015969 male
1.667209 0.2328829 -0.8179027 -0.03805156 -0.8301718 0.5562075 526344 male
1.541454 0.7533101 -1.130883 -0.8203757 -0.5704353 -0.0398404 3617074 male
1.736744 0.4591321 -0.9576896 0.8477128 -0.3944148 -0.3547112 526600 male
1.554393 1.007892 -0.9082338 0.1278846 0.9743254 -0.1852985 11445946 male
1.468209 0.9825826 -0.8512647 -0.2165308 0.9717863 -0.09351928 13290201 male
1.442492 0.7804074 -0.8085664 -0.07703134 -0.9039586 0.4206246 7629692 male
1.549343 0.5864673 -0.9323359 -0.06021142 0.328929 0.9424332 5658725 male
1.389915 0.8639336 -0.7097851 -0.844147 0.5188355 -0.1350022 14793919 male
1.226592 0.6281395 -0.9704287 -0.9220616 -0.3071352 -0.2355216 10135480 male
1.606865 0.9072969 -0.8772922 0.9081922 -0.2494551 0.3360938 12564940 male
1.468558 0.3966511 -0.6400251 -0.1602589 -0.4236816 0.8915216 526600 male
1.446311 0.8200215 -0.6753526 0.5780488 -0.4847917 0.6563815 13873589 male
1.676134 0.8531172 -0.7402968 -0.4027077 -0.914125 -0.04692513 9730931 male
1.629144 0.9454033 -0.9865641 0.3464063 0.6080322 -0.7143525 8684179 male
1.343624 0.6740918 -0.888442 0.3035533 0.9077464 0.2895717 6580602 male
1.42585 0.5436714 -0.6999467 -0.6695889 0.1214986 0.7327271 5264216 male
1.548418 0.6187338 -1.002449 0.6259559 0.7754509 -0.08279562 4540494 male
1.546976 1.001394 -0.8462446 -0.03925999 0.9354964 0.3511483 14210016 male
1.489793 0.9891087 -0.856975 -0.3159881 0.9327443 0.173608 14340838 male
1.61207 0.7256423 -1.157855 0.475689 0.1691895 -0.8631887 13151661 male
1.726311 1.027668 -0.7184789 0.6550823 0.6690729 -0.3510107 3223089 male
1.270177 0.72806 -1.052 -0.8104303 0.3135424 -0.4948675 6316911 male
1.631396 0.9648644 -0.6401138 -0.4809328 -0.2585194 0.8377777 12431281 male
1.655394 0.5734929 -0.9983532 0.4945463 0.1785694 -0.8506097 657930 male
1.637844 0.8661946 -0.997012 0.983659 -0.1785927 0.02279738 15255233 male
1.479785 0.6063814 -1.077549 0.4344811 0.2980529 -0.8499357 7369857 male
1.273082 0.7471385 -1.044009 -0.7876177 0.4078015 -0.4619051 10261668 male
1.531967 0.86359 -0.9892675 0.66287 -0.2478126 -0.7065353 526344 male
1.250479 0.7358726 -1.01361 -0.8187165 0.3419657 -0.4612621 9471896 male
1.605158 0.5996258 -0.9562458 0.5191992 0.8248325 0.2237934 8158861 male
1.271574 0.5586097 -0.8727996 -0.7526456 -0.5227103 0.400373 9277597 male
1.434828 0.7417467 -0.9432588 0.6076286 -0.7738476 0.1787383 13421026 male
1.278298 0.740378 -0.7193748 -0.5944443 -0.006820624 -0.8041078 9470592 male
1.640627 1.006042 -0.6323592 -0.349677 0.2174028 0.9112968 526600 male
1.495175 0.524869 -0.7257456 -0.02145204 -0.5358581 -0.8440356 592393 male
1.558178 0.9751121 -0.7951677 -0.0905254 0.9378058 0.3351497 13091540 male
1.576241 1.004419 -0.9087186 0.3300794 0.9280369 -0.1726126 11381180 male
1.39497 0.5459245 -1.093396 0.1946296 -0.5774138 -0.7929139 3553607 male
1.253043 0.6809032 -0.8810499 -0.7285182 0.07177329 0.681256 4343379 male
1.680341 0.3069281 -0.9431143 -0.1515308 0.4787397 0.8647813 526600 male
1.713806 0.5904221 -0.9782684 -0.1718278 0.2632104 -0.949313 526600 male
1.327029 0.6701348 -1.107936 -0.1662617 -0.005407669 -0.9860668 8291478 male
1.272521 0.5615796 -0.988228 0.134178 -0.9386996 -0.317552 4540493 male
1.704196 0.276281 -1.022202 0.2070325 -0.02453591 -0.9780263 526600 male
1.661785 0.9352632 -0.9390745 0.9130417 0.2927047 0.2840401 8814990 male
1.445589 0.3242094 -0.7448375 0.9377851 0.128948 -0.3223839 526600 male
1.698359 0.3921424 -0.9682257 0.5755184 -0.3427337 -0.742504 526600 male
1.644047 0.3312536 -1.023641 -0.01016548 0.3302902 -0.9438246 526600 male
1.312058 0.7255628 -0.7051051 0.8167232 -0.1868147 -0.545952 12623527 male
1.286368 0.5959833 -0.6432332 0.3065581 0.160925 0.9381499 15973827 male
1.463103 0.9371188 -0.7083472 -0.03707707 0.6331406 0.7731483 8553355 male
1.716125 1.037037 -0.6731312 0.541306 0.7942206 0.276046 526600 male
1.557523 0.8218746 -0.9053739 0.6536413 -0.7329922 0.1883496 14075854 male
1.301159 0.5889643 -1.079908 -0.5888445 -0.4918821 -0.6413378 14804465 male
1.747924 0.5422567 -0.9810756 0.5374757 -0.05092042 -0.8417404 526600 male
1.266745 0.7105643 -0.869648 -0.5230193 0.206198 0.8270026 5328209 male
1.387906 0.8123569 -0.6626747 -0.2566841 0.2240889 0.9401581 15118247 male
1.567648 0.9669466 -0.7821097 -0.331837 0.8828093 0.3324632 16237244 male
1.47206 0.3792601 -0.7050848 0.8519547 -0.1557874 -0.4999035 526600 male
1.329586 0.8762742 -0.8374054 -0.8877636 0.3290366 0.3218859 10657714 male
1.283317 0.6714816 -0.647741 -0.0311226 0.03974298 0.9987251 11899020 male
1.46569 0.8704278 -0.6561412 0.03008005 -0.01793517 0.9993865 6972786 male
1.483699 0.3860114 -0.676729 0.9330473 -0.3558829 0.05263191 526600 male
1.613074 0.5528732 -0.9104649 -0.4689706 -0.2668942 0.8419228 986895 male
1.487429 0.4954276 -0.596038 -0.4188738 -0.1371613 0.8976255 526600 male
1.529106 0.5510881 -0.7018875 0.9749051 -0.003676036 -0.2225906 3093302 male
1.755009 0.9904238 -0.7011392 0.9350904 0.3040421 -0.1821106 12685963 male
1.220155 0.7190344 -0.9424846 -0.9879218 0.1381227 0.0702318 9869736 male
1.571433 1.001211 -0.8440842 0.1171708 0.9072427 0.4039577 11118264 male
1.47242 0.8432908 -0.6683233 0.4013244 -0.6720941 0.6222767 11775682 male
1.710328 0.5843497 -0.8905548 0.06695366 -0.2056607 0.9763303 526344 male
1.645607 0.6388325 -1.163903 0.4941111 0.1014772 -0.8634561 13276825 male
1.471477 0.7589747 -0.9317627 0.6440319 -0.7429342 0.1824056 12116663 male
1.590228 0.600964 -0.9558179 0.475051 0.8084342 0.3475064 7962250 male
1.370324 0.5777488 -0.7550258 -0.4946021 0.183248 0.8495816 3224898 male
1.763327 0.5322393 -0.9236058 0.7896065 -0.2781707 0.5469393 526600 male
1.677542 0.9913673 -0.6256408 0.05279988 0.1162879 0.9918111 1841948 male
1.460601 0.5269951 -0.6378006 -0.9304037 0.3650264 0.03323558 526600 male
1.474056 0.5202672 -0.9633099 -0.2684188 -0.6663057 0.6956925 1381401 male
1.510876 0.8489536 -0.7519408 0.742142 -0.4651056 0.4825993 15065333 male
1.708393 0.5506615 -0.9876719 -0.1620783 0.133735 -0.9776735 526600 male
1.672722 0.3077822 -1.027547 0.2659508 0.1882334 -0.9454303 526600 male
1.453545 0.8850573 -0.6596321 -0.212346 0.2371804 0.947974 6511979 male
1.504587 0.4379514 -0.6919069 0.6286528 -0.1815334 -0.7562019 526600 male
1.606783 0.7320806 -1.111168 0.2920628 0.1165651 0.9492692 14989243 male
1.51308 0.8122404 -0.8699126 0.4726125 -0.8614696 0.1857619 15450088 male
1.706515 0.4166906 -0.932953 0.5311248 -0.1670735 0.8306582 526600 male
1.348992 0.8863925 -0.9664693 -0.7269162 0.6789155 -0.1032791 10920628 male
1.611735 1.014022 -0.7507932 -0.6139736 0.4913105 -0.6177785 4342082 male
1.489153 0.8438175 -0.6809309 0.5330917 -0.7955965 0.2878185 9933215 male
1.656081 1.039735 -0.7488508 -0.06116837 0.7187984 -0.6925224 4472900 male
1.755277 0.9099325 -0.7098285 0.7387661 0.4817215 -0.4713481 13802650 male
1.513919 0.5287594 -0.7210877 0.3352851 -0.4023112 -0.8518976 526602 male
1.518848 0.5049208 -0.5891757 0.09482408 -0.2657805 0.9593586 526600 male
1.321509 0.8011285 -0.8421885 -0.6884121 -0.2041859 0.6959863 6513003 male
1.353358 0.8923361 -0.9479004 -0.6188061 0.7317984 -0.2855698 11643326 male
1.322544 0.6037793 -0.7971815 -0.6054528 0.2191588 0.7651119 4869976 male
1.38539 0.5731953 -1.104884 0.1706962 -0.3407176 -0.92454 9409439 male
1.588712 1.004331 -0.7111328 -0.9334022 0.3464301 -0.09352314 9735828 male
1.70093 0.9267541 -0.782948 0.4091375 0.09779974 -0.9072164 12954019 male
-2.460285 0.3708816 -1.283841 0.9908678 0.03940919 0.1289506 3355440 male
-2.433073 0.05076753 -1.339011 0.8123568 -0.1473808 -0.5642301 4277322 male
-2.650475 -0.2652838 -1.370885 0.9484402 -0.2991149 0.1048425 1644825 male
-2.494195 0.1142905 -1.196072 0.03476229 -0.4085002 0.9120961 2632496 male
-2.459591 0.3586261 -1.293391 0.9982977 -0.05395875 -0.02214587 3814706 male
-2.695309 -0.1028318 -1.363318 -0.8701219 0.3640991 0.3321447 2565415 male
-2.61452 0.3776222 -1.436813 -0.1379467 -0.4658449 -0.8740477 8484723 male
-2.535403 0.5464438 -1.522548 -0.05138937 -0.1914806 -0.9801502 7169117 male
-2.731078 0.6217278 -1.566456 -0.4051668 -0.004521901 0.9142319 8087907 male
-2.590758 0.06421586 -1.355038 0.8515238 0.01511895 -0.5240982 2434604 male
-2.53132 -0.2861188 -1.33712 -0.7417935 -0.008608273 -0.6705734 1579032 male
-2.732407 0.5836739 -1.687334 -0.57669 -0.5454252 -0.6082271 16438989 male
-2.676059 0.4166205 -1.275495 -0.7130608 0.02817039 0.7005363 5722446 male
-2.512052 0.361512 -1.400199 0.6065291 -0.4146939 -0.6783448 6248276 male
-2.531619 0.3503185 -1.200071 -0.05998464 0.6330232 0.7718054 10196111 male
-2.517572 -0.1263093 -1.296642 -0.8452073 0.3274984 0.4223385 2170913 male
-2.702395 0.04894533 -1.306236 -0.961172 -0.2278483 0.155672 2369321 male
-2.496754 0.6623833 -1.538675 0.2653424 0.9604222 0.08475073 11577762 male
-2.558089 -0.4025292 -1.351696 -0.8348566 0.2681015 -0.4807664 2303014 male
-2.487646 0.5182405 -1.458228 0.9815207 -0.03267813 -0.1885456 4209464 male
-2.713434 0.5781131 -1.509922 -0.845449 -0.5320236 -0.04655218 12626079 male
-2.51509 0.1345824 -1.34163 -0.4366993 0.1108407 -0.8927532 3223601 male
-2.687692 -0.417732 -1.435927 0.9714461 0.1009121 0.2147314 2829361 male
-2.933128 0.4100234 -1.713839 0.6633557 -0.613917 -0.4278613 14205372 male
-2.65298 -0.231534 -1.405286 0.7518327 -0.2261827 -0.6193458 2500910 male
-2.666346 0.574506 -1.343203 -0.02507727 0.7280473 0.6850682 10525591 male
-2.582231 0.6360117 -1.394087 -0.1796458 0.8454412 0.502948 8748667 male
-2.461937 0.5085722 -1.388804 0.9927544 0.06930827 -0.09815961 3157548 male
-2.651445 0.05932646 -1.390572 -0.13158 0.09338153 -0.9868976 3949129 male
-2.468471 0.6124564 -1.521162 0.9198878 -0.1537879 0.3607716 5788496 male
-2.525073 0.2847787 -1.16669 0.06866738 0.3098647 0.9482979 9866375 male
-2.602672 0.6354393 -1.501291 0.1599082 0.374696 -0.9132538 4668726 male
-2.439877 -0.1804457 -1.315599 0.9873542 -0.1441652 0.06594288 2632488 male
-2.507224 0.6354895 -1.643165 -0.5953183 0.7723802 -0.2214164 6908001 male
-2.677736 0.5069679 -1.637541 -0.04332422 -0.941165 -0.3351589 15256777 male
-2.830397 0.5057337 -1.491157 -0.7925363 -0.09836163 0.6018399 8025970 male
-2.418661 0.1480995 -1.315928 0.8907016 0.07079284 -0.4490426 3487806 male
-2.467465 0.57967 -1.601085 0.2904773 -0.9457586 0.145477 3223086 male
-2.688562 -0.06666617 -1.369134 -0.9818447 0.1751374 0.07285637 1908768 male
-2.66338 0.5863613 -1.357312 -0.002032012 0.8041813 0.5943809 7499882 male
-2.687515 0.357962 -1.273845 -0.9286146 -0.1485027 0.3400325 4998980 male
-2.99052 0.4496231 -1.720453 -0.9774287 0.1420875 -0.1563472 16773862 male
-2.710786 0.5908803 -1.54361 -0.873635 -0.246027 0.4198012 12166046 male
-2.647513 0.1884063 -1.172351 -0.3610707 -0.2201894 0.9061705 4539725 male
-2.632826 0.6571326 -1.674738 0.8241603 0.1390603 -0.5490193 4472636 male
-2.631284 -0.01835048 -1.409107 0.03762722 0.1979136 -0.9794971 3818051 male
-2.834131 0.5292593 -1.588504 -0.08298755 0.9725372 -0.2174499 5459523 male
-2.789852 0.4785205 -1.428717 -0.8432711 -0.3386101 0.4174173 3222569 male
-2.636995 0.2076739 -1.168515 -0.2572652 -0.1109912 0.9599457 3553598 male
-2.722413 0.4425162 -1.44569 -0.594474 -0.8040969 0.005373895 4867394 male
-2.57883 0.3916629 -1.22996 -0.222524 0.4050936 0.8867821 10064009 male
-2.638512 -0.2317897 -1.383524 0.9176567 -0.303341 -0.2566914 2434599 male
-2.416686 0.1864604 -1.244601 0.9659498 -0.001178508 0.2587278 3552310 male
-2.630264 0.262198 -1.340429 -0.2400268 -0.09796095 -0.9658111 5722703 male
-2.484113 0.5777192 -1.630379 -0.1420884 -0.98983 0.006889254 6447193 male
-2.653432 0.6800278 -1.687924 0.5308557 0.3978878 -0.7482498 3354670 male
-2.500208 -0.06643017 -1.280915 -0.4519395 -0.07278804 0.8890741 2434345 male
-2.50186 -0.4287554 -1.424753 0.05652785 0.9967613 -0.0571963 2631464 male
-2.707072 0.5666077 -1.493542 -0.6766957 -0.4157183 -0.6076689 4604734 male
-2.683777 0.1098426 -1.22802 -0.6568791 -0.4057073 0.6355405 3355963 male
-2.423956 0.1523478 -1.232255 0.8925536 -0.1249575 0.4332827 2829359 male
-2.736419 -0.4008934 -1.387129 0.9093024 0.1309579 0.3949928 2434853 male
-2.712654 -0.1546847 -1.39189 -0.953618 0.1549437 -0.2580806 1908769 male
-2.602433 0.3877345 -1.441925 -0.01551968 -0.3997161 -0.9165077 10129546 male
-2.524189 0.1182329 -1.198788 -0.340281 -0.4172717 0.8426704 3224378 male
-2.769417 -0.434184 -1.450551 -0.4802679 -0.8756439 0.050897 2105123 male
-2.816523 0.5459164 -1.474495 -0.6143761 0.679015 0.4018468 9801093 male
-2.56039 -0.3933657 -1.330178 -0.9337938 0.220363 -0.2819036 2039585 male
-2.651741 -0.2122719 -1.411922 0.6862563 -0.2113525 -0.6959759 2566189 male
-2.770927 -0.3866795 -1.359745 -0.9293394 0.258312 0.2638248 3289908 male
-2.491064 0.5789809 -1.635325 -0.1656109 -0.9861003 0.01339194 6775647 male
-2.455256 0.5886956 -1.874047 0.01324379 -0.8557941 -0.5171471 6313811 male
-2.479424 0.5668212 -1.453688 0.8153847 -0.4903159 -0.3077959 2698281 male
-2.748071 0.6952152 -1.653985 -0.7771016 0.5652133 -0.2768523 3485741 male
-2.674959 0.4952458 -1.498678 -0.1022764 -0.322949 -0.940874 8747897 male
-2.544245 0.4920373 -1.501579 0.0903929 -0.3961507 -0.9137254 9143418 male
-2.702799 -0.2054488 -1.417042 -0.6922115 -0.06762148 -0.7185199 1973793 male
-2.441982 0.2781572 -1.305901 0.6430733 0.1321615 -0.7543145 6446169 male
-2.454216 0.61746 -1.610564 0.9217376 0.3655255 0.1295812 7893616 male
-2.640879 0.6441727 -1.530381 0.5352592 0.8341895 0.1327609 13875379 male
-2.458344 -0.2449623 -1.32469 0.9418608 -0.3295764 -0.06540632 2697001 male
-2.494983 0.4781523 -1.296449 0.5860266 0.2737817 0.7626379 8156272 male
-2.389558 0.5772631 -1.7514 0.9773595 -0.1468652 -0.1523132 15258317 male
-2.465731 0.6335676 -1.55603 0.858633 0.4563655 0.23341 8485240 male
-2.455127 -0.2344062 -1.312489 0.9383196 -0.3141094 0.1445401 2105120 male
-2.581456 0.03472634 -1.306858 0.9731063 -0.2264742 0.04211831 2632239 male
-2.467091 -0.06253879 -1.281136 0.4971128 -0.09372118 0.8626097 2368036 male
-2.465938 -0.05607291 -1.369718 0.5886253 -0.006754573 -0.808378 3750978 male
-2.729934 0.5780303 -1.684757 -0.5397805 -0.6391342 -0.5478547 16772065 male
-2.467634 0.2103103 -1.178488 0.5911324 0.03865832 0.8056479 4014665 male
-2.704065 0.6293809 -1.460476 -0.2338553 0.9708202 -0.05310179 4209464 male
-2.528923 0.5976552 -1.603678 -0.8662841 -0.3624541 -0.3437718 7828847 male
-2.608198 -0.1023531 -1.363314 0.8703547 -0.3338744 0.361954 2171428 male
-2.935757 0.6249761 -1.806824 -0.1632782 0.8982598 0.4080069 16573651 male
-2.572913 0.3652404 -1.426547 0.09668963 -0.4822941 -0.870657 7169376 male
-2.645065 -0.2499247 -1.377858 0.9469634 -0.3080104 -0.09159833 2236194 male
-2.420421 0.09106029 -1.263717 0.9233855 -0.2270805 0.3095061 2500136 male
-2.715857 -0.1635981 -1.381831 -0.990491 0.1075786 -0.08575869 1973534 male
-2.656893 0.5636647 -1.675602 0.2191922 -0.4213912 -0.8799912 16110793 male
-2.448486 -0.04011565 -1.297538 0.9429322 -0.1513995 0.2965757 2565935 male
-2.57782 0.07754672 -1.254165 0.826211 -0.321933 0.4623146 2170913 male
-2.493953 0.5032394 -1.480235 0.8573368 -0.3215753 -0.4019494 4406329 male
-2.715469 -0.2091501 -1.363671 -0.9497702 -0.0334438 0.3111567 2434089 male
-2.782744 -0.4043249 -1.392976 -0.9925394 0.1214522 -0.0107317 1907745 male
-2.486929 0.6526063 -1.583455 0.301363 0.9524822 -0.04425162 9800065 male
-2.477308 -0.145817 -1.365729 -0.154339 -0.1396741 -0.9780955 2500651 male
-2.975415 0.4802059 -1.761522 -0.8566386 -0.02520093 -0.5153016 16506846 male
-2.609241 0.4163319 -1.453276 0.1134911 -0.4221092 -0.8994131 8748919 male
-2.660069 -0.2831402 -1.378971 0.9504665 -0.2859688 -0.1218015 2105120 male
-2.657304 0.3258847 -1.210589 -0.3908453 0.5394013 0.7458462 8353910 male
-2.747634 0.6972646 -1.603677 -0.7880996 0.5008419 0.3578502 4933187 male
-2.479785 0.6537857 -1.545644 0.5322547 0.836509 0.1302215 9537921 male
-2.764705 0.6567469 -1.63571 -0.9917519 0.1269919 0.01736313 4866106 male
-2.743406 0.6160121 -1.585062 -0.8552101 -0.3968404 0.3333672 7102557 male
-2.497705 -0.02930629 -1.257099 -0.1210518 -0.2617862 0.9575045 2960173 male
-2.450302 -0.1319998 -1.288424 0.7649926 0.1244691 0.6318972 2170660 male
-2.472995 0.4930488 -1.33284 0.8552392 0.2440644 0.4571638 5393738 male
-2.591491 0.6133575 -1.364756 -0.2932931 0.6458444 0.7048861 10458512 male
-2.427032 0.08541628 -1.253047 0.8529034 -0.2769099 0.44258 2697257 male
-2.693421 0.1481963 -1.22082 -0.8243392 -0.2648771 0.5003053 3814714 male
-2.658228 0.7073059 -1.579864 0.3484173 0.7445056 0.5694883 6313295 male
-2.694593 0.5172165 -1.64503 -0.5441418 -0.6857595 -0.4833669 14601413 male
-2.598391 0.1472605 -1.346675 0.6029593 0.2022822 -0.771701 2829875 male
-2.539526 0.2453279 -1.35981 0.3709447 -0.01260342 -0.9285696 9340292 male
-2.766042 -0.4296049 -1.380006 0.261668 -0.9647039 0.0296003 723723 male
-2.918102 0.4903088 -1.637391 -0.7175509 0.5690255 0.4016601 16770520 male
