# .PCD v0.7 - Point Cloud Data file format
VERSION 0.7
FIELDS x y z normal_x normal_y normal_z rgb label
SIZE 4 4 4 4 4 4 4 4
TYPE F F F F F F U U
COUNT 1 1 1 1 1 1 1 1
WIDTH 246
HEIGHT 1
VIEWPOINT 0 0 0 1 0 0 0
POINTS 246
DATA ascii
1.441367 0.8304486 -0.8112265 -0.1631588 -0.8015493 0.5752373 7762820 male
1.436236 0.6627424 -0.7697548 0.764739 0.4282383 0.4814417 6779008 male
1.636131 0.3872369 -0.9285284 -0.3656697 -0.1315989 0.9213942 526600 male
1.295838 0.6499716 -0.8836467 -0.8498464 -0.525547 0.03951463 7238523 male
1.448786 0.8358531 -0.7941697 -0.2098529 -0.7487521 0.6287544 7368056 male
1.758396 0.5235602 -0.9285063 0.9616354 -0.2371459 -0.1379104 526600 male
1.351542 0.7421805 -1.064918 -0.5879403 -0.01051573 -0.8088359 6843767 male
1.618712 0.9231983 -0.6968495 0.5701408 -0.5638857 0.5974717 14011102 male
1.829791 0.9346716 -0.6055298 0.9918336 0.08642989 0.09378657 14199979 male
1.533572 0.6841938 -0.9430213 0.3456198 0.5722361 0.7437021 7107461 male
1.397429 0.3454863 -0.6712011 -0.4721818 -0.1205004 0.8732262 526600 male
1.840598 1.031052 -0.6329953 0.9177877 0.1189372 -0.37884 13150894 male
1.543308 0.9077581 -0.987555 0.454429 -0.005513961 -0.8907658 5130065 male
1.442961 0.7543582 -0.8873252 0.4840292 0.04419053 0.8739353 6383472 male
1.334917 0.8808912 -0.9438292 -0.5860528 0.7176538 -0.376185 11906750 male
1.482519 0.5478441 -0.6993762 0.294962 -0.304024 -0.9058514 526600 male
1.505856 0.593385 -1.038291 0.02374056 -0.5273033 -0.8493453 6514295 male
1.555905 0.9155769 -0.619697 0.4673582 -0.8405139 0.2740669 10985392 male
1.40576 0.2498991 -0.7134593 0.1100252 -0.9820505 -0.1532032 526600 male
1.520933 0.9938207 -0.6379016 -0.3972093 0.6085491 0.6869445 9604250 male
1.712845 0.9305954 -0.6531721 -0.5419227 -0.8008569 0.2548491 12430244 male
1.431217 0.6814329 -0.8860679 0.9780841 0.07081129 -0.1957992 5856104 male
1.670568 0.2396272 -0.8024688 -0.3136708 0.3120487 0.8967922 526600 male
1.681307 0.7566551 -1.058171 -0.7639536 -0.3778212 -0.5230927 13611958 male
1.706562 0.4519887 -0.9038335 0.4509289 -0.345315 0.8230557 526600 male
1.650251 1.04904 -0.748736 0.07041685 0.9708691 0.2290302 14408427 male
1.56364 1.050526 -0.7811721 -0.01197701 0.9616279 -0.2740952 12037311 male
1.475747 0.946812 -0.7012864 -0.7172751 -0.4936 0.4918084 526344 male
1.672304 0.5798732 -0.8752074 -0.02260417 -0.1460749 0.9890153 526344 male
1.482582 0.9605446 -0.66276 -0.6904138 0.4839629 -0.5376882 9210516 male
1.28463 0.7677712 -0.9637146 -0.8821 0.03302638 -0.4699029 10002873 male
1.696357 0.9267431 -0.8118519 0.6558093 -0.6177595 0.4339209 16117240 male
1.445023 0.4497831 -0.6112273 0.05438799 -0.3764268 0.9248486 526600 male
1.507411 0.8612719 -0.6386628 0.7991529 -0.600715 -0.02227315 13606048 male
1.75135 0.9249704 -0.589244 -0.2163534 -0.6354339 0.7412254 13740965 male
1.760617 0.9808133 -0.8938586 0.6920438 0.448727 -0.5654373 6972015 male
1.307224 0.6914047 -0.8213769 -0.8150887 0.07227023 0.5748107 3684672 male
1.36364 0.6768411 -0.9726986 0.8175361 -0.5283091 -0.2291818 526600 male
1.638822 0.6150247 -0.959662 0.8662496 0.4160806 -0.2765659 788492 male
1.645353 1.063458 -0.7878671 -0.05747134 0.9835659 0.1711583 11513536 male
1.542927 1.037284 -0.8618903 -0.4577584 0.8769719 -0.1462105 10263213 male
1.73775 0.735526 -1.024121 0.6098223 0.2137964 0.7631565 14397103 male
1.826191 1.059239 -0.6449831 0.8004667 0.352418 -0.4848245 5723223 male
1.357579 0.8069856 -1.055309 -0.5676942 0.338889 -0.7502517 9015454 male
1.73275 1.024474 -0.5491274 -0.4734239 -0.1653689 0.8651723 14207184 male
1.727453 0.579639 -0.942806 0.7075943 0.06473767 -0.7036471 526600 male
1.72056 0.9740331 -0.9159507 0.04932174 0.5851345 -0.809435 13085871 male
1.540179 0.6769916 -1.035483 0.6393613 0.3432257 -0.6880502 6711414 male
1.38511 0.8239359 -1.062849 -0.2926323 0.3752697 -0.8795107 10924227 male
1.653019 0.9134005 -0.8961316 0.5645794 -0.3472136 -0.7487941 9604248 male
1.336776 0.8634673 -0.9734607 -0.6337022 0.6407758 -0.4333912 9471896 male
1.602186 0.6238334 -0.9141535 0.3832891 0.451079 0.8059883 1250068 male
1.378569 0.5910607 -0.8742747 0.0226596 -0.7801371 -0.6251981 6581626 male
1.512618 0.8147658 -0.8933613 0.456258 -0.865052 0.2085992 11906757 male
1.389376 0.8040915 -0.653646 0.8992044 -0.2294944 -0.3725101 14532035 male
1.736007 1.07253 -0.5509781 -0.3677633 0.3633901 0.8559777 526600 male
1.40528 0.5598354 -0.7665129 -0.4375746 -0.639564 -0.6320492 7501446 male
1.614821 1.020083 -0.6638536 0.351449 0.267497 0.8971782 6710382 male
1.729476 1.016566 -0.8072219 0.967977 0.08499178 0.2362137 4407883 male
1.372946 0.650262 -1.052951 -0.3282334 -0.8180199 -0.4723414 8685720 male
1.288857 0.6889379 -0.8648468 -0.9279833 -0.1889682 0.321151 9738668 male
1.629232 0.3101239 -0.9507423 -0.386133 0.2086267 0.8985411 526600 male
1.673003 0.5762106 -0.9270055 -0.9260424 0.3624195 -0.1053444 526600 male
1.400205 0.7768171 -1.076787 -0.03005031 0.1730759 -0.98445 12435149 male
1.427588 0.5782903 -0.8278081 0.5165855 -0.5387565 -0.6654928 2960429 male
1.619832 0.2703568 -1.005995 -0.1148579 -0.9927399 -0.03571162 526600 male
1.706935 0.9460338 -0.8574242 -0.4225792 -0.8699416 -0.2542213 526600 male
1.403523 0.2662826 -0.7407299 0.7393452 -0.5549464 -0.3813178 526600 male
1.720503 0.4496626 -0.9121709 0.6304873 -0.4067759 0.6610742 526600 male
1.609708 0.3016011 -1.021258 0.1648108 0.3317665 -0.9288533 526600 male
1.432706 0.8317529 -0.6652873 0.3006436 -0.2996261 -0.9054488 11773109 male
1.35676 0.6319971 -0.6168037 0.134998 0.01949008 -0.9906542 8615291 male
1.509747 1.001172 -0.6535738 -0.5904946 0.6595272 0.4651235 9143699 male
1.798617 1.097249 -0.5780995 0.4762028 0.7643616 0.4347208 526600 male
1.637534 0.8664588 -0.8560354 0.4210527 -0.8961446 -0.1401413 13352125 male
1.381147 0.7231796 -1.082478 -0.212294 0.01211115 -0.9771308 6778747 male
1.67455 0.5627913 -0.9408505 -0.7856902 0.4768181 -0.3941262 526600 male
1.358194 0.791485 -0.8460846 0.2895214 0.3972403 0.8708487 10595247 male
1.45736 0.9055026 -0.6150056 -0.593724 0.4236656 0.6841047 14132126 male
1.774317 1.050949 -0.539435 0.03633925 0.1912409 0.9808702 986895 male
1.433944 0.3792594 -0.6584905 0.7433215 -0.3952391 0.5396842 526600 male
1.358108 0.9108711 -0.9287165 -0.6702709 0.6651381 -0.3291328 13355740 male
1.336824 0.7709543 -0.6066797 -0.6201365 0.1794319 0.7636983 15056827 male
1.512323 0.9752825 -0.6120827 -0.4547523 0.4981454 0.738276 7827065 male
1.465952 0.4378269 -0.6418281 0.8491523 -0.4443015 0.2855459 526600 male
1.52319 0.6612418 -0.9289902 0.05336586 0.3136501 0.9480379 5724513 male
1.428446 0.530201 -0.6115374 -0.6781446 0.208862 0.7046252 526600 male
1.500569 0.5621795 -0.6932786 0.9398565 -0.2796561 -0.1961178 2368548 male
1.839901 1.022865 -0.6362414 0.9085596 0.0584502 -0.4136461 13348791 male
1.29627 0.8461391 -0.8975954 -0.9218054 0.3601286 0.1434646 8159115 male
1.680733 1.048344 -0.7584698 0.153407 0.897529 0.41341 12762833 male
1.477911 0.9288733 -0.6107994 -0.5300978 0.3175653 0.7862242 11376021 male
1.570453 0.6025095 -0.9054498 -0.2027752 0.01707681 0.9790764 4079686 male
1.758795 0.6346138 -1.018033 0.8099472 0.5268818 0.2576452 15840192 male
1.538615 0.8225517 -0.9109866 0.5788735 -0.7976137 -0.1694633 13223129 male
1.607 0.6192825 -0.9097145 0.3160049 0.3970239 0.8616918 526344 male
1.369249 0.6392789 -0.7442908 -0.5480692 0.1673864 0.8195133 3224898 male
1.732707 0.5049252 -0.9652789 0.5778521 -0.1405533 -0.8039476 526600 male
1.78325 1.016201 -0.5385113 0.03785548 -0.1171467 0.9923929 8748925 male
1.431576 0.5450869 -0.6157565 -0.7149439 0.290509 0.6359715 526600 male
1.512996 0.5686448 -0.9578508 -0.6384864 -0.7088279 0.2998301 527119 male
1.605897 0.9752256 -0.6660053 0.7418576 -0.167154 0.6493896 13354203 male
1.698574 0.4726502 -0.9734475 0.1745951 -0.121426 -0.9771245 526600 male
1.641132 0.3139223 -1.001549 0.3559594 0.06553846 -0.9322004 526600 male
1.513564 0.9599323 -0.6041008 -0.3719116 0.3237272 0.8699899 6183782 male
1.439618 0.3928498 -0.6971008 0.7769299 -0.2992865 -0.5539021 526600 male
1.663282 0.7815138 -1.033096 -0.8982263 -0.4203107 0.1285629 1051664 male
1.585338 0.8514659 -0.8320311 0.3485926 -0.8576261 0.3781012 14533052 male
1.663966 0.4111269 -0.9102159 -0.06081685 -0.2341921 0.9702863 526600 male
1.429045 0.9478005 -0.9705296 -0.6256517 0.5419908 -0.5610757 10854319 male
1.73506 1.074661 -0.6811167 -0.1737457 0.502542 -0.8469144 4078653 male
1.551722 0.9150999 -0.6138755 0.4551377 -0.7901024 0.4105947 15985396 male
1.758409 1.087154 -0.673723 0.05085328 0.5935984 -0.8031532 10328216 male
1.817687 0.9333889 -0.5983282 0.04180393 -0.06916972 0.9967285 12619142 male
1.347641 0.5860446 -0.7961004 -0.9015092 -0.4282631 0.06222323 5462370 male
1.444576 0.5164487 -0.5990844 -0.3810016 0.01157569 0.9245019 526600 male
1.405999 0.8910506 -0.7902543 -0.7649739 -0.09847615 0.6364883 7434361 male
1.464109 0.9817592 -0.886527 -0.4544919 0.8386301 -0.3002273 11643326 male
1.336224 0.6846465 -0.7850711 -0.6324985 0.2504972 0.7329371 4869976 male
1.388372 0.6568937 -1.070042 -0.1473432 -0.6112005 -0.77764 7961481 male
1.713764 1.095559 -0.5873438 -0.6354704 0.6683297 0.3866687 526344 male
-2.551336 0.3979199 -1.318325 0.9600449 -0.1345167 -0.2453964 5920082 male
-2.596212 -0.02255759 -1.34805 -0.4155903 -0.1306622 -0.900118 1908771 male
-2.674946 -0.2039869 -1.380981 0.9196872 -0.2062758 0.3341048 1907997 male
-2.548238 0.09746253 -1.23219 0.5012158 -0.1872515 0.8448194 2697257 male
-2.558445 0.351206 -1.322013 0.9443122 -0.1943527 -0.2655214 7300711 male
-2.718523 -0.1915852 -1.455019 -0.1298509 -0.1381747 -0.9818588 1973534 male
-2.558953 0.6432675 -1.361763 0.6425737 0.3152692 -0.6983585 8618358 male
-2.524878 0.5527807 -1.356177 0.7874132 -0.1811217 -0.589216 6314580 male
-2.5753 0.8123821 -1.456425 0.1134634 -0.07535955 -0.9906802 14797505 male
-2.650531 0.1236414 -1.41143 0.9249164 0.03542569 -0.3785166 3223604 male
-2.534285 -0.2771505 -1.261264 0.764483 -0.1848726 0.6175663 2170913 male
-2.579696 0.90026 -1.456767 -0.1887105 0.4644485 -0.8652608 6709083 male
-2.750371 0.4155587 -1.389113 -0.7892942 -0.002522216 -0.6140103 3617327 male
-2.583775 0.3729259 -1.38123 0.6091326 -0.1059782 -0.7859557 7038051 male
-2.637173 0.3068545 -1.190278 -0.0303784 0.1852175 0.982228 6117204 male
-2.609402 -0.05729724 -1.288253 -0.8975574 -0.1760407 0.4042284 2697772 male
-2.776062 0.0938414 -1.403632 -0.9427425 -0.1869704 -0.2761864 1974566 male
-2.490963 0.6605414 -1.307541 0.3039646 -0.08229667 -0.9491223 6840928 male
-2.493416 -0.4462675 -1.398926 0.2089845 -0.9779143 0.002990976 1183764 male
-2.522337 0.6134159 -1.211114 0.3177862 -0.09294604 0.9435959 7498858 male
-2.591294 0.6930624 -1.390579 0.3588939 -0.546152 -0.7569104 16774895 male
-2.592249 0.15571 -1.359383 0.03690997 -0.08989798 -0.995267 2434347 male
-2.649003 -0.4278101 -1.465911 0.7782894 -0.4973822 0.3832451 2170145 male
-2.561411 0.7123237 -1.755179 0.8668066 -0.3374908 0.3670782 16243672 male
-2.701864 -0.3131489 -1.419164 0.9370564 0.1290332 -0.3244625 2631472 male
-2.708261 0.6717076 -1.294101 -0.4096424 0.4609576 0.7872176 16507850 male
-2.666658 0.6861696 -1.280057 -0.5321957 0.5716704 0.6244685 10589065 male
-2.535052 0.5012306 -1.260789 0.9235365 -0.1375465 0.3579966 3354411 male
-2.652751 -0.01758516 -1.372646 0.9212627 -0.05637963 0.3848333 1974303 male
-2.42856 0.6221725 -1.272835 0.5688393 -0.3901221 0.7240351 7959665 male
-2.712692 0.3052596 -1.227539 -0.5675546 0.3063467 0.764221 10722458 male
-2.640501 0.6552377 -1.41349 0.5275059 0.3754603 -0.7620809 7696236 male
-2.511091 -0.1563522 -1.288925 0.9982312 0.05249983 0.02790201 3158325 male
-2.428213 0.6734289 -1.314667 0.3314449 0.9118019 -0.2424078 8682099 male
-2.53934 0.7310647 -1.418056 0.6732355 -0.7271742 0.1340584 11774112 male
-2.751253 0.7168018 -1.480787 -0.7838852 0.5758654 -0.2321706 8354420 male
-2.541609 0.1352365 -1.229416 0.6276741 -0.09954277 0.7720859 2105892 male
-2.579134 -0.02551636 -1.253359 0.03298071 -0.1522535 0.9877912 3092272 male
-2.66235 -0.03519428 -1.450874 0.5987953 -0.03091793 -0.8003054 4145996 male
-2.717314 0.658486 -1.29177 -0.3988251 0.421381 0.8144795 7105124 male
-2.707771 0.5598632 -1.256488 -0.5268735 -0.001300069 0.8499429 7235170 male
-2.594889 0.7409376 -1.738628 -0.0485706 0.9788563 0.1986993 15717309 male
-2.622334 0.8936194 -1.437704 -0.6151536 0.3145818 -0.7229278 8090995 male
-2.738525 0.207461 -1.246649 -0.4068642 -0.4018923 0.8203319 5261646 male
-2.511106 0.8753867 -1.360676 0.9358647 0.0795915 0.343253 5919050 male
-2.653662 -0.07472954 -1.422366 0.9487339 -0.3114084 -0.05411887 2236707 male
-2.692939 0.7266932 -1.528132 0.0250039 0.9980475 -0.05723605 5197383 male
-2.759938 0.1063371 -1.437088 -0.7244612 -0.04115222 -0.6880863 2368293 male
-2.766693 0.2456318 -1.254747 -0.6327891 -0.03404045 0.7735758 10064011 male
-2.715457 0.6234285 -1.449136 -0.1527848 -0.6186504 -0.7706677 6510931 male
-2.710279 0.3360899 -1.239599 -0.5422999 0.3813418 0.7486585 13023413 male
-2.672127 -0.1659744 -1.379427 0.9349538 0.007707144 0.3546861 1973534 male
-2.523734 0.2423964 -1.275295 0.9674367 0.2463659 -0.05805612 2302758 male
-2.638546 0.3223508 -1.402208 0.294315 -0.1232559 -0.9477273 6972512 male
-2.345629 0.5408829 -1.399451 -0.5510578 -0.712325 -0.4346592 14072762 male
-2.522105 0.9078904 -1.357876 0.8281009 0.4803288 0.2890214 3354670 male
-2.604513 -0.0901792 -1.312923 -0.9714011 -0.2061813 -0.1177689 2169889 male
-2.587572 0.7195451 -1.267533 0.1860335 0.8882988 0.4199009 5327170 male
-2.619975 0.6987956 -1.397532 -0.02284658 -0.2982436 -0.9542164 15587280 male
-2.766382 0.1620651 -1.29222 -0.5467856 -0.5765206 0.6071653 4342085 male
-2.547488 0.2157773 -1.224495 0.6904416 0.06613675 0.7203587 2699056 male
-2.689131 -0.4142483 -1.439051 0.8297756 -0.231657 0.5077478 3486005 male
-2.736944 -0.2194767 -1.44272 -0.5356591 -0.1941902 -0.8218027 1908256 male
-2.550797 0.6434972 -1.353157 0.6256781 0.3751203 -0.6839679 9538179 male
-2.670205 0.135925 -1.250342 -0.8320819 -0.3988529 0.3854303 2105893 male
-2.755363 -0.4338096 -1.445662 -0.05997324 -0.9922765 0.1085844 658442 male
-2.708588 0.7351552 -1.453568 0.1975974 0.9637963 0.179031 7104612 male
-2.510132 -0.4500332 -1.321293 -0.08393981 -0.9929293 -0.08393764 592137 male
-2.682681 -0.2467906 -1.399528 0.9790403 -0.2005853 -0.03529984 2565415 male
-2.764553 -0.3734017 -1.366966 -0.9764757 0.2044047 -0.06865942 3486519 male
-2.365982 0.5561712 -1.389012 -0.7327087 -0.4293773 -0.5279899 16111057 male
-2.249961 0.599857 -1.526806 -0.3327424 0.9429371 0.01233323 16310481 male
-2.499344 0.6230695 -1.296587 0.7198614 -0.5470697 -0.4272174 4144439 male
-2.562026 0.9177659 -1.444637 0.09852849 0.7082589 -0.6990433 15590106 male
-2.62849 0.5454303 -1.430886 0.5598425 -0.2166781 -0.799767 16571565 male
-2.546239 0.6249682 -1.35976 0.6119331 0.3386424 -0.7147443 11773851 male
-2.71022 -0.1010237 -1.36624 0.005287498 0.3115496 0.9502153 2369324 male
-2.543099 0.3004157 -1.29209 0.9181027 0.1531386 -0.3655629 6512219 male
-2.406996 0.6555418 -1.297573 0.7557323 0.4903125 0.4341227 9340029 male
-2.614119 0.7688856 -1.311249 -0.2223156 0.2191786 0.9500193 13415595 male
-2.532554 -0.2366749 -1.313905 0.4786314 -0.156923 -0.8638793 2368553 male
-2.660269 0.3695259 -1.223789 -0.4170528 0.2205222 0.881724 12234665 male
-2.264591 0.5607862 -1.419557 0.8820431 -0.2027004 0.4253386 15387337 male
-2.476066 0.65832 -1.22461 0.3683902 0.1044592 0.9237842 8946560 male
-2.527429 -0.2177033 -1.31405 0.5710297 -0.1282128 -0.8108557 2499881 male
-2.64643 0.1216312 -1.347606 0.9418052 -0.1119569 0.316968 7631992 male
-2.54305 -0.1375211 -1.244602 0.4677563 0.2225158 0.8553894 2434343 male
-2.519379 0.0071117 -1.294467 0.9427451 -0.2750168 0.1886737 3158840 male
-2.573139 0.8814847 -1.465411 -0.116025 0.2560628 -0.959672 7431009 male
-2.62718 0.2993436 -1.189133 0.1119607 0.1037124 0.9882858 5591117 male
-2.684026 0.7307603 -1.363551 -0.2418447 0.8295103 -0.5034122 3881784 male
-2.455769 0.6953299 -1.300603 0.3565117 0.7059743 -0.611964 7169374 male
-2.657639 0.05124642 -1.353548 0.8886155 -0.151072 0.4330589 2698289 male
-2.515579 0.7668974 -1.831139 -0.2849555 0.9456296 0.1567967 16768974 male
-2.599132 0.4549918 -1.405118 0.5810403 -0.03206636 -0.8132432 7366758 male
-2.646139 0.001779083 -1.40764 0.9979279 -0.05678655 -0.03025645 3026996 male
-2.517069 -0.1521496 -1.308518 0.8889254 0.00444475 -0.4580307 3224377 male
-2.743559 -0.2303699 -1.434891 -0.6933406 -0.1924147 -0.6944463 2105377 male
-2.520083 0.9113694 -1.370407 0.8378533 0.5239081 0.1533694 4143414 male
-2.579531 -0.1394531 -1.241833 -0.3627656 0.2514727 0.8973087 3289145 male
-2.689453 0.01167549 -1.335999 0.2226194 -0.1860932 0.9569798 2500141 male
-2.500544 0.6943355 -1.311855 0.01358014 0.7940139 -0.6077479 9209220 male
-2.713556 -0.1500704 -1.354939 -0.04844412 0.1378672 0.9892654 2697257 male
-2.761848 -0.3618827 -1.399454 -0.9929955 -0.1092573 0.04497945 2631464 male
-2.461077 0.6679642 -1.233289 0.5413465 0.2514093 0.8023325 10261903 male
-2.591494 -0.272278 -1.296492 -0.8675429 -0.1632603 -0.4698039 1973278 male
-2.642717 0.6524333 -1.645638 0.1731283 -0.9842657 -0.03532103 5918026 male
-2.577275 0.5656914 -1.389878 0.2804264 -0.0535004 -0.9583836 7630953 male
-2.648554 0.04452503 -1.415323 0.9713953 -0.007275502 -0.2373579 3683896 male
-2.726267 0.387494 -1.269009 -0.6059543 -0.007734728 0.795462 7826791 male
-2.653572 0.9040971 -1.36288 -0.9252427 0.368086 0.0918625 4472124 male
-2.479619 0.7016774 -1.260751 0.1775709 0.9140152 0.3647531 6644573 male
-2.641087 0.9187157 -1.393485 -0.7595194 0.5761723 -0.3019205 4998462 male
-2.613251 0.830511 -1.449959 -0.5731822 -0.03455108 -0.8186994 15061444 male
-2.597662 0.02480488 -1.239175 -0.1673983 -0.2304808 0.9585702 2237737 male
-2.527493 -0.1782315 -1.250871 0.7510808 0.002055516 0.6602075 2367780 male
-2.552948 0.3822149 -1.266446 0.9377069 -0.06267612 0.3417278 3880755 male
-2.677297 0.6363732 -1.256455 -0.6879165 0.3582995 0.6311835 6315607 male
-2.525736 0.0150258 -1.274839 0.8013078 -0.2406654 0.5477099 2237481 male
-2.798085 0.1963365 -1.336888 -0.9892579 -0.12527 0.07534301 2170913 male
-2.577778 0.9194304 -1.312985 0.1395382 0.5870321 0.7974474 4406587 male
-2.596237 0.7664556 -1.44555 -0.4788081 -0.3621122 -0.7997611 15718606 male
-2.696601 0.1842612 -1.446438 0.2583455 0.2711596 -0.9272165 3487806 male
-2.644118 0.2412944 -1.402401 0.185717 0.004330406 -0.9825939 2763825 male
-2.758442 -0.4274213 -1.378337 0.1251846 -0.9720211 0.1987555 591881 male
