# .PCD v0.7 - Point Cloud Data file format
VERSION 0.7
FIELDS x y z normal_x normal_y normal_z rgb label
SIZE 4 4 4 4 4 4 4 4
TYPE F F F F F F U U
COUNT 1 1 1 1 1 1 1 1
WIDTH 255
HEIGHT 1
VIEWPOINT 0 0 0 1 0 0 0
POINTS 255
DATA ascii
1.351982 0.2061884 -1.340382 0.6544266 0.4605114 0.5997124 12170186 male
1.346412 0.3184434 -1.083284 -0.4263833 0.8874867 -0.1748276 7042435 male
1.738192 0.3041756 -1.128859 0.932325 0.2819439 0.226446 526600 male
1.385879 0.2120239 -1.048242 0.4341086 -0.6759115 0.5955613 7764103 male
1.349053 0.1953627 -1.273818 -0.08954028 0.9951565 -0.04057224 2698289 male
1.636429 0.2941152 -1.258724 0.579666 0.08802324 -0.810086 591113 male
1.372363 0.04188763 -1.392169 0.1967691 -0.7554688 -0.6249391 7564667 male
1.343688 0.005343505 -1.298199 -0.3140296 -0.9487926 -0.03432104 12369615 male
1.32262 0.5691633 -1.521679 0.4488923 -0.3739961 -0.8115556 10980486 male
1.522334 0.2445766 -1.250698 -0.3813044 0.8696265 -0.3136185 9607331 male
1.47387 0.3637722 -0.9040451 0.7118097 0.6582914 0.2449071 526600 male
1.321708 0.6261432 -1.531909 0.6041735 0.08691392 -0.7920986 14135726 male
1.340416 0.326882 -1.385082 0.6109991 0.3286911 0.7201682 15509729 male
1.435592 0.09043311 -1.351802 0.5322964 0.3025734 -0.7906389 2631984 male
1.269779 0.08160772 -1.163149 -0.6916935 -0.4560659 0.5599678 7829639 male
1.406813 0.3677921 -1.003697 0.1460771 -0.5918933 -0.7926688 526600 male
1.545709 0.1041844 -1.277583 0.7194435 -0.446339 -0.532149 3224374 male
1.186666 0.4360916 -1.297076 0.3274421 0.725529 0.6053011 11116450 male
1.633543 0.2533685 -0.7833551 -0.5910077 0.8026962 0.07992907 526600 male
1.309988 0.372671 -1.361109 0.7437886 0.4239152 0.5167925 14078835 male
1.343348 0.4742136 -1.455903 0.9719767 -0.06562019 0.2257325 15386054 male
1.397391 0.2365553 -1.14907 0.6981641 0.4784908 -0.5325537 3026230 male
1.712826 0.1934774 -0.8566744 -0.03859064 0.7416064 -0.6697243 526600 male
1.550492 0.2626947 -1.410465 0.8817738 -0.3032171 -0.3612954 14262167 male
1.715326 0.236998 -1.090577 -0.9890435 -0.1445441 -0.02999794 526600 male
1.283128 0.1842348 -1.512337 -0.32404 -0.5811158 -0.746527 7893632 male
1.216841 0.4358163 -1.503389 -0.503573 0.3735912 -0.7790018 16250879 male
1.141371 0.4300416 -1.398278 -0.8408685 0.5274565 -0.1213665 9802145 male
1.767085 0.2551129 -1.055881 -0.5109479 0.8168414 0.267773 526600 male
1.291155 0.4773851 -1.160474 0.1612034 -0.7485204 -0.643219 8023146 male
1.263414 0.06281698 -1.351854 -0.5537722 -0.73012 -0.4003263 10196139 male
1.599444 0.3025719 -0.7398109 0.8125645 0.1079738 -0.5727831 526600 male
1.335571 0.4062186 -0.9662746 -0.8762305 -0.2590617 0.4063339 526600 male
1.141366 0.3856941 -1.353527 -0.5975018 -0.7232176 -0.3463352 8749710 male
1.386236 0.609005 -1.434555 0.9270297 0.2636144 0.2666894 13805991 male
1.522371 0.3351981 -1.451762 0.7174793 0.492119 -0.4929932 13539214 male
1.311224 0.2149558 -1.209679 -0.2591735 0.7047521 -0.6604192 8358296 male
1.166533 0.2679749 -1.153761 0.1276926 -0.9908694 0.04327141 15313572 male
1.617998 0.3482738 -1.200592 -0.6270207 0.118845 0.7698836 526600 male
1.272029 0.170738 -1.497706 -0.4368734 -0.5963026 -0.6734723 9143699 male
1.243197 0.1949237 -1.484306 -0.8161613 -0.4107838 -0.406371 11774654 male
1.544862 0.2620036 -1.398066 -0.7035778 -0.05166553 -0.7087376 14132645 male
1.299943 0.4979654 -1.511403 -0.0952065 -0.1953319 -0.9761052 16768472 male
1.225059 0.2708586 -1.51363 -0.7675449 -0.3430624 -0.5414639 9998752 male
1.219749 0.6362416 -1.430384 -0.4559152 0.3260096 0.8281661 9933206 male
1.639232 0.3231004 -1.232478 -0.5938559 -0.735701 0.3256982 526600 male
1.469287 0.4401188 -1.386612 -0.4396375 0.3147093 0.8412352 2628126 male
1.515635 0.2816609 -1.430693 0.2527442 -0.9070857 -0.3366244 16435392 male
1.238192 0.322749 -1.544126 -0.7904783 -0.1248075 -0.5996391 11183031 male
1.385054 0.246545 -1.504356 0.9114568 -0.1767274 -0.3715022 198147 male
1.212913 0.228588 -1.4707 -0.5202639 -0.5241308 -0.6742495 11577784 male
1.723427 0.3399231 -1.148259 0.4494572 0.6549429 0.6074849 526600 male
1.249643 0.1656756 -1.181177 -0.915437 0.3365959 0.2206315 3552566 male
1.389356 0.01066186 -1.221721 -0.02414587 -0.6194466 0.7846674 8225169 male
1.204427 0.3469437 -1.213639 0.9444996 0.3092978 0.1107041 13081503 male
1.193777 0.6494462 -1.460458 -0.7253242 0.517052 0.4544909 526600 male
1.416918 0.3683712 -1.001217 0.3031214 -0.511619 -0.8039673 526600 male
1.522389 0.306731 -0.8336578 0.3804192 0.1504522 -0.9124941 526600 male
1.327932 0.4522044 -1.545019 0.5130549 0.8449737 -0.1509767 8355208 male
1.430501 0.1233781 -1.309005 -0.3233127 0.4459252 -0.8346374 12567509 male
1.258741 0.1688043 -1.151074 -0.92326 0.2042383 0.3253886 4802899 male
1.827399 0.2015709 -0.9859206 -0.7294985 0.368731 0.576081 526600 male
1.70245 0.3753061 -1.255382 0.9098492 -0.0255304 -0.4141529 526600 male
1.273874 0.06485412 -1.370617 -0.5349981 -0.7114975 -0.4555746 13156561 male
1.341209 0.08776888 -1.121509 0.1034389 -0.5554544 0.8250884 7106423 male
1.849389 0.1584378 -1.011259 -0.2814823 -0.6367701 0.717838 526600 male
1.505365 0.3460839 -1.437035 0.3911471 0.9141101 0.1068016 16369342 male
1.60432 0.2795057 -0.7387467 -0.581176 0.6580549 0.4787464 526600 male
1.727758 0.2459576 -1.076236 -0.7215228 0.4886593 0.4905272 526600 male
1.789684 0.1964334 -1.052463 -0.8318205 0.5169645 0.2020454 526600 male
1.216516 0.3747858 -1.268885 0.9617977 -0.1842682 -0.2024607 3749951 male
1.212327 0.3434697 -1.150119 -0.7496377 0.5724514 -0.3321787 14923449 male
1.282817 0.4107206 -1.368837 0.5566144 0.6331757 0.5378373 15390356 male
1.24758 0.6691505 -1.539953 -0.1516454 0.6601115 -0.7357013 526600 male
1.65158 0.2738271 -0.7643804 0.8678889 -0.06081815 -0.4930212 526600 male
1.296242 0.05387171 -1.375293 -0.516247 -0.7133878 -0.4738849 10064548 male
1.675015 0.3891625 -1.237041 0.3853205 0.8292695 0.4047717 527368 male
1.202401 0.1677026 -1.28761 -0.8662717 0.4476787 0.221714 5592925 male
1.303421 0.4444943 -1.176992 0.6856536 -0.710946 -0.1563166 12431538 male
1.251941 0.4938673 -1.459136 -0.9916518 -0.02048376 0.1273074 16368565 male
1.358576 0.3671612 -0.9683061 -0.7142593 -0.6956807 0.07656321 526600 male
1.224883 0.07186103 -1.251273 -0.8010604 -0.5322745 0.2738357 5199972 male
1.135332 0.2919101 -1.135613 -0.7132419 0.6747532 0.189721 15315884 male
1.171217 0.4176443 -1.269184 -0.1650368 0.8450282 0.508616 16106433 male
1.387595 0.4256871 -0.9270042 -0.1592444 0.4485645 0.8794492 526600 male
1.531792 0.262463 -1.226223 -0.5692924 0.817481 0.08735485 5791079 male
1.18872 0.3412682 -1.270837 0.5046793 -0.7738392 -0.3827162 3486257 male
1.363976 0.4610868 -0.9704896 -0.1339047 0.4551795 0.8802733 526600 male
1.314991 0.680088 -1.497265 0.5675582 0.7503627 -0.3388707 13478563 male
1.197082 0.1135677 -1.314283 -0.9305158 -0.3566642 -0.0832524 9670298 male
1.262853 0.4523953 -1.521058 -0.7442938 0.3887073 -0.5430775 12894668 male
1.149133 0.396201 -1.265257 -0.8338863 0.3645956 0.4143716 14397868 male
1.58984 0.3189926 -1.226288 -0.4096617 0.9081548 0.08621021 921358 male
1.526625 0.5397784 -1.367119 0.1252345 0.1818368 0.9753214 3091239 male
1.13652 0.3334527 -1.40253 -0.9262823 -0.3710094 0.06597835 9671584 male
1.71989 0.3324566 -1.138408 0.3905816 0.6735054 0.627564 526600 male
1.34984 0.1414683 -1.079092 -0.03916299 -0.6560677 0.7536853 7436676 male
1.613745 0.3229203 -1.243943 -0.02818924 0.8432013 -0.5368584 7831440 male
1.309399 0.6560766 -1.429354 0.4420046 0.5602944 0.7005013 14003363 male
1.167714 0.355703 -1.312152 -0.01798631 -0.9236143 -0.3829008 12622999 male
1.523796 0.06863206 -1.215267 0.7015595 -0.6674926 0.2495351 12830671 male
1.364609 0.05683993 -1.410043 0.09573641 -0.5815961 -0.8078246 6249063 male
1.680089 0.4057161 -1.213782 -0.0255622 0.6725814 0.7395815 526600 male
1.821609 0.1707714 -1.058172 0.3501775 -0.5209128 -0.7784765 526600 male
1.180865 0.4079852 -1.253146 -0.006242856 0.8960696 0.4438697 15116968 male
1.306651 0.2641116 -1.073296 -0.8394673 0.2958765 0.4557979 3224642 male
1.529921 0.3219229 -1.449646 0.7768793 0.2235126 -0.5886431 14593185 male
1.290969 0.4593033 -1.420371 0.1849912 0.3922341 0.901072 9011089 male
1.741699 0.2902546 -1.128044 0.9988793 -0.006862279 0.04682851 526600 male
1.254624 0.2807957 -1.545746 -0.6182366 -0.3470789 -0.7052089 11776194 male
1.244898 0.5441229 -1.530548 -0.06541005 -0.7311521 -0.6790715 13616328 male
1.212386 0.4095459 -1.283922 0.8034983 0.5577856 0.2080042 15516100 male
1.243738 0.5517157 -1.537101 -0.05651468 -0.6759515 -0.7347759 10590109 male
1.294961 0.5617509 -1.536424 -0.6861156 -0.467104 -0.5577269 9197656 male
1.356288 0.363029 -1.017329 -0.2872865 -0.9519463 0.1061345 526600 male
1.391258 0.08642225 -1.196855 0.9872401 0.1526005 -0.04549849 526600 male
1.301994 0.2322696 -1.305435 0.2319714 0.3800558 0.8954032 9538714 male
1.182681 0.3630248 -1.499454 -0.5379341 -0.002365598 -0.8429837 12499400 male
1.352918 0.1515123 -1.07185 -0.03415924 -0.6651171 0.7459574 10331578 male
1.484799 0.1109567 -1.315057 0.3705256 -0.05215185 -0.927357 3881790 male
1.190172 0.5575039 -1.481869 -0.8126381 -0.5820831 0.02825865 9735828 male
1.392819 0.5869835 -1.437169 0.9193764 0.1828154 -0.3483181 13347494 male
1.543882 0.2638597 -1.194324 -0.6164633 0.6097819 0.4981356 4144964 male
1.369408 0.2251474 -1.353613 0.7936157 0.3374439 0.5062664 13486814 male
1.843986 0.1733138 -0.9746478 -0.3368163 -0.484725 0.8072153 526600 male
1.4641 0.3164501 -1.424186 -0.7705421 -0.2480397 0.5871465 14935538 male
1.419464 0.2197509 -1.09851 0.9883585 -0.1350271 -0.07010868 3223859 male
1.433856 0.395099 -0.9092666 0.3156244 0.566456 0.7612548 526600 male
1.34301 0.1911769 -1.518759 0.3396451 -0.5972625 -0.7265802 3947842 male
-2.566625 0.4322629 -1.507892 0.1496733 -0.3381695 -0.9291068 5920082 male
-2.581303 -0.01405054 -1.412651 -0.9123186 -0.1583828 -0.3776109 2697257 male
-2.636538 -0.1942153 -1.359886 0.8540897 -0.05723788 -0.5169672 2039327 male
-2.479447 0.0289543 -1.375544 0.9221897 -0.1693669 0.3476797 2696747 male
-2.589263 0.3845082 -1.49543 0.131285 -0.2207882 -0.9664456 6708573 male
-2.730444 -0.1691796 -1.333434 -0.9724272 0.07494535 0.2208366 1777185 male
-2.709449 0.4081118 -1.413854 -0.9145957 -0.1350331 -0.3811575 6182997 male
-2.598416 0.5913516 -1.528436 -0.4741358 0.2766416 -0.8358618 4210499 male
-2.612121 0.8570164 -1.543426 -0.6707937 0.6588938 -0.3404337 16772067 male
-2.697622 0.10055 -1.437548 -0.09817621 -0.04452188 -0.9941727 4541269 male
-2.511122 -0.359218 -1.38888 0.1531152 0.2309496 -0.9608425 2171431 male
-2.582713 0.9091482 -1.51152 -0.6604854 0.7503474 0.02716428 5195076 male
-2.709252 0.4903199 -1.339172 -0.8361541 -0.04944571 0.5462617 2565412 male
-2.627931 0.2852302 -1.473196 -0.2940977 -0.1192292 -0.9483097 7893357 male
-2.485551 0.1980044 -1.328086 0.7839444 -0.08254369 0.6153195 2368292 male
-2.52865 -0.02226443 -1.332443 0.07768464 -0.03366654 0.9964096 2960173 male
-2.73868 0.0879823 -1.328955 -0.8203951 -0.1745035 0.5445187 1974566 male
-2.497438 0.5966498 -1.541435 -0.7313362 -0.6516035 -0.2013962 6051924 male
-2.517564 -0.4540837 -1.411018 -0.3559235 -0.9294286 -0.09737052 2170913 male
-2.513018 0.6474188 -1.578971 -0.2923775 0.8565181 -0.4253142 6445657 male
-2.594507 0.7478177 -1.564349 -0.1000904 -0.4946757 -0.863295 12496806 male
-2.541967 0.1298325 -1.482428 -0.2088595 -0.07226759 -0.975272 3158585 male
-2.691611 -0.4240392 -1.427333 0.9821886 0.1546016 -0.1067901 2829361 male
-2.69799 0.5326164 -1.620613 -0.4108726 -0.8703423 0.2714555 7037026 male
-2.675358 -0.2605739 -1.374866 0.4390026 -0.1363587 -0.8880785 2631208 male
-2.60969 0.5999999 -1.321353 0.3622583 0.08720222 0.9279898 10262156 male
-2.506415 0.6459935 -1.401904 0.442407 0.4514718 0.7748868 10195339 male
-2.51057 0.5103665 -1.514562 0.5868448 -0.3178512 -0.744704 2960429 male
-2.625284 -0.07130034 -1.368113 0.9634773 -0.2220084 -0.1497467 1776670 male
-2.503446 0.5527874 -1.578699 0.3959407 -0.8360454 -0.3798146 7959665 male
-2.564055 0.3147089 -1.295242 0.3085534 0.406341 0.8600476 11247517 male
-2.504605 0.6789464 -1.49808 0.2853894 0.6402081 -0.7132227 4209974 male
-2.479636 -0.2146263 -1.330074 0.9128267 -0.07763664 0.4008993 2303268 male
-2.535251 0.606845 -1.600186 -0.2315412 0.644896 -0.728353 8682099 male
-2.583815 0.7998678 -1.60537 0.08338735 0.1160186 -0.9897406 14206903 male
-2.75229 0.6873444 -1.427357 -0.8790791 -0.3705591 0.2998434 9143166 male
-2.540527 0.1952998 -1.479397 -0.02524343 0.1742492 -0.9843781 2829617 male
-2.485943 -0.02006775 -1.375726 0.968374 -0.09199853 0.2319232 1842724 male
-2.687945 -0.04757062 -1.425068 -0.1978322 -0.09449258 -0.975671 4145996 male
-2.626342 0.6198904 -1.320556 0.2449639 0.2237793 0.9433534 9341062 male
-2.57534 0.6638275 -1.367319 0.5717499 0.4272801 0.7003815 16245693 male
-2.67024 0.5671459 -1.696659 0.138786 0.8635412 -0.4848043 14271664 male
-2.593655 0.7703541 -1.461056 -0.4893087 -0.1193876 0.8639005 3288362 male
-2.672255 0.2956549 -1.272328 -0.381194 0.1886193 0.9050493 7169636 male
-2.470025 0.8027047 -1.508051 0.8595364 -0.4068648 -0.309287 3814449 male
-2.673676 -0.1070263 -1.403183 0.4049889 -0.5012885 -0.764653 3290168 male
-2.662747 0.6769616 -1.505768 0.8787111 0.4425149 -0.1790185 6840925 male
-2.747279 0.09332942 -1.34344 -0.9229821 -0.1403796 0.3583266 2697257 male
-2.655296 0.3049758 -1.269821 -0.1566243 0.2965794 0.9420774 7564393 male
-2.718735 0.5426702 -1.365669 -0.9814591 0.003650439 0.1916379 2632488 male
-2.564167 0.3550133 -1.315396 0.3296722 0.4826406 0.8114029 9800324 male
-2.644845 0.01563841 -1.413702 0.6793982 -0.05513759 -0.7316954 2961201 male
-2.494358 0.2472645 -1.46406 0.4101742 0.1550789 -0.8987257 3750969 male
-2.717631 0.3192064 -1.394469 -0.7839603 0.2782933 -0.5549407 4472892 male
-2.661594 0.483706 -1.560959 -0.2001617 -0.5986295 0.7756147 11574425 male
-2.476901 0.7845078 -1.475182 0.7874657 -0.6079118 0.1016916 5524040 male
-2.501123 -0.008314817 -1.346427 0.6972837 -0.0785646 0.7124768 2434085 male
-2.473521 0.6730385 -1.470197 0.8020084 0.5958146 0.04228061 10130570 male
-2.631095 0.7033263 -1.470264 -0.8907664 0.4107757 -0.1944192 4933179 male
-2.665501 0.1387876 -1.282234 0.05497554 -0.3339406 0.9409897 3158835 male
-2.508782 0.2273612 -1.471291 0.2152876 0.1979967 -0.9562682 2105119 male
-2.70559 -0.4278123 -1.376626 0.9636552 -0.2668636 -0.01235551 921102 male
-2.679492 -0.1512365 -1.295022 0.04251489 0.1966311 0.9795554 2829363 male
-2.715349 0.4035194 -1.388123 -0.988338 -0.03281362 -0.1486994 3552819 male
-2.555204 0.1539787 -1.321503 -0.2233869 -0.3278157 0.9179517 5724511 male
-2.764957 -0.4512546 -1.404618 -0.3623678 -0.8923696 0.2690096 1447190 male
-2.693562 0.738466 -1.476233 0.3887166 0.8074398 -0.4437797 5395536 male
-2.485043 -0.4626229 -1.410153 -0.06746627 -0.9972413 -0.03095518 526600 male
-2.720628 -0.3520754 -1.371624 -0.8674106 0.08956344 -0.4894665 2039327 male
-2.726699 -0.419906 -1.303768 0.08789557 0.01555358 0.9960085 6053476 male
-2.670831 0.5203693 -1.575527 -0.4609444 0.751836 0.4714584 16775661 male
-2.83496 0.4342309 -1.670756 -0.1609723 -0.002696232 0.9869554 14664898 male
-2.463933 0.6217065 -1.576002 0.7772741 0.4348441 -0.4547039 8683388 male
-2.544914 0.926944 -1.493356 -0.1837244 0.9661665 0.1810186 5525067 male
-2.675449 0.6367173 -1.470141 -0.3354028 0.3780835 -0.8628777 4669758 male
-2.695989 0.2968919 -1.286226 -0.5960082 0.1231628 0.7934768 5131334 male
-2.672867 -0.1628151 -1.293736 0.186552 0.1173764 0.9754084 2764082 male
-2.519165 0.3002156 -1.469972 0.2777824 0.1466205 -0.949389 6183253 male
-2.547669 0.5578873 -1.608289 0.2979174 -0.3497765 -0.8882015 16375512 male
-2.527457 0.7408076 -1.483542 0.8129311 -0.4762747 0.3351203 8221292 male
-2.487485 -0.2995963 -1.363315 0.9683136 -0.1705299 -0.1824519 1974564 male
-2.518349 0.3618076 -1.343781 0.5193291 0.4187144 0.7449669 10393493 male
-2.703571 0.4631319 -1.639961 0.4056905 -0.6141043 -0.6769722 15387337 male
-2.472272 0.6152115 -1.605641 0.32318 0.1082669 -0.940124 10392461 male
-2.491845 -0.2726208 -1.381952 0.7239772 -0.1701982 -0.6684983 2499625 male
-2.636991 0.1119914 -1.418745 0.5796922 -0.09525028 -0.8092493 2828331 male
-2.48429 -0.1150011 -1.365436 0.9900849 0.1395257 -0.01627243 2960437 male
-2.536855 -0.06204854 -1.437729 -0.1729862 -0.2122005 -0.9617936 3751234 male
-2.521491 0.9232375 -1.534874 0.2669652 0.8908132 -0.3676705 7168860 male
-2.46728 0.3016559 -1.381193 0.9865661 0.08345208 0.1404402 4867394 male
-2.603077 0.7181176 -1.3956 0.318895 0.822439 0.4710629 9603202 male
-2.512713 0.6271092 -1.597476 -0.5248261 0.5794631 -0.6235225 6775388 male
-2.654755 0.06419954 -1.424093 0.509769 -0.09380317 -0.8551824 2434857 male
-2.650976 0.4871572 -1.807147 -0.4146033 0.8011513 -0.4315794 15388609 male
-2.710582 0.3537554 -1.368557 -0.9857759 0.166645 -0.02180845 2828843 male
-2.633875 -0.1970923 -1.350058 0.9484376 -0.08795704 -0.304516 1776415 male
-2.48683 -0.06527615 -1.386063 0.9664361 -0.04676079 -0.2526162 2697265 male
-2.721023 -0.1851904 -1.312132 -0.7937941 -0.01405292 0.6080245 2236706 male
-2.495435 0.867987 -1.558849 0.618827 0.1805524 -0.764496 6314583 male
-2.484556 -0.130049 -1.343083 0.9172598 0.2496985 0.310299 2697257 male
-2.625094 0.005571825 -1.338562 0.8677865 -0.1053665 0.4856385 2565677 male
-2.468693 0.6489489 -1.524613 0.5163274 0.7201568 -0.463444 6314583 male
-2.643529 -0.1542587 -1.31156 0.7479265 0.1486407 0.6469252 2697257 male
-2.729888 -0.3835025 -1.33089 -0.6063042 -0.1110633 0.7874391 2960429 male
-2.457992 0.6062966 -1.593212 0.6795597 0.008267716 -0.7335739 11906986 male
-2.554289 -0.2261016 -1.378547 -0.623546 -0.08829236 -0.7767852 2303013 male
-2.654656 0.5538248 -1.714105 0.4727282 0.843127 -0.2562518 16043712 male
-2.625209 0.6045615 -1.508801 -0.4503023 0.131824 -0.8830915 14273948 male
-2.678343 0.03175819 -1.430969 0.1163627 -0.1333748 -0.984211 3553856 male
-2.557837 0.5814954 -1.34764 0.5863858 0.1191731 0.8012177 7762029 male
-2.526574 0.8767478 -1.413929 -0.05070826 0.4252743 0.903643 3814706 male
-2.515863 0.6214046 -1.561156 -0.9036457 0.235417 -0.3577759 6774360 male
-2.567446 0.8547454 -1.424802 -0.5853208 0.1252241 0.8010734 3945779 male
-2.617002 0.8562437 -1.51252 -0.8776593 0.4483532 0.1693921 16112332 male
-2.499509 0.01813737 -1.345108 0.6696467 -0.08475801 0.7378277 2499878 male
-2.480932 -0.138693 -1.368089 0.9782577 0.1402057 -0.1528217 2565672 male
-2.528151 0.3962747 -1.480947 0.5001317 -0.2991683 -0.8126296 4735294 male
-2.4976 0.5782409 -1.378111 0.4523524 0.1078908 0.8852894 9406847 male
-2.467527 0.04786835 -1.415286 0.9792309 -0.1869014 -0.07858151 2499369 male
-2.691417 0.1655573 -1.276752 -0.3337095 -0.2945602 0.8954734 3026998 male
-2.492395 0.8128156 -1.422948 0.4443721 -0.3463255 0.8261915 10195339 male
-2.632845 0.7966716 -1.537957 -0.9826221 -0.1523679 0.1060102 13550517 male
-2.741074 0.1458934 -1.414488 -0.8058203 0.06315795 -0.5887827 2829875 male
-2.686263 0.236184 -1.426327 -0.4800792 0.1516163 -0.8640236 7828594 male
-2.752519 -0.4432712 -1.340294 -0.3596321 -0.9127823 0.1936315 2499878 male
-2.715007 0.6052544 -1.606551 -0.8671015 0.3910937 -0.308514 15187637 male
