# .PCD v0.7 - Point Cloud Data file format
VERSION 0.7
FIELDS x y z normal_x normal_y normal_z rgb label
SIZE 4 4 4 4 4 4 4 4
TYPE F F F F F F U U
COUNT 1 1 1 1 1 1 1 1
WIDTH 247
HEIGHT 1
VIEWPOINT 0 0 0 1 0 0 0
POINTS 247
DATA ascii
1.516821 1.038741 -0.7351657 0.1551511 -0.05063933 0.986592 7630976 male
1.473769 0.6280302 -0.8285628 0.7487316 -0.3440787 -0.5665781 526600 male
1.547228 0.4904428 -0.9253768 -0.4594151 -0.2963705 0.8373185 526344 male
1.413419 0.7709285 -0.7356365 -0.8180044 -0.06967892 0.570976 4213073 male
1.525856 1.026919 -0.7377631 0.2676962 0.01756904 0.9633431 8881044 male
1.541351 0.5907586 -0.9703948 -0.7926887 0.3713864 -0.4834427 526600 male
1.547265 1.311351 -0.7375972 0.6673996 0.3234586 0.6707848 13089654 male
1.491471 1.355919 -0.7291918 0.4149078 0.4829323 0.7711212 15458547 male
1.619051 1.55779 -0.8360285 0.9131043 -0.02364049 -0.4070401 14597820 male
1.580291 0.8014094 -0.8244272 -0.1061718 -0.2570048 0.9605603 4343379 male
1.347132 0.4514408 -0.8189855 -0.9692146 -0.07103935 -0.2357464 526600 male
1.619302 1.608674 -0.8097841 0.9249066 0.3787092 -0.03357249 15446707 male
1.586815 1.110929 -0.9336144 0.3945433 0.1277316 -0.9099562 5328985 male
1.570134 1.144422 -0.7394018 0.5052326 0.01450652 0.8628613 8289933 male
1.404091 0.9487938 -0.795011 -0.9667954 0.1678551 0.1926949 3027255 male
1.437786 0.6899765 -0.8441687 -0.2075166 -0.07474974 -0.9753714 9147044 male
1.545132 0.7744307 -0.9481809 -0.5797358 -0.006387584 -0.8147795 6448497 male
1.418276 1.27438 -0.734667 0.9783652 -0.1974833 0.06165817 6710375 male
1.404034 0.2489201 -0.7276723 -0.04262605 -0.9963582 0.0738466 526600 male
1.509693 1.238455 -0.7215116 0.06877434 -0.03014118 0.9971768 6776176 male
1.564051 1.416692 -0.7955306 0.6890497 -0.4195527 0.5909197 16574948 male
1.554026 0.8436071 -0.7857975 0.8999287 -0.4359224 0.01000294 3949645 male
1.697327 0.2665015 -0.8735707 0.1129034 -0.9843619 -0.1352201 526600 male
1.658929 1.068538 -0.9857558 -0.6028826 -0.3864392 0.6979951 723723 male
1.59987 0.3469069 -0.9524492 0.3023345 0.3592829 0.8828983 526600 male
1.471907 1.245958 -0.9211817 -0.817821 -0.132282 -0.5600629 12761034 male
1.431189 1.347551 -0.8818453 -0.5596294 0.2631445 -0.7858561 13816034 male
1.577098 1.212186 -0.7540581 0.6846629 0.2421359 0.6874641 12051622 male
1.541934 0.7071609 -0.8719689 -0.7209255 -0.1352175 0.6796931 1118225 male
1.356041 1.296587 -0.7296901 -0.8770264 0.2009824 0.4363836 15908277 male
1.452666 0.9987673 -0.9085218 -0.6537547 0.2826907 -0.7019193 6974583 male
1.598967 1.379263 -0.8430548 0.7365693 0.5627761 0.3751648 12630481 male
1.372483 0.4380906 -0.7703433 -0.4252753 -0.1117513 0.8981384 526600 male
1.374041 1.346936 -0.7219512 -0.5504534 0.1049943 0.8282374 7434105 male
1.560349 1.461424 -0.7557598 -0.3990993 -0.8012086 0.4458526 9731703 male
1.575751 1.343448 -0.981409 -0.490333 -0.4569421 -0.7421438 1973793 male
1.416821 0.8909202 -0.7408089 -0.8190132 0.1054089 0.5640092 3553606 male
1.362269 0.5812669 -0.8119527 -0.9190685 0.393951 -0.01076567 526600 male
1.63094 0.5969201 -0.9120507 0.8495513 -0.467641 0.2440787 526346 male
1.477702 1.271269 -0.932818 -0.7757034 -0.0492793 -0.6291708 11513276 male
1.481598 1.121869 -0.8927816 -0.7720529 -0.12257 -0.6236272 9406620 male
1.704497 1.084138 -0.9986964 0.9256449 0.3781152 -0.01450706 16042440 male
1.611729 1.606346 -0.8495743 0.8803254 0.3048564 -0.3634414 6184030 male
1.631685 1.109651 -0.8879787 0.9523704 0.03095592 -0.3033682 7892856 male
1.49975 1.597577 -0.7718016 -0.6803175 0.2047606 0.7037337 11314087 male
1.591716 0.5606674 -0.9104253 0.1737058 -0.3212829 0.9309154 526600 male
1.656595 1.299439 -0.9651144 0.9634674 0.2486231 0.09958577 15189440 male
1.653797 0.7904552 -0.9301329 0.801523 -0.03034854 -0.5971933 7303552 male
1.544964 0.9362123 -0.9703533 -0.03292677 0.06710695 -0.9972023 2172969 male
1.630939 1.235176 -0.9061068 0.9481742 -0.06246912 -0.3115497 3750721 male
1.40291 0.9810994 -0.8583458 -0.9169524 0.156894 -0.366855 8028302 male
1.588444 0.6675606 -0.8588266 -0.1835661 -0.3355382 0.9239684 987927 male
1.431041 0.9566102 -0.7351071 -0.7497178 0.1545076 0.6434676 7435905 male
1.647207 0.9903167 -0.9096423 0.9387722 0.1895904 -0.2876843 2302499 male
1.362982 1.146887 -0.7167093 0.9209648 0.2162538 0.3241269 14397104 male
1.499093 1.626597 -0.7904592 -0.6193591 0.5745201 0.5350897 723723 male
1.411549 0.7323043 -0.8294951 -0.7786866 0.01090958 -0.6273182 7303808 male
1.452966 1.431901 -0.8135554 -0.3418407 0.9064904 0.2478306 6840680 male
1.548349 1.385563 -0.957437 -0.2295 0.5727438 -0.7869525 11708858 male
1.526546 0.8860331 -0.9573464 -0.4087839 -0.4090937 -0.8158051 6843516 male
1.442505 0.930725 -0.7205056 -0.5286389 0.1371844 0.8376881 3421497 male
1.576071 0.3036366 -0.9623442 -0.7491478 -0.04241072 0.6610437 526600 male
1.601939 0.4882011 -0.9973158 0.5833858 -0.07074159 -0.8091084 526600 male
1.542884 1.307304 -0.7318721 0.6390128 0.2886039 0.7130009 12169910 male
1.472273 0.8093083 -0.862152 -0.06818566 -0.1569261 -0.9852537 5989227 male
1.610362 0.2797457 -1.015308 0.2174911 -0.73982 -0.636682 526600 male
1.661933 1.369814 -0.9237404 0.8400918 0.3098444 0.4452439 9603735 male
1.385458 0.2572375 -0.7601726 0.1005096 -0.9915405 -0.08212972 526600 male
1.601018 0.369952 -0.9578796 0.7134295 0.1796552 0.6773052 526600 male
1.547827 0.3332575 -1.019624 0.2697941 0.3351115 -0.9027244 526600 male
1.360713 1.173334 -0.7295513 0.9501928 0.2238719 0.2168294 16043211 male
1.318058 1.117218 -0.7516811 -0.6159368 -0.464233 -0.6364821 15119806 male
1.510226 1.272459 -0.7131506 0.1573113 -0.236614 0.9587842 8814991 male
1.587745 1.643402 -0.7879888 0.4485847 0.8351103 0.3183749 526600 male
1.631204 1.262786 -0.8148651 0.8160972 -0.08522984 0.5715953 12560290 male
1.557447 1.276288 -0.7370668 0.7350937 0.04526967 0.6764523 13156825 male
1.539053 0.6271909 -0.9002222 -0.9140433 -0.2292347 0.3346285 526600 male
1.462433 1.035205 -0.734071 -0.2225623 0.3911272 0.8930204 3486517 male
1.385324 1.270373 -0.7057199 0.1570731 0.2352135 0.9591677 16766162 male
1.491887 1.472155 -0.8556398 -0.8300045 0.08565726 -0.5511401 16767173 male
1.404135 0.4044999 -0.7895982 0.8807838 -0.167193 0.4430197 526600 male
1.42595 1.052964 -0.8466046 -0.7057753 0.5338169 -0.4657474 11643836 male
1.353116 1.084258 -0.6727272 0.1356735 0.447571 0.8838964 16308185 male
1.439206 1.357575 -0.7328284 0.725597 -0.5441771 0.4211653 13157072 male
1.408009 0.4020739 -0.8143728 0.9556562 -0.2796351 -0.0923332 526600 male
1.558893 0.8103673 -0.8263371 -0.3490442 -0.2514879 0.9027302 3881535 male
1.369444 0.5505604 -0.774119 -0.6671454 0.1868523 0.7211124 526600 male
1.457436 0.6994795 -0.7290516 0.006435245 -0.371509 0.928407 7634057 male
1.622571 1.599766 -0.8070154 0.956832 0.2903459 -0.01310691 15845835 male
1.423932 0.9995048 -0.7501515 -0.8175187 0.1592192 0.5534549 5460571 male
1.509877 1.418668 -0.8992699 -0.5431777 0.6878367 -0.4814962 12632016 male
1.371949 1.352358 -0.7870569 -0.8521081 -0.08875035 -0.5157859 7828607 male
1.568208 0.7499688 -0.8439725 -0.338765 -0.2889102 0.8954156 4145735 male
1.756245 0.9228297 -1.031491 0.8032758 -0.1499336 -0.5764267 9862523 male
1.63106 1.061782 -0.8272631 0.9744776 -0.1456005 0.1708621 9078681 male
1.583718 0.6827092 -0.8552193 -0.2017356 -0.2658018 0.9426835 5331041 male
1.424696 0.4800858 -0.7948422 0.9086097 -0.1818681 0.3759686 526600 male
1.566982 0.5366432 -1.00645 -0.1213658 0.09667987 -0.9878883 526600 male
1.571191 1.585055 -0.7374212 0.06437865 0.271776 0.9602047 15187637 male
1.35227 0.5370307 -0.8325413 -0.8877981 0.1737799 -0.4261633 526600 male
1.539649 0.6789736 -0.9274027 -0.9239681 -0.01862178 -0.3820157 526344 male
1.459054 1.30424 -0.722847 -0.3912524 -0.5969089 0.7004437 592137 male
1.542998 0.516641 -0.9957544 -0.6647694 -0.01575132 -0.7468826 526600 male
1.591906 0.327593 -1.0127 0.4654342 0.04349094 -0.8840132 526600 male
1.433403 1.360549 -0.7236102 0.6911997 -0.4192783 0.5885988 14277098 male
1.43262 0.5998436 -0.7489937 -0.06302458 -0.304899 0.9502971 526600 male
1.688369 1.081359 -0.9782671 0.1770766 0.2398198 0.9545314 15845066 male
1.578295 1.280238 -0.7761045 0.7975549 0.02238627 0.6028309 15980019 male
1.551202 0.4487992 -0.9403231 -0.5469911 -0.2769388 0.7900037 526600 male
1.540349 1.010649 -0.9636112 -0.1440102 0.2459925 -0.9585139 8091785 male
1.553797 1.598792 -0.9069297 0.2366707 0.1658022 -0.9573383 5591125 male
1.423652 1.350354 -0.7608731 0.4681511 -0.8701407 0.1539144 526344 male
1.576083 1.620047 -0.888211 0.5208039 0.470083 -0.7125906 4276805 male
1.623543 1.556023 -0.7933378 0.9415798 -0.2931606 0.1657839 11178385 male
1.425338 0.7350101 -0.8413274 -0.5298771 -0.03812245 -0.8472172 3685188 male
1.381186 0.4965304 -0.7617791 -0.3189272 -0.04146129 0.9468719 526600 male
1.491415 1.071045 -0.7295749 -0.1374977 -0.09922665 0.9855194 4605772 male
1.434506 1.296814 -0.8899925 -0.5626274 0.02777171 -0.826244 15131113 male
1.400208 0.601686 -0.7641359 -0.5616446 0.1145456 0.8194112 526600 male
1.5726 0.9084255 -0.9684743 0.09461933 -0.005204262 -0.9954998 6514547 male
1.483357 1.575977 -0.8888342 -0.7075222 0.02036983 -0.7063975 9735828 male
1.61669 1.512731 -0.7723042 0.9258273 0.1097776 0.3616529 14264736 male
1.642987 0.8725106 -0.8293734 0.6475874 0.04723085 0.7605259 6712703 male
-2.606692 0.2576031 -1.249925 0.7660103 -0.6135846 -0.1916825 6445914 male
-2.630014 0.0004614843 -1.253779 -0.5563188 0.0585445 -0.8289043 2696490 male
-2.718147 -0.3527368 -1.385675 0.7638713 0.3177336 0.561735 1644569 male
-2.625939 0.04687956 -1.106823 0.08912989 -0.3650638 0.9267063 4145478 male
-2.592028 0.257789 -1.280381 0.6190938 -0.7841729 -0.04237884 6248274 male
-2.687197 -0.1645313 -1.383066 0.9084174 -0.005836325 -0.4180239 2829616 male
-2.818964 0.197246 -1.118122 -0.700738 0.1138424 0.7042773 3751233 male
-2.787435 0.2927034 -1.29313 -0.8029271 -0.305925 -0.5115841 3158064 male
-2.560682 0.3737911 -1.687772 -0.349524 -0.295145 -0.8892258 16772067 male
-2.680939 -0.0757317 -1.300358 0.8127178 -0.2184924 0.5401399 1710619 male
-2.571946 -0.2759551 -1.266235 -0.7522413 -0.1590418 -0.6394053 1579032 male
-2.483356 0.4486357 -1.721212 0.4682984 0.1964488 -0.8614552 7827304 male
-2.775494 0.4004356 -1.336138 -0.8790764 0.4279674 0.2099257 4406843 male
-2.671094 0.1550601 -1.239151 0.4748434 -0.6914023 -0.5445061 3618359 male
-2.630534 0.3694555 -1.179347 0.2304638 0.5734622 0.7861474 8682875 male
-2.584855 -0.1131126 -1.204506 -0.6514866 0.08811077 0.7535264 2960430 male
-2.760452 0.05477231 -1.32307 -0.06634641 0.2534681 -0.965066 2960687 male
-2.406906 0.3784208 -1.466065 0.8099743 0.5763155 0.1086383 10328468 male
-2.534488 -0.3965278 -1.297228 -0.7603801 0.2925151 -0.579877 2631465 male
-2.495077 0.3951292 -1.493592 -0.3598816 0.1549796 -0.9200364 10920345 male
-2.565723 0.3434696 -1.58537 0.1097697 -0.9389635 0.3260341 12496806 male
-2.550443 0.08919324 -1.189633 0.983462 0.165988 -0.07246286 2829363 male
-2.656123 -0.4404828 -1.43193 0.6548446 -0.6336175 0.4119559 2039327 male
-2.723613 0.3243099 -1.884709 0.1864636 0.9816607 0.03966871 15191997 male
-2.72517 -0.2366447 -1.405454 -0.123513 -0.1368076 -0.9828675 2105380 male
-2.719823 0.4868214 -1.422801 -0.3268485 0.9272588 0.1826509 9011583 male
-2.560819 0.4890189 -1.415781 -0.004608517 0.9984416 0.05561437 9078146 male
-2.538415 0.2924351 -1.387879 0.4528362 -0.890984 0.03296882 4603709 male
-2.67745 -0.02524337 -1.309739 0.999038 0.0245528 0.03634107 2763051 male
-2.251052 0.1471159 -1.759833 -0.3526286 -0.9357539 0.004214272 4207666 male
-2.666016 0.2213311 -1.070387 0.1672247 0.2047447 0.9644251 9208187 male
-2.576394 0.4756378 -1.506096 0.2985372 0.9323326 -0.2040379 7368296 male
-2.511316 -0.1736854 -1.211027 0.8647764 0.05414827 0.4992295 2434085 male
-2.369344 0.3050905 -1.549257 0.3114739 0.7881702 -0.5308219 16045509 male
-2.525624 0.2999476 -1.643925 0.5600251 -0.7690315 -0.3081601 13023149 male
-2.74031 0.3930638 -1.635558 -0.6275221 0.7356913 -0.2549008 9932167 male
-2.559425 0.1363283 -1.184047 0.9400395 0.2659075 -0.213586 3487806 male
-2.381984 0.2423687 -1.518521 -0.4389496 -0.8484555 0.2957135 13746880 male
-2.765843 -0.00705773 -1.333527 -0.527724 -0.07213335 -0.8463477 2303275 male
-2.720615 0.4873489 -1.43526 -0.3254216 0.9429232 0.07068703 9143683 male
-2.641938 0.4911781 -1.448334 0.1833514 0.9773721 0.1054804 12432561 male
-2.790361 0.2905168 -1.809418 -0.9672005 0.1604532 -0.1969221 16375251 male
-2.593713 0.4254047 -1.601155 -0.9639378 0.2650988 0.02338445 4735549 male
-2.803555 0.2672573 -1.137161 -0.551828 0.5198668 0.6520925 8617080 male
-2.443555 0.4391784 -1.6382 0.9881742 -0.1144288 0.1020694 3947060 male
-2.730513 -0.02058573 -1.353278 -0.2072118 0.2321697 -0.9503477 3289396 male
-2.69558 0.3632202 -1.69842 0.5866739 0.7695996 -0.252052 7960425 male
-2.747559 0.342626 -1.595761 -0.6145383 -0.6844714 0.3922266 5261127 male
-2.80157 0.2976943 -1.163514 -0.5427792 0.6440205 0.5390998 7959152 male
-2.743469 0.3646517 -1.452598 -0.8875958 -0.3694812 -0.2750592 4406586 male
-2.698312 0.3713938 -1.198559 -0.3338585 0.7274374 0.5994776 9800581 male
-2.711192 -0.005372228 -1.342544 0.3079836 0.3604019 -0.8804867 4080970 male
-2.581381 0.184949 -1.113128 0.8649859 0.1201922 0.4871893 2699313 male
-2.68562 0.2464205 -1.353346 -0.01175512 -0.8558179 -0.5171436 7958378 male
-2.412031 0.267999 -1.536047 -0.7643986 -0.6346391 -0.113702 7695978 male
-2.496287 0.4503416 -1.555348 0.4182665 0.1016457 0.9026193 8090222 male
-2.592303 -0.141685 -1.216343 -0.9086477 0.1111714 0.402493 2434090 male
-2.507468 -0.4215819 -1.356759 0.2157181 0.9513983 -0.2197887 2632492 male
-2.672606 0.4521334 -1.547725 0.4561534 0.4425728 -0.7720451 5723727 male
-2.853613 0.1024821 -1.185733 -0.9496041 -0.3110028 0.03911126 3419956 male
-2.592125 0.1986774 -1.185048 0.6325088 0.396622 -0.6652998 1579032 male
-2.661099 -0.4506923 -1.432445 0.2167719 -0.9702528 0.1077941 789004 male
-2.702713 -0.1657854 -1.406686 0.4865956 0.02744658 -0.8731962 3816770 male
-2.836184 0.2341598 -1.163901 -0.9440391 0.2000387 0.2622497 6249047 male
-2.695275 0.1429258 -1.067117 -0.2716762 -0.5369482 0.7986732 2565927 male
-2.727389 -0.4509181 -1.453088 -0.09390456 -0.9953385 0.0219835 854541 male
-2.764781 0.4189517 -1.559044 -0.9084131 0.4163789 -0.03761184 9605258 male
-2.550824 -0.3738207 -1.266496 -0.9858811 0.1572945 0.05742204 1842204 male
-2.733194 -0.3129221 -1.394945 -0.5899165 -0.1952059 -0.7835134 1776155 male
-2.744723 -0.3697473 -1.369025 0.7043615 0.07066215 0.7063158 2302499 male
-2.372432 0.2366644 -1.568137 -0.6578909 -0.130537 -0.7417142 16771814 male
-2.284823 0.1405868 -1.621485 -0.3284864 -0.9426529 -0.05918017 10523280 male
-2.444849 0.4327422 -1.437227 0.6864794 0.7221049 -0.08550197 7629927 male
-2.533581 0.4728245 -1.714936 -0.312804 0.4556608 -0.833383 4867394 male
-2.607888 0.372876 -1.515418 0.1194261 -0.8020024 -0.5852604 10195339 male
-2.813607 0.1691635 -1.108425 -0.5822487 -0.1037195 0.8063678 4342346 male
-2.770303 -0.1476325 -1.367987 -0.9675575 0.07431152 -0.2414756 2303014 male
-2.626523 0.2084132 -1.211404 0.6203581 0.110916 -0.7764366 12695985 male
-2.403756 0.3393577 -1.448952 0.6733953 0.08073908 0.7348608 7365727 male
-2.542666 0.4513255 -1.508632 0.8929899 0.3733368 -0.2513742 6643290 male
-2.511436 -0.17755 -1.272153 0.7894818 0.08582624 -0.6077437 2698289 male
-2.673391 0.3426451 -1.155117 -0.1216412 0.7587257 0.6399522 12103079 male
-2.324718 0.2399689 -1.52562 0.7929958 0.08157349 0.6037415 16504780 male
-2.396081 0.352118 -1.509729 0.6575647 0.6442553 -0.3905686 16772046 male
-2.509233 -0.1569061 -1.26507 0.8895163 0.1402326 -0.4348515 3289401 male
-2.683044 -0.0329503 -1.278631 0.9451174 0.007746814 0.3266395 1908771 male
-2.578113 -0.06050135 -1.180951 0.37451 -0.2360977 0.8966607 2894897 male
-2.600492 -0.119346 -1.255411 -0.9053081 -0.262559 -0.3338865 1841948 male
-2.542405 0.3978773 -1.714762 -0.3504134 -0.3780526 -0.8569055 14600901 male
-2.619319 0.1881921 -1.079965 0.6029291 0.142853 0.7849011 2763050 male
-2.659275 0.469942 -1.538167 0.06835923 0.4831867 -0.8728446 6775132 male
-2.399575 0.3175789 -1.54256 -0.03061026 0.5911821 -0.8059572 8684155 male
-2.743822 0.0582544 -1.320791 0.2049946 0.3192986 -0.9252167 3883595 male
-2.806369 0.1491842 -1.103919 -0.4266741 -0.3526889 0.8328026 3157040 male
-2.709958 0.002049315 -1.335407 0.4191317 0.3415648 -0.8412267 3818058 male
-2.584882 0.07323421 -1.115481 0.6482844 -0.2477844 0.7199516 2236195 male
-2.767419 -0.1234303 -1.361773 -0.9730576 0.1689385 -0.1569046 2104608 male
-2.454399 0.405711 -1.638277 0.9438704 -0.3090318 0.116655 4998980 male
-2.562088 -0.05116643 -1.186249 0.6693305 -0.1186102 0.7334362 1973793 male
-2.745939 0.05051837 -1.151846 0.4152486 -0.4505747 0.7902856 2894126 male
-2.514859 0.3848898 -1.481069 0.04142225 -0.1392172 -0.9893953 4341050 male
-2.726912 -0.2106541 -1.409026 -0.1639031 -0.1222344 -0.9788743 1973534 male
-2.774786 -0.3829456 -1.38221 -0.9871985 0.05009429 0.1514271 3026741 male
-2.411623 0.3534152 -1.523111 0.3701745 0.3996437 -0.8386036 6248273 male
-2.54297 -0.1403694 -1.285538 -0.007750422 -0.1166764 -0.9931399 2171171 male
-2.753699 0.3254269 -1.853597 -0.3466829 0.9196022 -0.1847778 16243662 male
-2.579308 0.3522933 -1.49169 0.1272781 -0.6879998 -0.7144625 7432544 male
-2.702437 -0.3010741 -1.388678 0.9710926 0.1487813 -0.1866643 2697257 male
-2.657844 0.4479295 -1.320168 -0.08458788 0.8056391 0.5863367 7894128 male
-2.581059 0.4721629 -1.600273 -0.889567 0.3356115 0.3098965 3288362 male
-2.406296 0.365577 -1.447466 0.7674399 0.351788 0.5359863 9143683 male
-2.581133 0.4776062 -1.608692 -0.9001685 0.3649928 0.2376494 4143671 male
-2.580112 0.396255 -1.680118 -0.8042128 -0.05648636 -0.5916513 16112332 male
-2.60576 -0.08392802 -1.204425 -0.6647907 -0.3044992 0.6821538 2499886 male
-2.533773 -0.1288495 -1.201337 0.5365333 0.2491159 0.8062714 2303011 male
-2.576275 0.3026916 -1.214031 0.9557629 -0.1779846 0.2341778 3749170 male
-2.592094 0.4736022 -1.350667 -0.1666116 0.9093748 0.3811536 10131346 male
-2.570414 0.005634815 -1.157966 0.7439539 -0.2630352 0.6142843 2696492 male
-2.852601 0.1188023 -1.173865 -0.9652215 -0.2476109 0.08388382 3222578 male
-2.52019 0.5046079 -1.578468 -0.0688713 0.7162938 0.6943918 10195339 male
-2.56618 0.3419431 -1.672982 -0.6186591 -0.3895212 -0.6823007 15849930 male
-2.703752 0.09670854 -1.214888 0.989562 0.1408658 -0.03040183 2828846 male
-2.739418 0.2263143 -1.27661 -0.06386521 -0.3618576 -0.9300433 7761002 male
-2.775631 -0.4383331 -1.420662 0.05312007 -0.9980029 0.03418281 526602 male
