# .PCD v0.7 - Point Cloud Data file format
VERSION 0.7
FIELDS x y z normal_x normal_y normal_z rgb label
SIZE 4 4 4 4 4 4 4 4
TYPE F F F F F F U U
COUNT 1 1 1 1 1 1 1 1
WIDTH 246
HEIGHT 1
VIEWPOINT 0 0 0 1 0 0 0
POINTS 246
DATA ascii
1.474431 1.054723 -0.721608 -0.01646551 -0.260015 0.9654641 8092037 male
1.4374 0.633724 -0.8378072 0.7845644 -0.3270935 -0.5267528 526600 male
1.526884 0.4968955 -0.9189944 -0.4973505 -0.3005012 0.8138437 526600 male
1.369122 0.7745468 -0.7466306 -0.8526128 -0.08814497 0.5150552 4213073 male
1.483342 1.012158 -0.7284087 0.2456641 -0.03140943 0.968846 9275545 male
1.583267 0.5502133 -0.9880797 0.5610215 0.1372687 -0.8163407 526600 male
1.529899 1.319201 -0.702163 0.614228 0.2811381 0.7373502 15129478 male
1.451187 1.409817 -0.7318316 0.1723556 0.720166 0.6720524 11445685 male
1.630338 1.553287 -0.7537281 0.9379404 -0.06248666 -0.3411205 14793912 male
1.561387 0.8098895 -0.8188729 0.01503119 -0.2149782 0.9765031 5726058 male
1.313314 0.4148475 -0.8293965 -0.995567 -0.08985186 -0.02780148 526600 male
1.632382 1.595107 -0.7258808 0.9547378 0.2957543 0.03170365 15446707 male
1.595643 1.132891 -0.8861743 0.7841833 -0.03956986 -0.6192664 8353148 male
1.534866 1.13237 -0.7146513 0.4183093 -0.1355787 0.898129 8289933 male
1.360394 0.9531729 -0.8379673 -0.9889144 0.09839981 -0.1112011 3224122 male
1.410521 0.6893793 -0.8552352 -0.003278524 -0.06963308 -0.9975673 6975616 male
1.560209 0.8252879 -0.9573792 0.07359803 -0.04370423 -0.9963298 8093324 male
1.390687 1.262673 -0.7032302 0.9500276 -0.3108513 0.02861777 2500653 male
1.354519 0.2544287 -0.7403181 -0.06497679 -0.9929695 0.09894236 526600 male
1.471846 1.261871 -0.6775447 -0.2021458 -0.4090516 0.8898392 7565691 male
1.5493 1.423787 -0.7221744 -0.001934528 -0.4473437 0.8943601 15780039 male
1.511244 0.8494803 -0.7867466 0.9045756 -0.4216131 0.06312934 3949645 male
1.680479 0.2737693 -0.854764 0.1818599 -0.9489638 -0.2576716 526600 male
1.635273 1.119685 -0.9718931 -0.7163949 -0.4989281 -0.4876977 15913172 male
1.575851 0.3745563 -0.9412794 0.04324403 0.2142501 0.975821 526600 male
1.483047 1.316228 -0.9000967 -0.7058558 0.1923597 -0.6817371 11775163 male
1.400237 1.31055 -0.8371701 -0.6825498 0.06599267 -0.7278535 14540526 male
1.466678 1.189094 -0.6937373 -0.1025195 -0.1575214 0.9821795 6973554 male
1.512119 0.6690443 -0.8777496 -0.7647075 -0.1736566 0.6205366 3092015 male
1.332175 1.295232 -0.7006452 -0.9160834 0.2515188 0.3122971 15118247 male
1.376958 0.9610124 -0.8809597 -0.7796102 0.05613751 -0.6237439 7765647 male
1.608095 1.364518 -0.7954423 0.7036484 0.4721174 0.5310217 12037823 male
1.334684 0.4423798 -0.7878308 -0.4647451 -0.1290648 0.8759875 526600 male
1.388631 1.352752 -0.675333 0.1872155 -0.2668318 0.9453841 14538990 male
1.559169 1.452717 -0.6809337 -0.4932568 -0.6485043 0.5797758 10718082 male
1.650573 1.364171 -0.9329494 0.5977888 0.2057809 -0.7747921 6446187 male
1.371209 0.8947538 -0.7500749 -0.8588815 0.09133128 0.5039654 3553606 male
1.325758 0.5860686 -0.8274165 -0.919974 0.389394 -0.04494533 526600 male
1.602571 0.6210976 -0.8831287 0.7120405 -0.4482109 0.5404677 526600 male
1.488299 1.307523 -0.9077793 -0.6633788 0.1347231 -0.7360559 15591669 male
1.486999 1.129428 -0.9059621 -0.530275 -0.1015621 -0.8417205 10262699 male
1.697838 1.115266 -0.9330881 0.607277 0.3292029 0.7230769 15514296 male
1.560796 1.542633 -0.8255726 0.2493908 -0.2167013 -0.9438457 14339028 male
1.522688 0.9508206 -0.9651719 0.07875103 0.1379512 -0.9873033 2896694 male
1.510983 1.590378 -0.6922042 -0.6821442 0.179175 0.7089257 11314087 male
1.558255 0.6015984 -0.8864968 -0.06866238 -0.4601097 0.8852031 789260 male
1.658576 1.269206 -0.8857974 0.6029352 -0.05121245 0.7961448 16571102 male
1.627608 0.8036718 -0.9101785 0.9154971 -0.009888402 -0.402203 6711414 male
1.507679 0.9713656 -0.9641886 0.00672859 0.1073376 -0.9941998 10199215 male
1.613112 1.219453 -0.8772553 0.9311128 -0.1518238 -0.3316301 198147 male
1.367529 0.9785886 -0.8608482 -0.9157825 0.1374443 -0.3774275 7830416 male
1.523118 0.5347931 -0.9134622 -0.5323802 -0.09060087 0.8416429 526600 male
1.400564 0.9540426 -0.7237908 -0.5279251 0.1211729 0.8406023 2632240 male
1.609176 1.003877 -0.8520265 0.9259447 0.04283037 0.3752226 6577255 male
1.32894 1.154189 -0.6913304 0.8709717 0.1573165 0.4654673 14397104 male
1.513362 1.62134 -0.7072733 -0.5838114 0.5617207 0.5862032 723723 male
1.38903 0.7232726 -0.8520243 -0.4052544 -0.03152409 -0.9136603 3752266 male
1.493391 1.430756 -0.8180118 -0.4107349 0.6859035 -0.6006939 14605038 male
1.560248 1.406412 -0.8931437 -0.005639821 0.7040453 -0.7101327 11249847 male
1.534644 0.9141859 -0.9666511 0.09281266 -0.03868527 -0.9949317 9409952 male
1.412548 0.9437307 -0.7181401 -0.2959422 0.1392289 0.9450046 3882051 male
1.562558 0.3092221 -0.9517505 -0.7975566 -0.06348808 0.5998939 526600 male
1.567032 0.5376795 -0.9971529 0.2642689 0.07889177 -0.9612169 526600 male
1.518961 1.313739 -0.6918228 0.5738443 0.2716056 0.7726145 15787402 male
1.434906 0.8162763 -0.869417 -0.0005751252 -0.1350284 -0.9908416 5989227 male
1.63675 0.2919337 -0.9861462 0.5077497 0.119772 -0.8531383 526600 male
1.672568 1.376529 -0.8829803 0.8992425 0.3869574 0.2040271 10724016 male
1.347707 0.2644902 -0.8002492 0.2242101 -0.9745384 0.00217019 526600 male
1.556289 0.4385236 -0.9317227 -0.06250203 -0.2708143 0.9606004 526600 male
1.538187 0.3387543 -1.011199 0.3112926 0.3514417 -0.8829414 526600 male
1.330021 1.18096 -0.7035877 0.9177793 0.1650301 0.3611734 16043211 male
1.283811 1.160098 -0.7432543 -0.6845427 -0.3194534 -0.6552485 16766934 male
1.414866 1.28837 -0.7107142 -0.3418144 -0.3930685 0.8536159 526600 male
1.608665 1.629163 -0.7108729 0.61926 0.7342795 0.27812 526600 male
1.611978 1.277922 -0.7630988 0.6842432 0.04243879 0.728018 13151921 male
1.528293 1.293878 -0.6935053 0.6300864 0.1518271 0.7615377 15856595 male
1.519185 0.5486349 -0.9826756 -0.7393901 0.101516 -0.66558 526600 male
1.444368 1.015679 -0.7212076 0.03885198 0.1681832 0.9849898 6973553 male
1.357645 1.299983 -0.6782489 -0.1909372 0.2611502 0.9462259 15249068 male
1.497329 1.476652 -0.7929804 -0.7848249 0.2191052 -0.5796919 16767173 male
1.368174 0.395451 -0.8322459 0.9623625 -0.2360628 -0.1346578 526600 male
1.366267 1.007 -0.8416173 -0.9477253 0.2104644 -0.2398362 5199972 male
1.324016 1.11287 -0.6708758 0.7689849 0.2511737 0.5878553 14857140 male
1.423092 1.355472 -0.6986347 0.7391713 -0.603689 0.2986391 1051664 male
1.369407 0.4053637 -0.8167049 0.9492415 -0.2081324 0.2358418 526600 male
1.553564 0.8128282 -0.8180298 -0.05481458 -0.2238933 0.973071 6975618 male
1.326148 0.5300498 -0.7905165 -0.7233152 0.07858334 0.6860319 526600 male
1.412137 0.7150221 -0.7335563 -0.08215809 -0.367785 0.9262744 7304067 male
1.634785 1.58567 -0.7241207 0.9783447 0.2025552 0.04258171 15845835 male
1.389651 1.072156 -0.8155648 -0.8420325 0.4974673 -0.2085846 9670298 male
1.525902 1.433321 -0.8395479 -0.3996427 0.7930817 -0.4596816 8814478 male
1.357808 1.38487 -0.7313324 -0.8501213 0.4595323 -0.2571455 7236982 male
1.567705 0.7797487 -0.8255091 0.01907313 -0.2303021 0.9729322 5593964 male
1.776432 0.9090797 -0.9686712 0.9310036 -0.02973791 -0.3637965 5198677 male
1.569191 1.122351 -0.7417394 0.6238889 -0.1397028 0.7689251 12498379 male
1.518001 0.5355327 -0.9180402 -0.6622732 -0.07456294 0.7455431 526600 male
1.387721 0.4849088 -0.8092368 0.8927883 -0.1861161 0.4102314 526600 male
1.526388 0.5627515 -0.9861565 -0.6069671 0.2192022 -0.7638987 526600 male
1.552172 1.607624 -0.6742675 -0.2938857 0.4557426 0.8401963 9275016 male
1.333246 0.5554509 -0.788309 -0.6760989 0.1687677 0.7172221 526600 male
1.506747 0.6800306 -0.9121144 -0.9466828 -0.06659116 -0.3152098 3355960 male
1.476583 1.298238 -0.6691301 0.1634165 -0.04827065 0.9853756 10590889 male
1.508026 0.5455226 -0.9647052 -0.9285648 0.05153386 -0.3675753 526600 male
1.58157 0.3340009 -1.001022 0.5352657 0.06051917 -0.8425129 526600 male
1.421097 1.361177 -0.6701638 0.4468737 -0.38275 0.808583 8024962 male
1.392572 0.6037693 -0.760833 -0.1089561 -0.3222094 0.9403774 526600 male
1.606553 1.183691 -0.9521281 -0.9446403 -0.3278595 -0.01276046 12825006 male
1.562545 1.282127 -0.7346208 0.6659536 -0.07604308 0.7421072 13945697 male
1.566434 0.7377221 -0.8346153 -0.04101324 -0.2251891 0.9734514 5527390 male
1.53212 1.044892 -0.9454882 0.04980648 0.4565348 -0.8883103 6382698 male
1.569296 1.602541 -0.8250318 0.2832526 0.2534471 -0.9249501 5591125 male
1.409143 1.352048 -0.7227455 0.3657928 -0.9252216 0.1007999 526344 male
1.592698 1.619381 -0.8033769 0.5837505 0.4999257 -0.6397732 4276805 male
1.620353 1.536655 -0.7035959 0.5083867 -0.03671816 0.8603457 9006446 male
1.377941 0.7432334 -0.8453528 -0.6608469 0.003357327 -0.7505132 3421759 male
1.313007 0.5245048 -0.8463062 -0.919254 0.07065702 -0.3872721 526600 male
1.440505 1.094397 -0.7204051 -0.3712416 -0.09931692 0.9232095 10327197 male
1.450863 1.325347 -0.8633767 -0.4957346 0.3055187 -0.812961 13684192 male
1.361035 0.605689 -0.7775766 -0.6036268 0.09763286 0.7912664 526600 male
1.495364 0.8705125 -0.9456676 -0.5356157 -0.335479 -0.7749643 6250863 male
1.494046 1.62495 -0.7771659 -0.7797759 0.5727613 -0.2527726 526344 male
1.628031 1.499837 -0.7191542 0.9659005 -0.2046762 0.158568 16237757 male
1.632527 0.8563443 -0.8603152 0.9756003 0.04927425 0.2139531 1579032 male
-2.458148 0.3889938 -1.424614 0.7531615 -0.05601846 -0.6554462 4472636 male
-2.390153 0.04432268 -1.466977 0.8975147 0.05321007 -0.4377627 2763825 male
-2.619853 0.01627572 -1.489283 0.1475455 0.1041063 -0.9835612 4474700 male
-2.383168 0.06999035 -1.425119 0.9997901 0.005331129 0.01978832 2302758 male
-2.463009 0.413763 -1.434883 0.6638705 -0.04800771 -0.7463052 4802369 male
-2.664165 -0.1337285 -1.451926 -0.2760486 0.5000061 0.8208479 3157809 male
-2.59769 0.5210605 -1.457019 -0.6578054 -0.06886954 -0.7500328 14665127 male
-2.547023 0.6204583 -1.462232 -0.5812654 0.4450428 -0.6812252 8946045 male
-2.735518 0.7685242 -1.451076 -0.6587176 -0.1542528 -0.7364086 11314079 male
-2.567869 0.05875589 -1.440586 0.7678931 0.02277558 -0.6401733 2829101 male
-2.404485 -0.299031 -1.404532 0.8586798 -0.06169396 0.5087862 1776155 male
-2.745392 0.7764728 -1.387515 -0.929842 -0.3037594 0.2076637 5394762 male
-2.661306 0.3452336 -1.315895 -0.9014789 -0.02440823 0.4321344 6050643 male
-2.516697 0.230271 -1.447468 0.2788006 0.1787982 -0.9435579 8617339 male
-2.445497 0.2705531 -1.291578 0.5873312 0.2532614 0.7687008 8681843 male
-2.468753 -0.06298393 -1.431517 -0.6022907 -0.2501494 0.7580709 3224118 male
-2.634905 -0.04796607 -1.389365 -0.254772 -0.3647846 0.8955577 3289395 male
-2.492087 0.6766072 -1.476387 -0.1307681 0.8945923 -0.4273224 6971481 male
-2.441293 -0.4221657 -1.377383 -0.3486101 -0.9304591 0.1127689 920078 male
-2.442448 0.5645555 -1.400698 0.9196511 -0.3230056 -0.2234045 2960685 male
-2.646826 0.6448702 -1.4384 -0.2987842 -0.5166548 -0.8023689 16773865 male
-2.513821 0.1358901 -1.458825 -0.516687 -0.01664293 -0.8560128 3026483 male
-3.069898 0.6607264 -1.472212 0.6001937 0.5069563 0.6186784 12955050 male
-2.969342 0.4778621 -1.421451 0.5567839 -0.05301648 -0.8289639 15914195 male
-2.672011 -0.3251114 -1.47442 0.2234369 -0.25453 -0.940899 2302507 male
-2.56584 0.5358832 -1.264968 0.5217764 0.2233854 0.8233155 6643805 male
-2.553423 0.6307436 -1.308876 0.09096253 0.4556647 0.8854919 10195339 male
-2.555975 0.4361695 -1.464653 -0.1755697 0.05808854 -0.9827519 5722959 male
-2.582792 -0.1035643 -1.494792 0.9130715 -0.2604131 -0.3138243 1710618 male
-2.373088 0.4190679 -1.798314 -0.7799624 -0.5330662 0.3278708 7891304 male
-2.495163 0.2301344 -1.263952 0.141745 0.1431571 0.9794973 9339262 male
-2.648308 0.6264743 -1.423397 -0.4742161 -0.4188474 -0.7743942 7169893 male
-2.385749 -0.2545424 -1.435039 0.9162456 -0.09201727 0.3899066 2038559 male
-2.444406 0.6113927 -1.53909 -0.3383728 0.6596128 -0.6711297 8683125 male
-2.64666 0.7035925 -1.472213 0.6769021 -0.5765712 -0.457569 12167320 male
-2.719887 0.5411792 -1.255879 -0.02896494 -0.3943255 0.9185144 3420204 male
-2.409593 0.1728311 -1.451072 0.6992567 0.3493782 -0.6236787 3946044 male
-2.389597 -0.06209297 -1.4632 0.9899918 0.0220061 0.1393998 2631464 male
-2.649415 -0.07412643 -1.518582 -0.5905563 0.1162891 -0.798574 3223348 male
-2.573963 0.5471978 -1.264047 0.5176253 0.2669612 0.8128935 8486261 male
-2.546331 0.3599349 -1.282193 0.3195781 -0.0719686 0.9448231 10129546 male
-2.875908 0.4340845 -1.361085 0.5410312 -0.7012034 -0.4643267 9535096 male
-2.751356 0.8385693 -1.395509 -0.9403127 0.3243137 0.1031157 3222825 male
-2.64584 0.1668568 -1.279518 -0.6640627 -0.03499984 0.7468574 7498598 male
-2.628455 0.838576 -1.437199 0.7646931 0.3709225 -0.5269357 5919050 male
-2.629142 -0.1199244 -1.546211 0.2093525 -0.473078 -0.8557855 3948098 male
-2.824668 0.5547865 -1.310112 -0.5961222 0.7477618 0.292388 6314324 male
-2.693012 0.08055167 -1.384599 -0.9930161 -0.04704501 0.1081949 2237478 male
-2.614258 0.1494156 -1.261717 -0.343298 -0.2042914 0.9167398 3947329 male
-2.6857 0.4306518 -1.335653 -0.9463941 -0.3219603 -0.02607691 3946035 male
-2.525643 0.3000151 -1.27966 0.1279604 0.3603856 0.9239852 9800324 male
-2.610427 -0.2060869 -1.482017 0.9452602 -0.1722812 -0.2771329 2039071 male
-2.40703 0.221376 -1.369989 0.9656434 0.1578846 0.2064109 4077878 male
-2.623666 0.2262862 -1.412945 -0.4037161 0.2006366 -0.8926134 6578012 male
-2.378298 0.514717 -1.542119 -0.3987627 -0.8276453 0.3949577 13218993 male
-2.637482 0.8660335 -1.418379 0.5916387 0.7164241 -0.3697299 3354670 male
-2.453061 -0.037266 -1.396134 -0.1864241 -0.3214792 0.9283843 2895156 male
-2.572863 0.6695232 -1.340887 0.02855296 0.7501051 0.660702 7958633 male
-2.669997 0.6133541 -1.274617 -0.1434606 0.5981302 0.7884538 6971741 male
-2.664111 0.1437182 -1.300767 -0.7956324 -0.08890339 0.5992208 2697772 male
-2.400314 0.208326 -1.385962 0.9825841 0.1738881 0.06551033 4868676 male
-2.677671 -0.3885776 -1.423477 0.9935383 0.1131508 -0.008891761 1644825 male
-2.700837 -0.1829685 -1.461523 -0.922443 0.1753646 0.3440155 2697257 male
-2.590585 0.5194439 -1.462227 -0.6085083 -0.05388845 -0.7917159 16704180 male
-2.512955 0.08034366 -1.335049 -0.5454057 -0.4867362 0.682364 1908773 male
-2.7531 -0.4355492 -1.384498 -0.7970732 -0.5822287 0.1602632 3026222 male
-2.768171 0.5607848 -1.350456 -0.08573782 0.27322 -0.9581233 7498857 male
-2.438928 -0.3997498 -1.411594 -0.4868467 0.2769165 -0.8284309 1974307 male
-2.696891 -0.3489731 -1.459846 -0.7865781 -0.1517629 -0.5985509 1579032 male
-2.715994 -0.3726847 -1.398498 -0.7120315 0.01593574 0.701967 2895151 male
-2.396584 0.5271173 -1.548474 -0.7888615 -0.6121024 0.05503011 16374744 male
-2.334815 0.4673145 -1.717737 -0.8825801 0.3968082 -0.2521823 16773349 male
-2.524034 0.5037916 -1.472703 0.2813988 -0.2554419 -0.9249672 4669758 male
-2.723399 0.874508 -1.406653 -0.5675277 0.8213963 -0.05675074 4932930 male
-2.687131 0.5162654 -1.410172 -0.6107017 0.06873298 -0.7888722 7827566 male
-2.589653 0.452922 -1.450573 -0.4092897 0.123943 -0.9039471 14928034 male
-2.686947 -0.2057721 -1.435215 -0.5829626 0.1195345 0.8036581 2828590 male
-2.541802 0.1323677 -1.41669 -0.8043057 0.5880159 -0.08561528 3223601 male
-2.415974 0.5892196 -1.469698 0.7755791 -0.2090278 0.5956383 9538438 male
-2.612196 0.711206 -1.358541 0.6416839 0.1953839 0.7416651 13415595 male
-2.442293 -0.2643794 -1.474078 -0.5357774 -0.4843605 -0.6916195 2105120 male
-2.46521 0.3770738 -1.308791 0.7012266 0.03033962 0.7122928 6315352 male
-2.311347 0.5278583 -1.614912 0.8190181 0.5478841 -0.1703895 16773095 male
-2.442101 0.6337065 -1.421854 0.7737996 -0.01783744 0.6331795 7564651 male
-2.438126 -0.2539501 -1.483683 -0.4816267 -0.4840654 -0.7305591 2302246 male
-2.629188 0.07615664 -1.475378 0.009899914 0.24328 -0.9699057 4409426 male
-2.381297 -0.1660313 -1.453844 0.6803101 0.3267193 0.6560739 2367780 male
-2.391114 -7.568393E-05 -1.469144 0.9296146 -0.1003291 -0.354614 2764082 male
-2.740601 0.8483793 -1.440328 -0.7877366 0.5055342 -0.3520033 12168099 male
-2.42473 0.2423474 -1.310254 0.8718417 0.04102411 0.4880669 6248791 male
-2.636319 0.6584683 -1.323851 0.1497188 0.7738737 0.6153892 4079417 male
-2.4803 0.6364684 -1.50691 -0.4112037 0.2319636 -0.8815354 9405822 male
-2.650574 0.05306416 -1.477275 -0.3310911 0.1814415 -0.9259902 3816516 male
-3.029001 0.6846745 -1.460277 -0.728812 0.6785992 0.0913043 13348263 male
-2.668017 0.2774165 -1.371877 -0.8053883 0.4502605 -0.3855068 3684919 male
-2.613518 -0.2157615 -1.483839 0.903918 -0.2295839 -0.3608652 2367780 male
-2.435183 -0.2423515 -1.493052 -0.4388523 -0.4792564 -0.7600804 2368807 male
-2.702673 -0.2363829 -1.489199 -0.930181 -0.1532191 -0.3335977 1908256 male
-2.677779 0.8202437 -1.482957 0.2627629 0.3765739 -0.8883401 12889765 male
-2.373821 -0.1656353 -1.463336 0.8296124 0.2586904 0.4947957 2631464 male
-2.583708 -0.0352576 -1.390614 0.6696436 -0.3686457 0.6447309 2500141 male
-2.510242 0.576088 -1.478795 0.3383395 -0.1845031 -0.9227596 5197127 male
-2.629188 -0.16104 -1.44363 0.5007253 0.3092979 0.808461 2697257 male
-2.721704 -0.3984158 -1.440097 -0.7600719 0.4779929 -0.4402428 2105894 male
-2.441403 0.6311969 -1.425689 0.7592841 -0.03776087 0.6496631 7629671 male
-2.438309 -0.1319139 -1.547232 -0.6162172 -0.4982861 -0.6099079 2368804 male
-2.96748 0.5128877 -1.39783 0.8324036 0.3851136 0.3984872 16045254 male
-2.621475 0.5279847 -1.438105 -0.4895735 -0.07098379 -0.8690681 16245693 male
-2.641046 -0.299944 -1.440645 0.9653208 -0.2337765 0.1162094 1907741 male
-2.62862 0.2425187 -1.265617 -0.4495544 0.116721 0.8855944 7169893 male
-2.677018 0.7956763 -1.308999 -0.06156769 -0.1181124 0.9910898 4932154 male
-2.462633 0.6680493 -1.429473 0.5291572 0.8018919 0.2774208 11117727 male
-2.720062 0.8206713 -1.325969 -0.6088423 0.06164197 0.790893 6511192 male
-2.721125 0.7558676 -1.479563 -0.9959009 0.0530621 0.07325429 15583937 male
-2.453952 -0.02284066 -1.383096 -0.09864539 -0.3462712 0.9329339 3223601 male
-2.369178 -0.2140511 -1.47514 0.9824637 -0.1660043 0.08489963 2434085 male
-2.441653 0.4104988 -1.390909 0.9819331 -0.0912374 -0.1657811 3289393 male
-2.515566 0.5684686 -1.292601 0.2443611 0.1778591 0.9532335 9077881 male
-2.369915 -0.1800594 -1.522067 0.8682291 -0.242059 -0.433112 3816258 male
-2.632715 0.07765173 -1.302551 -0.3516628 -0.5348792 0.7682694 2959664 male
-2.631463 0.8592004 -1.346554 0.6357006 0.6000937 0.4855641 4406587 male
-2.729511 0.7151875 -1.423384 -0.8684413 -0.4941702 0.04007292 15389897 male
-2.556307 0.127507 -1.426874 0.735191 0.02453788 -0.677416 3157808 male
