# .PCD v0.7 - Point Cloud Data file format
VERSION 0.7
FIELDS x y z normal_x normal_y normal_z rgb label
SIZE 4 4 4 4 4 4 4 4
TYPE F F F F F F U U
COUNT 1 1 1 1 1 1 1 1
WIDTH 248
HEIGHT 1
VIEWPOINT 0 0 0 1 0 0 0
POINTS 248
DATA ascii
1.23609 0.2818803 -1.273234 0.4478446 0.725291 0.5228653 12828372 male
1.290643 0.2997956 -1.072838 0.4182792 0.8088755 -0.4132348 4672079 male
1.640899 0.2756562 -1.085382 0.7304863 0.3676171 0.575541 526600 male
1.268087 0.1384761 -1.094942 0.2523228 -0.8835061 0.3946521 8357015 male
1.22404 0.2458231 -1.245053 -0.1017959 0.922012 0.3735391 3420980 male
1.57916 0.3186888 -1.217117 0.3069725 0.9396563 -0.1510432 7699339 male
1.265835 0.1510291 -1.402312 0.2788967 -0.509866 -0.8137894 8288131 male
1.208818 0.1000632 -1.335212 -0.4529299 -0.816982 -0.356924 9802653 male
1.158186 0.5546892 -1.099213 0.4856442 -0.6275674 0.60853 15908536 male
1.592635 0.3446055 -1.191751 -0.1186041 0.752562 0.6477526 789260 male
1.447684 0.2737051 -0.828711 0.7259423 0.5332787 -0.4343058 526600 male
1.102144 0.5950323 -1.022344 0.08352211 -0.4525661 0.8878107 15922162 male
1.295108 0.3645171 -1.383972 0.961859 0.04765342 -0.269363 11510959 male
1.299765 0.2036403 -1.341181 0.4517734 0.8503329 -0.2698789 9212572 male
1.095158 0.1692375 -1.296283 -0.8617722 -0.4777012 -0.1707342 9144212 male
1.270229 0.2741604 -0.9898154 -0.4275375 -0.81951 0.3815954 723723 male
1.49821 0.1677239 -1.230682 0.6095206 -0.7315798 -0.3054108 7107198 male
0.980237 0.4734204 -1.241765 -0.8475615 0.4005329 -0.3481564 7236470 male
1.496985 0.2200884 -0.7210591 -0.3262579 -0.9452764 0.002895862 329738 male
1.170958 0.4247698 -1.202321 0.4892108 -0.06969477 0.8693765 16117399 male
1.200909 0.5961604 -1.212214 0.8801313 0.4220536 0.2173468 15445921 male
1.267195 0.2442821 -1.16524 0.4969758 0.7298576 -0.4693857 3751751 male
1.652105 0.2169 -0.8549972 -0.3324237 -0.5560707 0.7617609 526600 male
1.28953 0.5728225 -1.562881 -0.5787945 -0.7046457 -0.4104528 1051664 male
1.604471 0.2209681 -1.084859 -0.01829731 -0.9411526 -0.3374861 526600 male
1.139606 0.2997494 -1.413059 -0.8190594 -0.2000263 -0.5377092 10459559 male
1.057314 0.4846453 -1.342862 -0.6072058 0.3885723 -0.693046 13090767 male
1.025809 0.5109856 -1.224516 -0.6992176 0.6339068 0.3305405 7433331 male
1.614977 0.3167789 -1.105886 0.05654082 0.7002175 0.7116871 526600 male
1.063102 0.09264426 -1.237731 0.8065821 -0.03890206 -0.5898405 9469055 male
1.144288 0.1268626 -1.317359 -0.5281305 -0.6786755 -0.5103701 12501454 male
1.594072 0.2362501 -0.7416421 -0.848551 0.5082515 0.1471106 526600 male
1.27303 0.3626363 -0.9043609 -0.7299871 0.05295962 0.6814058 526600 male
0.9482065 0.363192 -1.251696 -0.9498326 0.1621183 0.2674616 14460057 male
1.084819 0.5408084 -1.136464 -0.6214889 -0.7757181 -0.1096037 14199975 male
1.303636 0.5997708 -1.307032 0.9850385 -0.1639587 0.05307132 10854829 male
1.15748 0.2086168 -1.116565 -0.8740192 0.1681296 0.4558759 4474698 male
0.9850339 0.3598471 -1.295734 0.286982 -0.05026402 -0.9566164 14461605 male
1.560945 0.2267022 -1.227441 0.2837089 -0.8921416 -0.3515574 986895 male
1.148296 0.325139 -1.423662 -0.7322791 -0.1507952 -0.6640995 12696274 male
1.181499 0.4636602 -1.425669 -0.3271256 0.2217782 -0.9185876 12039108 male
1.342529 0.6007246 -1.57397 0.539262 0.374884 -0.7540945 14002348 male
1.16036 0.6494855 -1.178009 0.6608561 0.7202909 -0.2108322 13941433 male
1.136175 0.3823268 -1.406166 -0.6099131 -0.03742145 -0.7915843 11642810 male
1.030954 0.6205158 -1.100124 -0.9411892 -0.2818229 -0.1863832 11314087 male
1.606704 0.2898708 -1.239666 -0.274136 -0.8128689 -0.5139005 526600 male
1.299539 0.6191763 -1.366231 0.7474501 0.6369931 0.1885689 15975615 male
1.262399 0.5608823 -1.328622 0.5691669 -0.6634176 -0.4857223 526600 male
1.128246 0.4603903 -1.393704 -0.5618334 0.20318 -0.8019109 11642553 male
1.293667 0.4611784 -1.360866 0.9903743 0.1299013 -0.04779479 526600 male
1.148297 0.1750891 -1.367276 -0.6043596 -0.4408275 -0.6636419 11182002 male
1.659391 0.1924711 -1.018628 0.9043882 -0.4243973 -0.04437304 526600 male
1.129724 0.1742213 -1.174186 -0.8830467 0.01886036 0.4689059 4343370 male
1.285685 0.06406717 -1.281261 0.07251503 -0.9916295 0.1068284 9277862 male
0.9367775 0.3143316 -1.291104 0.6217573 0.03444369 0.7824521 11634312 male
1.026235 0.6709823 -1.082361 -0.9708211 0.2196295 0.09627676 526600 male
1.316713 0.3406419 -0.972191 0.3157721 -0.1838582 -0.9308512 526600 male
1.572333 0.2025801 -0.7111495 0.6378594 -0.6807545 0.3601508 526600 male
1.262928 0.5510224 -1.251698 0.3794402 0.1672228 0.9099789 6906995 male
1.331302 0.1668419 -1.36519 0.6447644 0.2434867 -0.7245641 3420470 male
1.140746 0.2112178 -1.170543 -0.8345151 0.4722505 0.2838382 3750976 male
1.663148 0.1531069 -0.946583 -0.3742252 0.699528 0.6087826 526600 male
1.644488 0.3611316 -1.197999 0.1087627 0.606409 0.7876794 526344 male
1.182713 0.1724686 -1.39343 -0.5671266 -0.4149094 -0.7114897 10854322 male
1.22552 0.08083812 -1.185535 0.3791549 -0.7964912 0.4710025 12566735 male
1.655625 0.1284923 -0.9161204 -0.5359815 -0.3451017 0.770473 526600 male
1.280227 0.6352839 -1.293095 0.1183463 0.9003237 0.4188212 7169906 male
1.532833 0.2297496 -0.6849232 0.5961106 -0.8023863 0.02877915 657413 male
1.617302 0.2411429 -1.123776 0.1325988 -0.937211 -0.3225725 526600 male
1.604478 0.1952003 -1.033594 -0.6215615 0.7755082 0.1106721 526600 male
1.024323 0.402939 -1.259915 0.9136451 -0.2308976 -0.3345727 133640 male
1.000628 0.177092 -1.287973 0.8205898 0.4285806 -0.3780886 11900825 male
1.15799 0.4490516 -1.194424 0.3463767 -0.07479547 0.935109 16251594 male
1.114726 0.6351249 -1.016774 0.2768734 0.02662263 0.9605376 1051656 male
1.121054 0.5289903 -1.210778 -0.594739 -0.7260615 0.3451379 15913684 male
1.189996 0.1534524 -1.386106 -0.5389465 -0.5018159 -0.6765481 10131621 male
1.678105 0.3076491 -1.21334 0.7726802 -0.5639858 -0.2913509 526600 male
1.08872 0.2187008 -1.247836 -0.9168059 0.1218824 0.3802786 8354184 male
1.085147 0.12049 -1.278245 0.6565037 0.02059648 -0.7540416 7826287 male
1.061917 0.6114109 -1.025709 -0.5390728 -0.2355963 0.8086377 789516 male
1.341253 0.2848428 -0.8596398 -0.608699 -0.3758875 0.6987089 526600 male
1.100125 0.2142451 -1.349063 -0.7374875 -0.4766465 -0.4784562 6513259 male
0.9365132 0.3309339 -1.310819 -0.5925216 0.192313 -0.7822621 16500415 male
0.9714156 0.4114016 -1.219961 -0.7592445 -0.0430585 0.6493794 13677233 male
1.337313 0.3634197 -0.8785594 0.2845604 0.7374473 0.6125331 526600 male
1.443557 0.2426374 -1.276499 0.2268364 0.7467083 -0.6252775 4606805 male
1.248893 0.2700444 -0.9910004 -0.7724429 -0.2704103 0.5746393 4605518 male
1.287888 0.3835016 -0.9545861 -0.1486474 0.8454463 0.5129567 526344 male
1.109501 0.5887122 -1.027247 0.1856839 -0.5304223 0.8271479 10918039 male
1.101741 0.1589527 -1.253893 -0.8569241 -0.4116742 0.3101701 7040892 male
1.210171 0.6004831 -1.2485 0.4998572 0.539346 0.6776788 10328485 male
0.9841976 0.3570167 -1.221068 -0.08673358 -0.1778786 0.9802227 16040639 male
1.598408 0.3071897 -1.099437 -0.3504979 0.7257772 0.5919447 526600 male
1.511322 0.4640297 -1.565764 0.6923395 0.4399026 -0.5719717 9399915 male
1.02472 0.415563 -1.295337 -0.8129824 -0.4418895 -0.3792009 10198436 male
1.632581 0.2948304 -1.0949 0.4546898 0.5848779 0.6716957 526600 male
1.198194 0.148349 -1.096131 -0.5021385 -0.5160584 0.6939313 8884123 male
1.642264 0.366926 -1.180831 0.1562165 0.7368309 0.6577815 526600 male
1.027574 0.6263097 -1.083069 -0.9687472 -0.2284752 0.09658155 11972276 male
1.245618 0.2635932 -1.000206 -0.7660582 -0.152497 0.6244193 4014152 male
1.38157 0.1663963 -1.175161 -0.2943657 0.01329297 0.9556004 4803413 male
1.248037 0.1908882 -1.425343 0.0647026 -0.1787298 -0.9817684 6249063 male
1.670261 0.2921606 -1.196882 0.7024671 -0.660809 -0.2643317 526600 male
1.663186 0.1987138 -0.9914722 0.3491637 0.8712068 0.3450847 526600 male
0.9781906 0.4501301 -1.257153 -0.7909708 0.3216349 -0.5204961 9012113 male
1.325343 0.3726366 -0.8849126 0.2081994 0.7350948 0.6452044 526600 male
1.373735 0.5681449 -1.530828 0.6657734 0.5484204 0.5059454 15383225 male
1.264644 0.4017437 -1.267147 0.5986698 -0.2391584 0.7644591 11772576 male
1.634578 0.3161384 -1.114729 0.4133277 0.5999789 0.6849713 526600 male
1.193375 0.5595127 -1.385875 -0.1902346 0.6388389 -0.7454499 11709885 male
1.118025 0.7163903 -1.054447 0.3091264 0.7859907 0.535406 6578276 male
0.9770575 0.4472528 -1.207199 -0.9215803 0.04391173 0.385696 7499130 male
1.156219 0.6940535 -1.090385 0.8143052 0.573121 0.09186596 8156280 male
1.140429 0.5423155 -1.094902 0.7700446 -0.08441658 0.6323805 12487557 male
1.293772 0.2738924 -1.000757 0.3538167 -0.9349375 -0.02656101 2632492 male
1.280259 0.3307659 -0.963559 -0.5312864 -0.6209388 -0.5763417 526600 male
1.186859 0.2928172 -1.250606 0.1299136 -0.1380882 0.9818625 9143700 male
1.100403 0.4832489 -1.36665 -0.3389442 0.4843294 -0.8065618 12432837 male
1.23667 0.192115 -1.039472 -0.5031694 -0.5084075 0.698815 5988460 male
1.342799 0.1382624 -1.352318 0.6119817 -0.09534043 -0.7851042 6710374 male
1.048859 0.7108642 -1.100643 -0.6718767 0.7317266 -0.1147085 526344 male
1.17113 0.5467717 -1.127366 0.7977318 -0.5471157 0.2535517 14070439 male
1.412953 0.2339575 -1.193588 -0.4410904 0.6777748 0.5882692 3357243 male
-2.550158 0.3319943 -1.431748 0.7366651 -0.656175 -0.1635816 6117204 male
-2.598153 0.04787257 -1.360998 0.2316726 -0.06400149 -0.9706863 4079942 male
-2.734077 -0.2777996 -1.313823 0.9959841 -0.08792607 0.01688516 1644825 male
-2.590704 0.08638342 -1.231377 0.5817872 -0.1963833 0.7892766 2434085 male
-2.579985 0.3034244 -1.395177 0.7429649 -0.5854483 -0.3244283 6248275 male
-2.821022 -0.1566678 -1.323322 -0.9772285 0.06485301 -0.2020371 1777185 male
-2.819646 0.3124081 -1.307042 -0.9094499 0.320542 0.2648659 6116943 male
-2.633141 0.350554 -1.524111 0.2676233 -0.5650784 -0.7804257 16243637 male
-2.536663 0.5874466 -1.764207 -0.4641688 -0.2080574 -0.8609644 15455174 male
-2.721401 0.06428657 -1.356002 0.9011697 -0.02453496 -0.4327719 2434604 male
-2.565286 -0.3279502 -1.344759 -0.08976036 0.1367715 -0.9865278 2369066 male
-2.533412 0.6387039 -1.784459 -0.5273939 -0.01097591 -0.8495502 6575441 male
-2.770088 0.4027645 -1.43245 -0.99488 0.1004788 -0.01087111 4933187 male
-2.655804 0.2702688 -1.42279 0.1696253 -0.7263796 -0.6660331 8025202 male
-2.647035 0.3424462 -1.249913 -0.01227684 0.7332743 0.6798222 9472128 male
-2.639524 -0.07233838 -1.269292 -0.6062948 -0.2030569 0.7688789 2500654 male
-2.822381 0.02490933 -1.294353 -0.8859345 -0.2996407 0.3540278 1907745 male
-2.435364 0.4678155 -1.583132 -0.4939177 -0.2057528 -0.8448144 7563882 male
-2.553939 -0.4327187 -1.377862 -0.860606 -0.2035286 -0.4668338 2369067 male
-2.466779 0.461133 -1.542507 0.5115245 -0.6728266 -0.5344598 5789008 male
-2.558626 0.5033407 -1.640694 0.04751517 -0.9219292 -0.3844331 16774895 male
-2.664722 0.1272441 -1.346975 -0.4627205 -0.04986567 -0.8851007 2170403 male
-2.646521 -0.4671659 -1.45478 -0.1515598 -0.9857133 -0.07347722 2499110 male
-2.568929 0.2567707 -1.773587 0.4164393 -0.8814287 0.2228493 7037026 male
-2.747014 -0.2437095 -1.34523 0.7293891 -0.02451885 -0.6836598 2500910 male
-2.68126 0.5834697 -1.554936 -0.3456017 0.9304232 0.1219515 10986141 male
-2.590793 0.5647598 -1.45377 -0.4072062 0.7984334 0.4434945 10984598 male
-2.498589 0.4193701 -1.443248 0.9308888 -0.3475559 0.1124779 4343106 male
-2.777571 0.04465245 -1.394183 -0.02954966 -0.1627221 -0.9862295 3949129 male
-2.369349 0.4324805 -1.540088 0.6321794 -0.07336938 0.7713407 10326931 male
-2.683461 0.2707489 -1.204541 -0.2116496 0.3021559 0.9294657 11378583 male
-2.57108 0.5024234 -1.632538 0.02993499 -0.8685802 -0.4946437 7104356 male
-2.546167 -0.2106753 -1.308768 0.9928782 0.03217277 -0.1147095 2631465 male
-2.405972 0.4565098 -1.602049 -0.2099792 0.3083103 -0.927822 7236197 male
-2.466715 0.5111163 -1.715298 0.7009051 -0.6656805 0.2561283 11510936 male
-2.726645 0.4773841 -1.671257 -0.9552869 -0.2193589 -0.1982642 8157299 male
-2.608124 0.1828624 -1.348711 0.3410953 0.2635897 -0.9023163 3553340 male
-2.441971 0.4687708 -1.523858 -0.4938969 -0.8513043 0.1770505 658954 male
-2.761486 -0.0253681 -1.38368 -0.04467475 -0.03815119 -0.998273 3618879 male
-2.691678 0.5765097 -1.548007 -0.3842559 0.9144022 0.1273421 10591380 male
-2.631108 0.5658394 -1.487293 -0.1057453 0.8832295 0.4568628 10262163 male
-2.538092 0.2839546 -1.853368 -0.3084664 -0.5303234 -0.7896872 16771556 male
-2.550911 0.6730284 -1.766763 -0.6679162 0.2962759 -0.6827216 3222825 male
-2.718373 0.3143698 -1.238346 -0.1642873 0.5865083 0.7931064 9273980 male
-2.442282 0.6744031 -1.685875 0.9183727 0.2695365 0.2897272 3881270 male
-2.795565 -0.1127698 -1.361901 -0.7000737 -0.1022782 -0.7067082 2698288 male
-2.62317 0.4649948 -1.695915 0.8044267 0.5415278 -0.2442243 8025714 male
-2.854779 0.1241214 -1.298865 -0.9669441 -0.18067 0.1799381 2170657 male
-2.784747 0.3009687 -1.246533 -0.4725973 0.5127754 0.7167381 8353909 male
-2.693748 0.4315172 -1.601833 -0.503518 -0.6735178 -0.5411503 5459531 male
-2.643284 0.241252 -1.196009 0.2583294 0.1587463 0.9529249 4671813 male
-2.767017 0.02483207 -1.389513 0.08536652 -0.1892702 -0.9782073 4212040 male
-2.565707 0.2167828 -1.259024 0.9395309 0.09650637 0.3285854 2303014 male
-2.832655 0.2919607 -1.346493 -0.9733174 0.1942322 -0.1221776 3223593 male
-2.356059 0.341176 -1.586426 -0.7451903 -0.6540145 0.1302181 14072757 male
-2.448644 0.6956776 -1.704958 0.8246186 0.5656613 0.005640805 3354670 male
-2.644365 -0.1014922 -1.285758 -0.8127383 -0.1797619 0.5542043 2499627 male
-2.551409 0.5963642 -1.525629 0.01856681 0.9949727 0.09841018 11644064 male
-2.683627 0.5752941 -1.619504 -0.273833 0.7737393 -0.5712644 6840666 male
-2.85055 0.1869107 -1.282524 -0.9807606 -0.01220083 0.1948339 2960433 male
-2.567495 0.2042936 -1.251528 0.9154606 0.08356321 0.3936361 2699056 male
-2.768533 -0.3979621 -1.351499 0.9516343 0.2893165 0.1033843 1710362 male
-2.812778 -0.1936282 -1.343155 -0.8418354 -0.07049146 -0.5351114 1974048 male
-2.818089 0.3258227 -1.324211 -0.8942923 0.4207509 0.1523486 6774878 male
-2.676207 -0.009833559 -1.297898 -0.9864105 -0.1555488 -0.05290908 2170657 male
-2.828792 -0.4588634 -1.334865 -0.5867944 -0.7901174 0.1771634 3026222 male
-2.694636 0.5166444 -1.701169 -0.2014768 0.7015079 -0.683589 8090995 male
-2.562258 -0.4440448 -1.349548 -0.7281207 -0.5890222 -0.3505612 526600 male
-2.75795 -0.2427926 -1.357222 0.5269248 -0.05072847 -0.8483968 2566703 male
-2.81432 -0.407454 -1.324936 -0.8872787 -0.259666 0.3811961 2697514 male
-2.380275 0.3777654 -1.587934 -0.7376325 -0.6744949 0.03090763 16047323 male
-2.267146 0.3427824 -1.736215 0.01064888 0.9614183 0.2748847 16044994 male
-2.469094 0.4872541 -1.575347 -0.05496404 -0.2239284 -0.9730546 7169893 male
-2.505875 0.6851762 -1.78223 -0.0980804 0.5503385 -0.829161 15590106 male
-2.647161 0.4140515 -1.595843 0.1574095 -0.5754874 -0.8025189 8946038 male
-2.79024 0.3581057 -1.36625 -0.9228374 0.3753875 -0.08634558 3946036 male
-2.802637 -0.2288802 -1.351522 -0.7145996 -0.1829305 -0.6751921 1973793 male
-2.609084 0.2298956 -1.34272 0.5003064 0.06433537 -0.8634552 1775894 male
-2.346666 0.4381012 -1.591597 0.7442135 0.6491272 -0.1574183 16770524 male
-2.555492 0.5882042 -1.583462 0.01945534 0.9582153 0.2853856 5326916 male
-2.547744 -0.2762392 -1.306761 0.998069 -0.06203572 0.00315398 2236706 male
-2.56921 0.4467629 -1.360079 0.3171643 0.3640333 0.8757206 5460555 male
-2.248846 0.309956 -1.636902 0.9566196 0.2445949 0.15828 16773095 male
-2.409012 0.5171402 -1.506685 0.6557334 0.4670874 0.5931638 11511456 male
-2.547553 -0.2670366 -1.316594 0.9738382 -0.04682924 -0.2223656 2499884 male
-2.716095 0.04703659 -1.30069 0.9780059 -0.1077036 0.1786186 2632239 male
-2.586941 -0.1359948 -1.255729 0.3413155 0.2890068 0.8944156 2697257 male
-2.603461 -0.06247099 -1.362632 0.09558091 -0.07230467 -0.9927924 4342083 male
-2.473319 0.6756112 -1.782382 0.4223075 0.4637313 -0.7788517 7168860 male
-2.628597 0.2313722 -1.199182 0.4409877 0.107606 0.8910394 2829875 male
-2.687387 -0.4650788 -1.442113 -0.9788576 0.03774949 -0.2010305 854538 male
-2.375709 0.4861439 -1.551573 0.8397349 0.5255258 0.1366313 10787219 male
-2.729233 -0.1058586 -1.303531 0.924818 -0.165195 0.3426698 2171428 male
-2.430508 0.351789 -1.891667 -0.814916 0.500015 -0.2930824 15914183 male
-2.786158 0.336801 -1.393753 -0.8277552 0.1726372 -0.5338709 2828840 male
-2.730649 -0.2379829 -1.320011 0.9655019 -0.09704801 -0.2416362 2368550 male
-2.564536 0.0360658 -1.280286 0.8877774 -0.2182402 0.4052439 2433829 male
-2.819173 -0.1731714 -1.293106 -0.9356897 -2.867862E-05 0.3528245 2696745 male
-2.434089 0.640396 -1.722912 0.9995353 0.01457976 -0.0267725 4867394 male
-2.578211 -0.1288593 -1.263145 0.5787863 0.3091923 0.7545906 2237220 male
-2.715779 0.05038282 -1.299908 0.9769046 -0.1175511 0.1784359 2499878 male
-2.45745 0.5588983 -1.497974 0.5405905 0.809479 0.2291415 10196363 male
-2.809802 -0.2377909 -1.297573 -0.8917969 -0.2569984 0.3723581 2434089 male
-2.79725 -0.3880243 -1.363835 -0.789636 0.1174223 -0.6022353 2697257 male
-2.401956 0.5210198 -1.523606 0.7394435 0.5706304 0.3572176 10262416 male
-2.633693 -0.1575319 -1.317605 -0.7703034 -0.0995473 -0.6298597 1580065 male
-2.530537 0.3205466 -1.854325 -0.5764958 0.5664576 -0.588879 15059643 male
-2.563493 0.4311977 -1.572882 0.1789425 -0.5532519 -0.8135676 11578277 male
-2.739783 -0.2964415 -1.323254 0.9748718 -0.06659009 -0.2125819 2105120 male
-2.785606 0.3780755 -1.374379 -0.9807757 0.1770038 0.08215266 5261128 male
-2.575642 0.6957135 -1.702667 -0.8874307 0.4564527 -0.06417188 5327945 male
-2.420594 0.4897636 -1.591431 -0.05647275 -0.0728481 -0.995743 8683129 male
-2.564984 0.6942632 -1.734061 -0.7523064 0.4894294 -0.441015 5196100 male
-2.559385 0.6140988 -1.750117 -0.8603213 -0.1788227 -0.4773573 7168860 male
-2.654908 -0.09407913 -1.296552 -0.8756379 -0.3101492 0.3702244 2697265 male
-2.560693 -0.1344067 -1.285892 0.9224678 0.2718867 0.2741003 2434085 male
-2.541326 0.3537027 -1.382305 0.8813442 -0.3317799 0.3363849 3486765 male
-2.658748 0.4611543 -1.379792 -0.2434724 0.6555049 0.7148669 9143683 male
-2.563407 0.09891497 -1.256501 0.859162 -0.1157624 0.4984375 2237222 male
-2.843883 0.2240407 -1.29013 -0.9760978 0.156855 0.1504323 2499884 male
-2.526385 0.6802699 -1.626552 -0.2187165 0.4094062 0.8857482 6313295 male
-2.55796 0.5549037 -1.710582 -0.8861592 -0.4463615 -0.1244326 13614004 male
-2.718988 0.14418 -1.35245 0.8347518 0.008487383 -0.5505612 3092015 male
-2.704425 0.1703758 -1.326547 0.8161725 0.5777987 0.003367662 1118483 male
-2.783657 -0.443729 -1.331558 0.9847566 -0.1340566 0.1108314 526344 male
