# .PCD v0.7 - Point Cloud Data file format
VERSION 0.7
FIELDS x y z normal_x normal_y normal_z rgb label
SIZE 4 4 4 4 4 4 4 4
TYPE F F F F F F U U
COUNT 1 1 1 1 1 1 1 1
WIDTH 248
HEIGHT 1
VIEWPOINT 0 0 0 1 0 0 0
POINTS 248
DATA ascii
1.38407 1.095776 -0.6548663 -0.2730468 -0.3841526 0.8819706 7367289 male
1.389363 0.756453 -0.7715731 0.9308254 -0.1537336 -0.3315573 2236706 male
1.47893 0.7772562 -0.8000947 -0.342988 -0.1793232 0.9220642 4145993 male
1.278153 0.8461377 -0.7305163 -0.9495877 -0.09608155 0.298415 4672083 male
1.392653 1.148487 -0.6168188 -0.3801176 -0.4721847 0.7953315 6380385 male
1.494486 0.6577075 -0.8736404 -0.8613631 0.4153723 -0.2924374 526600 male
1.505965 1.280869 -0.5530521 0.4876667 -0.2013264 0.8494991 14930568 male
1.464121 1.215017 -0.5526093 0.2268061 -0.5688912 0.79052 9341079 male
1.631301 1.476224 -0.4852184 0.9805154 0.04345829 -0.1915751 12100006 male
1.432529 0.8636796 -0.797154 -0.4045891 -0.2420078 0.8818957 3749948 male
1.264215 0.4546728 -0.7390377 -0.8959249 -0.1456635 0.4196436 526600 male
1.628848 1.490696 -0.4304967 0.9263999 0.06742845 0.3704546 16040647 male
1.467581 1.161336 -0.8515859 0.008115649 0.3282258 -0.9445645 6512236 male
1.457387 1.098135 -0.6461118 0.1447237 -0.5624833 0.8140439 13486045 male
1.334434 1.09108 -0.8199998 -0.5119104 0.6610079 -0.5486495 11117233 male
1.323786 0.7040434 -0.7994247 -0.2270959 -0.1507466 -0.9621345 8290438 male
1.453447 0.7923051 -0.9133565 -0.4203745 -0.1962031 -0.8858836 8027539 male
1.398015 1.25553 -0.5487133 0.9114857 0.04556581 -0.4088002 13679808 male
1.3456 0.3043211 -0.6808822 0.03120832 0.9422697 0.3333973 526600 male
1.348974 1.329495 -0.580269 -0.9545085 0.238146 -0.1794436 9736348 male
1.565988 1.345904 -0.5471417 0.6113357 -0.7272763 0.31199 16772071 male
1.395928 0.8878984 -0.6958607 0.7224492 -0.01580292 0.6912433 8687008 male
1.645641 0.302405 -0.8457329 -0.1018556 -0.9671608 -0.2328635 526600 male
1.586146 1.139059 -0.7943177 -0.4226642 0.1223885 -0.8979844 15913172 male
1.53154 0.4622019 -0.8931378 -0.0404788 -0.2765539 0.9601456 526600 male
1.498795 1.374543 -0.7245061 -0.4724383 0.7525235 -0.4588139 15329779 male
1.423854 1.346113 -0.6953289 -0.2899196 0.6545499 -0.69822 14474218 male
1.350964 1.223428 -0.6331021 -0.9373432 -0.1712186 0.3034333 7827840 male
1.539605 0.8338451 -0.8125111 0.7584264 -0.02198139 0.6513879 6055026 male
1.359087 1.273371 -0.4995612 -0.1112248 -0.2509235 0.9615957 15711166 male
1.287673 0.9712872 -0.841188 -0.791622 -0.05428282 -0.6085952 2631466 male
1.579014 1.289775 -0.6035771 0.6338827 -0.2070076 0.7452117 16248831 male
1.275061 0.5130475 -0.7173545 -0.5920673 -0.1010463 0.7995286 526600 male
1.32656 1.328844 -0.5191844 -0.9799685 -0.05573816 0.1911933 8157834 male
1.559185 1.3614 -0.5094922 -0.2948546 -0.9065766 -0.3019596 9930111 male
1.629547 1.364047 -0.7424606 -0.0745419 0.07017758 -0.9947454 5790048 male
1.278291 0.8827011 -0.7225223 -0.8967725 -0.02623594 0.4417134 3355964 male
1.283339 0.6817077 -0.7383068 -0.9492052 0.1218998 0.2900863 526600 male
1.581833 0.6575129 -0.8547398 0.9379019 0.02049061 -0.3462949 526600 male
1.492789 1.366366 -0.7291374 -0.5275812 0.6961125 -0.4869142 14867435 male
1.515116 1.142485 -0.8349091 0.678297 0.168465 -0.7152152 6052194 male
1.583662 1.22909 -0.7410215 -0.9323398 0.2735149 -0.2364992 723722 male
1.586234 1.511547 -0.5524758 0.5070612 0.2811055 -0.8147813 14339028 male
1.399262 1.013771 -0.9231719 -0.2561426 0.2030277 -0.9450771 5198431 male
1.500841 1.487524 -0.4315249 -0.8566908 -0.1434384 0.4954859 11314087 male
1.555505 0.6273375 -0.8191273 0.2143964 -0.5638509 0.7975628 526600 male
1.629197 1.265956 -0.6752337 0.1352016 -0.2891918 0.9476755 16772079 male
1.536465 0.8584893 -0.8929511 0.8041523 0.08822148 -0.5878403 6185839 male
1.360309 0.9922716 -0.9031904 -0.72104 0.02108018 -0.6925727 9804202 male
1.594916 1.239868 -0.7305996 0.9466257 -0.2154227 -0.2397766 1184275 male
1.295044 1.009565 -0.8406857 -0.756995 0.1740014 -0.629827 10660794 male
1.498619 0.7145995 -0.801594 -0.3295396 -0.3533401 0.8755309 855565 male
1.300296 0.9940171 -0.704128 -0.7643121 0.1076546 0.6357967 7435905 male
1.525306 1.039007 -0.817969 0.9490283 -0.01877218 0.3146314 11774899 male
1.301532 1.107958 -0.5869514 0.07678676 0.6182049 -0.7822573 14336712 male
1.506384 1.520991 -0.4256067 -0.7305068 0.2329665 0.6419395 723723 male
1.284433 0.7628339 -0.7529413 -0.9876235 -0.1087481 0.11302 6052708 male
1.562729 1.328919 -0.5760989 0.6805931 -0.4017712 0.6126769 14605295 male
1.585804 1.357646 -0.5756232 0.8809989 -0.4414564 0.170168 16313585 male
1.364158 0.9318949 -0.8934651 -0.7819239 -0.6092548 -0.1319226 592137 male
1.34697 0.9902893 -0.6856448 0.1318546 0.1227473 0.98364 11317693 male
1.53644 0.3524365 -0.9345692 -0.6805389 -0.4378227 0.5875185 526600 male
1.553203 0.5552021 -0.9247978 0.55537 0.05257145 -0.82994 526600 male
1.495815 1.279179 -0.5482607 0.4883616 -0.1577042 0.8582729 14928752 male
1.367821 0.7430257 -0.7998053 0.6041455 -0.1380032 -0.7848333 3487804 male
1.615594 0.3366621 -0.9598011 0.05036795 -0.721809 -0.6902571 526600 male
1.64068 1.325124 -0.6578431 0.05220707 -0.9336203 0.35444 7169650 male
1.406368 0.277733 -0.6765367 0.1295358 -0.9881151 0.08275928 526600 male
1.55168 0.4236201 -0.909183 0.5549275 0.06499613 0.8293557 526600 male
1.497809 0.3821576 -0.9925641 -0.8527845 0.2080966 -0.4790141 526600 male
1.296043 1.07439 -0.5935908 -0.3799562 -0.3706878 -0.8474809 16247277 male
1.423022 0.9930213 -0.6012694 -0.01634595 -0.7753597 0.6313083 14263980 male
1.409158 1.277904 -0.538424 -0.3765472 -0.8781238 0.2951454 986895 male
1.599081 1.515821 -0.4014325 0.5056944 0.3757522 0.7765845 526600 male
1.570146 1.284677 -0.5968516 0.5908425 -0.256141 0.765047 14209252 male
1.506317 1.25407 -0.559997 0.5826535 -0.2399684 0.7764857 14405733 male
1.492005 0.6473573 -0.8499613 -0.9438248 0.175901 0.2797386 526600 male
1.345692 1.000481 -0.6845623 0.09793001 0.07057293 0.9926877 10595247 male
1.395576 1.23417 -0.5326635 0.9627231 -0.06133045 0.263444 14987700 male
1.521832 1.434627 -0.5829051 -0.4488747 0.6544054 -0.608494 16771544 male
1.32776 0.5208226 -0.7254305 0.8685631 -0.1221918 0.4802783 526600 male
1.358396 1.145454 -0.7853352 -0.6811273 0.3867626 -0.6216754 12696273 male
1.346662 1.1006 -0.5784423 0.4439023 0.8509379 -0.2808121 15845323 male
1.39881 1.311417 -0.5335374 0.1248913 -0.9688112 -0.2140259 526344 male
1.300293 0.4480872 -0.7163912 0.1130415 -0.1286884 0.9852211 526600 male
1.525017 0.8852 -0.8014926 0.6223977 0.06998895 0.7795656 10068919 male
1.261874 0.5910477 -0.7344602 -0.8529449 0.1920924 0.4853717 526600 male
1.348903 0.7259378 -0.6981893 0.07757807 -0.2116412 0.9742636 8423316 male
1.633697 1.48254 -0.4457024 0.9806464 0.003663903 0.1957528 13348791 male
1.31006 1.104316 -0.7637832 -0.7291398 0.6778676 -0.09407759 9341595 male
1.563149 1.418785 -0.6469538 0.05534649 0.9943995 -0.09003557 10130338 male
1.376278 1.327398 -0.4743467 -0.04365501 -0.2191472 0.9747147 6907761 male
1.463173 0.8161698 -0.7983577 -0.2965823 -0.2523671 0.921059 4408655 male
1.609581 0.9111475 -0.8166791 0.5496884 0.143415 -0.8229671 11896714 male
1.514441 1.138256 -0.6488523 0.5772851 -0.4496191 0.6816044 9885319 male
1.503267 0.6075669 -0.8333598 -0.4775049 -0.166223 0.8627624 526600 male
1.312749 0.588159 -0.7057229 0.1863908 0.02163522 0.9822375 526600 male
1.520326 0.6051203 -0.9233289 -0.1528412 0.2808125 -0.9475145 526600 male
1.528472 1.483497 -0.402346 -0.5749993 -0.0757352 0.814641 8748925 male
1.27072 0.5965846 -0.7917301 -0.6374676 0.227174 -0.7362249 526600 male
1.448854 0.7359912 -0.8589907 -0.9638839 -0.1997589 -0.176137 5132630 male
1.390502 1.342646 -0.484979 -0.04087651 0.5890707 0.8070471 7038323 male
1.488033 0.5822612 -0.9057733 -0.8503621 0.09611178 -0.517346 526600 male
1.520381 0.4193186 -0.965039 -0.2176721 0.2064972 -0.9539276 526600 male
1.409155 1.302846 -0.5222624 0.2711343 -0.9508609 0.1494987 1184277 male
1.319705 0.4635352 -0.7744391 0.7654369 -0.223255 -0.6035425 526600 male
1.578671 1.20537 -0.7645832 -0.811407 0.2367172 -0.5344003 12825006 male
1.554936 1.1574 -0.6752338 0.7667302 -0.44457 0.4631223 12039369 male
1.513039 0.578514 -0.8352963 -0.1707965 -0.2768728 0.9456056 526600 male
1.4568 1.110794 -0.8769625 0.09273574 0.7422912 -0.6636293 6446442 male
1.593302 1.560688 -0.5163456 0.5304089 0.6647325 -0.5261151 5591125 male
1.390832 1.223957 -0.5304853 0.9304945 -0.08518755 0.3562624 15380401 male
1.609523 1.55971 -0.4839508 0.7372316 0.6689096 -0.09512827 4276805 male
1.632579 1.456861 -0.4626144 0.9860702 -0.163911 0.02826342 14661042 male
1.318247 0.7488737 -0.80716 -0.3143223 -0.1571525 -0.9362183 7107453 male
1.282075 0.5651809 -0.7101462 -0.4741531 0.05362136 0.878808 526600 male
1.358616 1.18736 -0.6316034 -0.8426935 -0.2020584 0.4990391 6052448 male
1.391581 1.169985 -0.7937828 -0.5728714 0.4246502 -0.7010639 9604250 male
1.304458 0.760239 -0.7047583 -0.7291092 -0.2013864 0.6540974 3948100 male
1.369915 0.9484556 -0.9141496 -0.6577231 -0.4668255 -0.5911634 9344157 male
1.507852 1.564165 -0.4837053 -0.6890875 0.7209786 -0.07313219 526344 male
1.619026 1.405599 -0.5125119 0.8922784 -0.3224062 -0.3160591 14201515 male
1.5246 0.9448391 -0.8204955 0.8250403 0.3044206 0.4760638 10988215 male
1.448577 0.9291669 -0.7524458 0.649528 -0.7489026 0.1313708 4738395 male
-2.479545 0.3664684 -1.395968 0.850209 -0.2635284 -0.4557386 5393995 male
-2.57448 -0.01352813 -1.37209 -0.8757389 -0.10603 -0.4709982 2106151 male
-2.664098 -0.03752616 -1.420294 0.8328074 -0.3027531 -0.4634358 2763566 male
-2.494663 0.1169241 -1.282696 0.5323417 -0.2111026 0.8197855 2303531 male
-2.452365 0.4300536 -1.406462 0.8597919 -0.378746 -0.3425047 4603195 male
-2.773306 -0.1952385 -1.381929 -0.9796125 -0.0729304 -0.187192 1973536 male
-2.491389 0.5505694 -1.504305 0.1541694 -0.1057178 -0.9823726 16772013 male
-2.454034 0.6330929 -1.479522 0.4772427 0.3252122 -0.8163802 4603447 male
-2.523452 0.7226606 -1.625544 -0.3359014 -0.5027753 -0.7964846 16376280 male
-2.641155 0.1320707 -1.423268 0.6488103 -0.06288712 -0.7583473 2697260 male
-2.483825 -0.3567155 -1.351944 0.9653522 -0.07969972 -0.2484822 2565928 male
-2.500632 0.794829 -1.667724 -0.3318332 0.09377322 -0.9386658 6709083 male
-2.680092 0.420102 -1.319622 -0.7229952 0.2337378 0.6501114 7498853 male
-2.534092 0.3682002 -1.453735 0.4102639 -0.2733702 -0.8700302 8419702 male
-2.524699 0.4031294 -1.288332 0.2379438 0.07457557 0.9684119 5920082 male
-2.550147 -0.02914601 -1.299162 -0.4711167 -0.1647694 0.8665451 3158840 male
-2.741698 0.1306554 -1.3179 -0.775979 -0.1677743 0.6080366 2302499 male
-2.346308 0.562691 -1.339077 -0.2944587 -0.7963358 -0.5283405 16640995 male
-2.508928 -0.4640339 -1.455072 0.05188181 -0.9934137 -0.1021631 526600 male
-2.433147 0.5135903 -1.448214 0.8408912 -0.5385251 -0.05378693 4669500 male
-2.499122 0.6671057 -1.537349 0.4466775 -0.8854331 0.1284039 12496806 male
-2.54465 0.1437264 -1.42178 -0.2381672 -0.05750366 -0.9695206 2829107 male
-2.719149 -0.4263237 -1.487765 0.777547 -0.6261223 -0.05823869 1841692 male
-2.780893 0.3445932 -1.41002 0.9461977 -0.08107717 -0.3132678 16308951 male
-2.714198 -0.3014331 -1.385053 0.9026217 -0.09510683 -0.4197963 2434085 male
-2.592969 0.6060591 -1.339559 0.005259484 0.4372587 0.8993205 6643805 male
-2.549635 0.5890549 -1.325718 -0.3020337 0.3780123 0.8751473 7037535 male
-2.440513 0.4586687 -1.401497 0.9400338 -0.2604751 -0.2202032 3617327 male
-2.679638 0.08277643 -1.445585 0.238889 -0.06205513 -0.9690622 4344399 male
-2.33194 0.6241549 -1.367195 0.8828527 0.2802668 -0.376858 8487033 male
-2.531672 0.188705 -1.244235 0.2996127 -0.245106 0.9220389 1908771 male
-2.556069 0.6123648 -1.520322 0.1478231 -0.04902746 -0.9877981 7893616 male
-2.468343 -0.2419167 -1.313251 0.9559059 -0.166198 0.2421205 1973534 male
-2.361551 0.6717147 -1.374272 0.6322005 0.716583 0.294672 9866888 male
-2.484181 0.6529223 -1.566657 0.6441271 -0.7645689 0.02312776 12628650 male
-2.727609 0.6651475 -1.493281 -0.9411388 0.1926172 -0.2777709 6316376 male
-2.463085 0.1267075 -1.314091 0.9004632 -0.09624764 0.4241494 2170913 male
-2.493604 -0.09646078 -1.300875 0.5525262 0.213153 0.8057797 2039585 male
-2.674515 -0.05727179 -1.42046 0.7750993 -0.3387184 -0.5333772 2631722 male
-2.602015 0.5975022 -1.336127 -0.05319452 0.3889549 0.9197199 7762542 male
-2.696964 0.3691034 -1.324892 -0.7668568 0.4796637 0.426443 6971739 male
-2.751401 0.4186238 -1.388892 0.8370782 -0.3191902 -0.4443174 16772324 male
-2.52293 0.8159254 -1.652565 -0.5676728 0.2632599 -0.7800269 3222825 male
-2.72277 0.2448404 -1.288781 -0.8026705 0.1745469 0.5703101 7498084 male
-2.413787 0.7919903 -1.584371 0.9908378 -0.08201841 0.1073029 5919050 male
-2.705429 -0.1436232 -1.40994 0.5629537 -0.1888676 -0.8046194 2434858 male
-2.686061 0.6076249 -1.493158 0.1242883 -0.4404035 -0.8891555 8025714 male
-2.715044 0.1026137 -1.445825 -0.340167 0.0002143239 -0.9403651 2763823 male
-2.712754 0.2709284 -1.280167 -0.7956067 0.1388194 0.5896944 6642780 male
-2.657229 0.557864 -1.506384 -0.6684973 -0.5235284 -0.5282325 5459531 male
-2.593405 0.2868504 -1.244634 -0.1294422 0.2786256 0.9516368 9536896 male
-2.677492 -0.1176147 -1.377418 0.9788781 -0.175409 -0.105022 1973534 male
-2.463876 0.2281251 -1.377375 0.820721 0.167888 -0.5461053 2302758 male
-2.706556 0.2941132 -1.412183 -0.432365 0.1489472 -0.8893118 4406330 male
-2.296758 0.5447403 -1.218774 -0.8987625 0.06147179 -0.4341054 16772068 male
-2.423143 0.8453954 -1.583281 0.886045 0.462575 0.03080285 4340793 male
-2.506011 0.01042602 -1.29475 0.5026523 -0.159078 0.8497265 2434086 male
-2.470249 0.6889299 -1.461064 0.7629077 0.4133717 -0.4970873 4933187 male
-2.645225 0.6929156 -1.435732 -0.3797681 0.8916804 0.2463379 7565161 male
-2.645976 0.1912721 -1.256929 0.314184 -0.7162324 0.6231371 2960429 male
-2.466966 0.1894346 -1.307117 0.914623 0.02658568 0.4034331 2631465 male
-2.732568 -0.3902095 -1.434046 0.8557316 0.4868691 -0.1751633 2961461 male
-2.769905 -0.2258667 -1.365113 -0.9807133 -0.1318794 0.1442555 1974305 male
-2.484225 0.5458671 -1.502274 0.1888754 -0.1190969 -0.9747524 9932162 male
-2.583096 0.1348151 -1.276628 -0.5384649 -0.3088411 0.7840109 2105893 male
-2.76605 -0.4310543 -1.379743 0.04185266 -0.999082 -0.009139903 526600 male
-2.659123 0.6277802 -1.489805 0.7388192 -0.6494048 -0.1800554 4868418 male
-2.499985 -0.4522078 -1.394746 -0.4858276 -0.8573843 -0.1698935 1973790 male
-2.734354 -0.3499389 -1.412774 0.6424741 0.3991051 -0.654173 1973794 male
-2.755594 -0.3677632 -1.344491 -0.7470835 0.1780951 0.6404285 3355187 male
-2.299804 0.5616432 -1.210291 -0.916613 0.03155624 -0.3985285 16772838 male
-2.248459 0.4490365 -1.219121 0.8804508 -0.2925683 0.3731092 16506842 male
-2.420976 0.5528953 -1.401968 0.8275632 -0.5517527 -0.1034803 3026220 male
-2.466263 0.8055285 -1.668959 0.2143809 0.2420833 -0.9462753 10459279 male
-2.592437 0.4878199 -1.495807 0.03752556 -0.427884 -0.9030544 16769976 male
-2.509336 0.5208671 -1.499433 -0.08183834 -0.2917581 -0.9529848 16769973 male
-2.677872 -0.1353519 -1.360519 0.9917104 0.06886372 0.1084833 2170913 male
-2.513561 0.2439845 -1.404364 0.3879375 0.1550291 -0.9085542 1775894 male
-2.346544 0.5695165 -1.359274 -0.0003301501 -0.7165069 -0.69758 16773613 male
-2.438395 0.8156376 -1.648846 0.6774894 0.3312326 -0.6567293 6708568 male
-2.503062 -0.3117251 -1.363716 -0.05558726 0.01053731 -0.9983985 2697257 male
-2.528094 0.4230757 -1.289592 0.2401923 0.006667144 0.9707025 10327692 male
-2.24903 0.4578867 -1.242301 0.8590857 0.09175218 -0.5035411 16441814 male
-2.396947 0.6081943 -1.405242 -0.3362204 -0.8613976 -0.3807231 8025202 male
-2.513242 -0.2273583 -1.365321 -0.3246121 -0.01405279 -0.945743 2500137 male
-2.627985 0.1309621 -1.409921 0.76377 -0.1042195 -0.6370198 2369324 male
-2.471553 -0.124828 -1.339872 0.9790663 0.1274313 -0.1587163 1776420 male
-2.473276 -0.003636655 -1.374309 0.9077692 -0.311399 -0.2810444 3158840 male
-2.500747 0.7732007 -1.667463 -0.3349895 -0.143033 -0.9313023 7431009 male
-2.511682 0.2159878 -1.252783 0.5818087 -0.03003744 0.812771 3553600 male
-2.580141 0.7188416 -1.468134 -0.100443 0.9768647 0.1888032 4603197 male
-2.393179 0.6808286 -1.40062 0.342617 0.902707 0.2602566 11841964 male
-2.645674 0.09188509 -1.421553 0.712654 -0.1161922 -0.6918266 3157808 male
-2.805793 0.3172913 -1.433882 -0.4163848 0.3362225 -0.8447357 15321786 male
-2.583421 0.3905826 -1.470123 0.07988948 -0.2536618 -0.9639884 7366760 male
-2.677325 -0.1072612 -1.39062 0.8865271 -0.316919 -0.3370941 1841694 male
-2.479776 -0.1025568 -1.361911 0.9576145 0.01515034 -0.2876544 2369322 male
-2.740049 -0.1710619 -1.321267 -0.2895406 -0.01927844 0.9569717 3355702 male
-2.418072 0.8177699 -1.611618 0.9302779 0.2253509 -0.2894829 3749169 male
-2.465039 -0.1614321 -1.315745 0.9782504 0.1324002 0.1596762 2237737 male
-2.677278 -0.05527726 -1.34561 0.4140528 -0.1515564 0.8975474 2696233 male
-2.415691 0.5537404 -1.463624 0.752126 -0.4535301 -0.4781392 4999747 male
-2.691149 -0.195699 -1.335293 0.6272985 -0.1855247 0.756358 2631464 male
-2.771707 -0.3612117 -1.38598 -0.9823317 0.06221173 -0.176506 2697257 male
-2.395522 0.5969554 -1.447067 0.4466553 -0.8183434 -0.3616811 7103588 male
-2.549717 -0.2317811 -1.339818 -0.8551835 -0.1175572 -0.5048186 1710618 male
-2.739362 0.4456749 -1.353143 0.6757021 -0.3934577 0.6233923 12298146 male
-2.563246 0.4656155 -1.484868 0.2039353 -0.1610998 -0.9656384 16374448 male
-2.678977 -0.1966445 -1.363835 0.9844912 -0.1743819 -0.01918954 2040096 male
-2.622606 0.3581833 -1.279186 -0.121899 0.5064474 0.8536112 12299435 male
-2.537758 0.8626615 -1.599116 -0.7044542 0.6668388 -0.2430439 5327945 male
-2.376632 0.58434 -1.37393 -0.5141206 -0.7831565 -0.34978 6906205 male
-2.52904 0.8487411 -1.628279 -0.5832746 0.5461763 -0.6012341 5196100 male
-2.525074 0.7325729 -1.631165 -0.5461302 -0.3196023 -0.7743361 12496290 male
-2.572145 -0.04739378 -1.32346 -0.8507105 -0.1270881 0.5100398 2500141 male
-2.465718 -0.1663311 -1.341941 0.9515411 0.09369796 -0.2928998 3224633 male
-2.442505 0.4544012 -1.362821 0.9331802 -0.2608876 0.2472099 4341050 male
-2.578439 0.4340604 -1.294896 -0.338212 0.1403955 0.9305387 9603460 male
-2.478585 -0.04523973 -1.343879 0.996847 -0.07061703 -0.03618747 2697265 male
-2.688547 0.1865844 -1.260314 -0.3003917 -0.4311241 0.8508214 1644825 male
-2.45374 0.8702362 -1.55355 0.4797589 0.7872673 0.3873523 4406587 male
-2.54 0.6902119 -1.591725 -0.7502882 -0.4957993 -0.4373224 15718606 male
-2.749365 0.1779941 -1.398508 -0.8985283 0.1423571 -0.4151887 2564903 male
-2.592438 0.2200863 -1.444116 -0.03213131 -0.07690293 -0.9965209 2564903 male
