# .PCD v0.7 - Point Cloud Data file format
VERSION 0.7
FIELDS x y z normal_x normal_y normal_z rgb label
SIZE 4 4 4 4 4 4 4 4
TYPE F F F F F F U U
COUNT 1 1 1 1 1 1 1 1
WIDTH 255
HEIGHT 1
VIEWPOINT 0 0 0 1 0 0 0
POINTS 255
DATA ascii
1.343053 0.2029641 -1.3126 0.2102279 0.9499065 0.231261 11381436 male
1.388765 0.3348664 -1.092883 -0.2842854 0.9048572 -0.3168836 8094610 male
1.738842 0.3675451 -1.2476 0.5629705 0.6785448 0.4718488 526600 male
1.42883 0.217851 -1.078192 0.7461319 -0.5794939 0.327832 3884115 male
1.347726 0.204798 -1.328086 0.4344906 0.8928358 0.118584 13288666 male
1.642125 0.2930841 -1.312146 0.4572608 0.1105344 -0.8824368 591113 male
1.281432 0.0625682 -1.383883 -0.5695402 -0.7015301 -0.4283451 11380921 male
1.333822 0.01211101 -1.306028 -0.3676463 -0.9288719 0.04509044 5855073 male
1.316689 0.5765355 -1.511755 0.4396299 -0.3126059 -0.8420232 14135724 male
1.53366 0.2463575 -1.281103 -0.4848748 0.8677807 -0.1088713 132619 male
1.512694 0.3572716 -0.9380117 0.7348409 0.6515579 0.1883644 526600 male
1.322429 0.6360385 -1.517619 0.5441067 0.121367 -0.8301915 14135726 male
1.333448 0.3547881 -1.377186 0.9041112 0.2035283 0.3757116 15855296 male
1.409286 0.1191781 -1.354205 0.184181 0.8004302 -0.5704287 12633553 male
1.30286 0.06730413 -1.170682 -0.5250942 -0.5325102 0.6638591 12436176 male
1.434597 0.3654864 -1.028902 0.05314124 -0.5549788 -0.8301654 526600 male
1.551911 0.1022535 -1.320987 0.6414961 -0.4289711 -0.6359769 3224374 male
1.143947 0.4084088 -1.310444 -0.9780919 -0.15476 0.1392317 8946320 male
1.688347 0.2250969 -0.8655443 -0.6313478 -0.3318447 0.700913 657930 male
1.317786 0.3711829 -1.356034 0.7871276 0.3730194 0.4912094 14539397 male
1.349066 0.4808233 -1.448178 0.9840069 -0.08349517 0.15735 15386054 male
1.42412 0.2276979 -1.167278 0.689548 0.4639283 -0.5561421 3815746 male
1.857314 0.2146795 -1.025555 -0.3617916 0.9081565 0.2106153 526600 male
1.574432 0.2716856 -1.434793 0.8295977 -0.2609001 -0.4936585 14262167 male
1.744388 0.2339907 -1.161151 -0.9607075 -0.277468 0.007249773 526600 male
1.3005 0.2480219 -1.553988 -0.2038212 -0.4615743 -0.863369 8552078 male
1.194022 0.4312521 -1.484039 -0.6546757 0.3481573 -0.6709592 13420763 male
1.137436 0.4105093 -1.362551 -0.9998796 -0.001647708 -0.01543346 7303031 male
1.784353 0.2567773 -1.140697 -0.5136582 0.7448679 0.4258252 526600 male
1.322558 0.486975 -1.147352 0.3898606 -0.8871208 -0.247033 12427932 male
1.259212 0.06414598 -1.350013 -0.5955495 -0.7178788 -0.3605147 14406884 male
1.674238 0.2325246 -0.7847841 0.6075268 -0.7876671 -0.1024287 526600 male
1.373048 0.385274 -1.013253 -0.7667251 -0.6035998 -0.2186321 526600 male
1.145287 0.399222 -1.315239 -0.9572008 -0.2864467 0.0414106 9867678 male
1.399286 0.6080313 -1.421908 0.8071193 0.5891762 0.03781292 13347752 male
1.533252 0.3493475 -1.470097 0.6098524 0.5775734 -0.5426683 14065818 male
1.363077 0.1848252 -1.24559 0.1624904 0.6649789 -0.7289718 4539729 male
1.19557 0.244322 -1.087216 0.6457022 -0.4778957 0.5955538 16567753 male
1.631527 0.3456823 -1.250786 -0.5108968 0.09440496 0.8544426 526600 male
1.283773 0.2376433 -1.545394 -0.3628806 -0.4617297 -0.8093968 10196388 male
1.235093 0.2374552 -1.507325 -0.7943631 -0.3727649 -0.479618 12434125 male
1.57089 0.2713667 -1.421986 -0.7944602 -0.0353346 -0.6062874 14132645 male
1.304068 0.5071953 -1.498807 -0.1549746 -0.1717882 -0.9728678 16768472 male
1.225371 0.2450156 -1.495077 -0.8437387 -0.3551289 -0.4024777 10789043 male
1.22754 0.6409587 -1.409203 -0.4086609 0.2979193 0.8626937 9933206 male
1.648253 0.3212145 -1.285736 -0.5293083 -0.750324 0.3960385 526600 male
1.488887 0.439641 -1.389824 -0.598652 -0.6961357 0.3962459 8679019 male
1.541355 0.2841437 -1.442309 0.1736915 -0.9343982 -0.3110166 16368828 male
1.22523 0.3383656 -1.527167 -0.8584307 -0.009996761 -0.512832 13946334 male
1.397246 0.3247653 -1.489993 0.8759874 -0.3508323 -0.3310028 7564411 male
1.222615 0.2173992 -1.461887 -0.6880991 -0.4455976 -0.57268 12630481 male
1.733503 0.3569457 -1.230911 0.4547536 0.6957502 0.5559953 526600 male
1.277356 0.1544481 -1.173146 -0.8973778 0.2303141 0.3763888 3685184 male
1.421222 0.002007506 -1.255888 0.167496 -0.8532798 0.4938205 8883624 male
1.221675 0.3488398 -1.196786 0.9545898 0.2912342 0.06277713 13081503 male
1.199027 0.6535043 -1.437197 -0.7113259 0.4822668 0.5113063 526600 male
1.444895 0.3660224 -1.027627 0.2078974 -0.4729998 -0.8561833 526600 male
1.615059 0.2926442 -0.8183494 0.2608944 0.6050621 -0.7522193 526600 male
1.322289 0.4386067 -1.568918 0.1182788 0.5595651 -0.8203031 7499642 male
1.513541 0.06913392 -1.335914 0.6172085 -0.384357 -0.6865298 3752266 male
1.281248 0.1588842 -1.159177 -0.8876524 0.1684278 0.4286085 4802899 male
1.854274 0.1956532 -0.9979638 -0.4306952 -0.05842535 0.9006042 526600 male
1.706812 0.375029 -1.316751 0.8398808 -0.0009650502 -0.5427699 526600 male
1.361587 0.0332033 -1.399421 -0.00515759 -0.8115418 -0.5842717 7237501 male
1.348779 0.06489733 -1.154712 0.02810755 -0.5928827 0.8047982 9410213 male
1.909363 0.1471536 -1.118909 0.4023077 -0.7118977 -0.5756301 526600 male
1.527114 0.3212927 -1.431357 -0.1068441 0.8301983 0.5471336 14195360 male
1.631585 0.3056471 -0.7872713 -0.008674785 0.8150134 0.5793771 526600 male
1.785454 0.2377083 -1.136751 -0.7815264 0.4891183 0.3872722 526600 male
1.790323 0.2165509 -1.139061 -0.7642651 0.4513318 0.4606501 526600 male
1.231684 0.3763177 -1.252392 0.9462649 -0.2059886 -0.2493019 3749951 male
1.232579 0.3458499 -1.133085 -0.7537519 0.5947142 -0.2795946 14923449 male
1.392469 0.226038 -1.400451 0.9750266 0.07545495 0.208877 11840959 male
1.246388 0.6762214 -1.519901 -0.2267676 0.6625544 -0.7138613 526600 male
1.687873 0.2776123 -0.8167255 0.2003442 0.9198285 -0.3373094 526600 male
1.323225 0.04091121 -1.395243 -0.4331168 -0.7604738 -0.4838278 10460328 male
1.682188 0.3882233 -1.294397 0.4323077 0.8284855 0.3559798 527368 male
1.225972 0.1793753 -1.281552 -0.6826844 0.6730799 0.2844387 4934223 male
1.313856 0.4636018 -1.159268 0.6344505 -0.7728546 -0.01296684 15133430 male
1.241879 0.4791996 -1.451454 -0.8041598 0.573361 -0.1567932 13082517 male
1.39084 0.3629357 -0.9881205 -0.6992375 -0.7032352 0.128558 526600 male
1.224141 0.07573641 -1.29604 -0.773119 -0.6341068 -0.01398736 10196131 male
1.170072 0.3297002 -1.143641 -0.5558975 0.7548636 0.348079 14789788 male
1.207503 0.4066672 -1.231737 0.2417491 0.890233 0.3860603 14592677 male
1.424414 0.4197186 -0.9480131 -0.05585352 0.4073755 0.9115512 526600 male
1.543768 0.2596764 -1.265676 -0.5585996 0.8093648 0.1813701 5791079 male
1.203136 0.3433223 -1.252971 0.4685796 -0.7846756 -0.4058539 3486257 male
1.460404 0.4011964 -1.027664 0.6667001 0.2135978 -0.7140636 526600 male
1.316145 0.6892561 -1.481826 0.5133336 0.7747524 -0.3691169 13478563 male
1.211701 0.1032133 -1.271027 -0.8812735 -0.3180428 0.3495794 7696502 male
1.754098 0.1822913 -0.8968869 0.6879206 -0.3609115 -0.6296889 526600 male
1.16503 0.3992093 -1.245432 -0.803386 0.3836117 0.4554262 14397868 male
1.600419 0.3168677 -1.272956 -0.4023908 0.9017757 0.1577413 921358 male
1.554112 0.5426016 -1.37125 0.2699493 0.1914451 0.9436504 1051656 male
1.151132 0.3309576 -1.36523 -0.8310306 -0.3262224 0.4505185 9472664 male
1.742272 0.3301515 -1.204483 0.4658123 0.6707897 0.5771135 526600 male
1.400079 0.1259347 -1.112222 0.3524518 -0.6870281 0.6354291 4935259 male
1.621433 0.3213858 -1.293793 -0.1125014 0.8500139 -0.5146064 7831440 male
1.320753 0.668475 -1.421562 0.6611038 0.3508875 0.663189 13083807 male
1.1804 0.3582343 -1.293205 -0.05874635 -0.922613 -0.381227 12622999 male
1.539212 0.06573346 -1.257321 0.7382423 -0.6610485 0.1342134 12830671 male
1.227501 0.4726521 -1.413799 0.06229298 0.8604513 0.5057105 7368056 male
1.70081 0.4019353 -1.272251 0.1892291 0.6719316 0.716031 526600 male
1.818193 0.1949363 -1.150715 -0.1808286 -0.7266709 -0.6627597 526600 male
1.197572 0.4102911 -1.234912 0.03480095 0.8960114 0.4426652 15116968 male
1.334736 0.2331126 -1.083189 -0.7299535 0.07717296 0.679126 4212304 male
1.546303 0.3315946 -1.467626 0.6733364 0.2802392 -0.6841666 14593185 male
1.346605 0.4755782 -1.448839 0.9814721 -0.06161705 0.1814272 15720163 male
1.760554 0.3003548 -1.222015 0.9748009 -0.09242355 -0.2030295 526600 male
1.280934 0.306704 -1.573185 -0.4348411 -0.3673382 -0.8221775 10921143 male
1.249029 0.5511512 -1.51223 -0.08576605 -0.724413 -0.6840101 13616328 male
1.196171 0.4333697 -1.270049 0.1939686 0.7877371 0.5846764 13086128 male
1.247158 0.55876 -1.518555 -0.08241227 -0.6683675 -0.7392518 10590109 male
1.303469 0.5473744 -1.518686 0.378089 0.9031699 -0.2033049 15377567 male
1.385778 0.3593614 -1.033925 -0.2658252 -0.9571604 0.114809 526600 male
1.413149 0.07679884 -1.217898 0.9146829 0.3718785 -0.1583087 526600 male
1.290602 0.2521291 -1.301304 0.2550576 0.2487899 0.934371 8552586 male
1.165146 0.3437301 -1.470691 -0.7356839 -0.14965 -0.6605861 13486295 male
1.403044 0.1372794 -1.104232 0.3667929 -0.6936417 0.6199389 8028049 male
1.420062 0.1242324 -1.321336 -0.5293471 0.5660594 -0.631956 7962513 male
1.197384 0.5618514 -1.459694 -0.7867959 -0.6125354 0.07584691 9735828 male
1.392149 0.5890987 -1.447994 0.8572323 0.00656451 -0.5148881 12558229 male
1.560236 0.2606962 -1.235725 -0.5453886 0.5942053 0.591161 4144964 male
1.376165 0.2013288 -1.373561 0.9357294 0.2485689 0.2502482 12433102 male
1.849545 0.1543125 -1.129657 -0.9735118 -0.21722 0.07134604 526602 male
1.485241 0.3221442 -1.43311 -0.6649866 -0.3046924 0.6818764 14935538 male
1.411896 0.1042958 -1.14429 0.6720895 -0.5882567 0.4497219 2828851 male
1.472416 0.3887043 -0.9372223 0.4021664 0.5339339 0.7437585 526600 male
1.342794 0.1965925 -1.520994 0.3851729 -0.5289331 -0.7562218 4210502 male
-2.543526 0.365693 -1.450432 0.6640151 -0.4705998 -0.5810508 6248018 male
-2.59175 0.04021356 -1.401773 -0.61596 -0.1117363 -0.7798132 2697257 male
-2.67858 0.02232003 -1.414908 0.723061 -0.0558266 -0.6885248 3421242 male
-2.516428 0.00841826 -1.322415 0.8410975 -0.1554303 0.5180701 1908259 male
-2.528656 0.4031927 -1.472332 0.6702042 -0.5073274 -0.5417062 5065541 male
-2.71321 -0.10501 -1.311525 0.2104026 0.2720893 0.938988 2960429 male
-2.759814 0.2223286 -1.280286 -0.7387091 0.1064577 0.6655644 2763313 male
-2.514749 0.5597794 -1.546767 0.2610454 0.0757748 -0.9623481 8485488 male
-2.569691 0.7423277 -1.688334 -0.2817828 0.1239663 -0.9514363 16505551 male
-2.732189 0.1040812 -1.440156 -0.1162477 -0.04548079 -0.9921786 4145739 male
-2.518065 -0.3503181 -1.381198 0.004696369 0.291419 -0.9565842 2698281 male
-2.588348 0.8192938 -1.675637 -0.6322488 0.3056726 -0.7119172 6575441 male
-2.747054 0.4697446 -1.431353 -0.9964387 -0.08330102 0.01308453 2565412 male
-2.613759 0.2570053 -1.445654 0.3310524 -0.2064772 -0.9207451 8418928 male
-2.553439 0.3158775 -1.273175 0.4770874 0.3324878 0.8135353 6117204 male
-2.557549 -0.02114741 -1.296222 0.129959 -0.1531396 0.979622 2565930 male
-2.730378 0.01639778 -1.305222 -0.3104481 -0.2060936 0.9279805 4013120 male
-2.463239 0.575159 -1.517078 -0.04065549 -0.8643984 -0.5011613 5064773 male
-2.526193 -0.4414176 -1.384353 -0.7022023 -0.5741066 -0.4210865 1381909 male
-2.491197 0.5651519 -1.540912 0.1969219 0.01071495 -0.9803608 6578261 male
-2.53347 0.6707404 -1.632801 0.5328837 -0.8457596 -0.02694017 11904668 male
-2.524961 0.1296423 -1.416924 0.4818571 0.05672913 -0.8744117 3752010 male
-2.692618 -0.4314169 -1.462315 0.9045952 -0.4242437 0.04153532 1907741 male
-2.625849 0.382405 -1.681975 -0.007658444 -0.9620082 0.2729129 7037026 male
-2.732799 -0.3370655 -1.384864 -0.5629079 0.0354313 -0.82576 1710362 male
-2.714083 0.6071323 -1.429255 -0.4954972 0.5140627 0.7001587 9011583 male
-2.598297 0.6584929 -1.450359 -0.2282331 0.7900785 0.5689339 15786197 male
-2.474105 0.5561264 -1.394752 0.6075506 -0.1903282 0.7711406 6117205 male
-2.664865 -0.02789495 -1.374071 0.9602699 -0.1091709 -0.2568339 2499878 male
-2.397587 0.5646092 -1.492322 0.8607028 -0.1701014 0.4798504 9142659 male
-2.637196 0.3195956 -1.267538 -0.08795892 0.4960828 0.8638086 10722458 male
-2.560817 0.6805315 -1.484229 -0.09359219 0.923252 0.3726206 8024941 male
-2.500421 -0.2109436 -1.308138 0.8778532 -0.07214474 0.4734649 2303268 male
-2.440244 0.5533838 -1.562849 -0.3348705 0.4055496 -0.8505243 10261132 male
-2.499873 0.7099472 -1.66219 0.860894 -0.3065664 -0.4060528 14666688 male
-2.756835 0.5934964 -1.599049 -0.9308842 -0.2923147 -0.219105 8419442 male
-2.553735 0.2022847 -1.414226 0.2586803 0.2350806 -0.9369214 2829617 male
-2.518692 -0.01117012 -1.322653 0.8514253 -0.1026526 0.5143325 1908261 male
-2.752063 -0.1027529 -1.394191 -0.8603739 -0.1005371 -0.4996493 2500134 male
-2.717466 0.6133868 -1.438423 -0.5412139 0.581509 0.6074002 9143683 male
-2.689548 0.6297826 -1.436451 -0.2883518 0.6998729 0.6534763 10854036 male
-2.585484 0.3962616 -1.760693 -0.4833438 -0.1671436 -0.8593266 16576489 male
-2.613346 0.7222638 -1.572181 -0.9214731 0.009678184 0.3883217 3288362 male
-2.738343 0.3040107 -1.284239 -0.6157837 0.3314995 0.7147858 6905951 male
-2.479485 0.8105928 -1.607545 0.9954318 0.09277165 0.02256811 5919050 male
-2.74724 -0.126967 -1.395007 -0.6471442 -0.126867 -0.7517375 4080198 male
-2.643607 0.5612488 -1.637496 0.7743255 0.5900534 -0.2285984 12498605 male
-2.7937 0.123516 -1.364216 -0.9955309 -0.08866179 -0.03252047 2237478 male
-2.717373 0.3159871 -1.277119 -0.3325883 0.4599586 0.8233002 9077378 male
-2.700841 0.5315669 -1.562857 -0.5686771 -0.4921879 -0.6590581 5459531 male
-2.640225 0.3479276 -1.285817 -0.07253605 0.5749117 0.8149941 13023413 male
-2.67547 -0.2230909 -1.348752 0.9736912 -0.1585566 -0.1636626 1974302 male
-2.502619 0.2311778 -1.378668 0.8215382 0.1786031 -0.5414574 2302758 male
-2.758281 0.3143938 -1.41006 -0.7026218 0.2912478 -0.6492285 3222828 male
-2.410431 0.3656545 -1.557311 -0.9107941 -0.3131712 0.2690321 15454411 male
-2.526012 0.7665792 -1.527137 0.4671684 -0.2488169 0.8484364 8090222 male
-2.539065 -0.009257065 -1.301823 0.5242324 -0.1525241 0.8378049 2434085 male
-2.521963 -0.4394484 -1.511442 0.5499308 0.8341399 0.04227126 2828843 male
-2.684178 0.6673297 -1.550511 -0.003396541 0.7387138 -0.6740108 3420462 male
-2.735126 0.1405929 -1.280876 -0.29804 -0.3191224 0.8996295 3158835 male
-2.504037 0.1946155 -1.308313 0.9111537 0.05946725 0.4077533 2631465 male
-2.707048 -0.4029839 -1.396378 0.962368 0.2700641 0.03022474 2697265 male
-2.769354 -0.1938415 -1.340938 -0.9830706 -0.09742274 0.1551817 1907998 male
-2.720319 0.3807936 -1.454237 -0.6810594 -0.2590719 -0.684865 5327170 male
-2.618119 0.1372781 -1.276694 -0.5337648 -0.3247981 0.7807699 2105893 male
-2.768063 -0.4429479 -1.381524 -0.4834083 -0.8515955 0.2027356 789516 male
-2.708177 0.6394326 -1.633212 0.2182227 0.5903475 -0.7770901 5722700 male
-2.534028 -0.4115649 -1.365907 -0.9803026 0.108658 -0.164926 2105377 male
-2.730022 -0.320841 -1.385458 -0.3922837 -0.01910887 -0.919646 2368550 male
-2.757615 -0.4180073 -1.344411 -0.9270484 0.2111174 0.3098562 2764082 male
-2.420401 0.4175532 -1.541065 -0.8420761 -0.3271265 0.4288313 15519691 male
-2.435776 0.3046899 -1.71999 -0.8674984 0.2773184 0.4129664 16442073 male
-2.434705 0.6297228 -1.500783 0.6478159 0.7617604 0.007475734 9867662 male
-2.56878 0.8708134 -1.639014 -0.2927951 0.8878894 -0.3548569 6116172 male
-2.579988 0.6129757 -1.573206 0.1391401 -0.5256652 -0.8392356 7367528 male
-2.77074 0.2820868 -1.321168 -0.9196289 0.1327488 0.3696766 4341562 male
-2.753792 -0.2216716 -1.317114 -0.7323301 -0.1965215 0.6519758 2499110 male
-2.503892 0.3119518 -1.35569 0.9585198 0.2827869 -0.03566039 3946035 male
-2.388671 0.5357205 -1.544221 0.9683161 0.1542893 -0.1963649 11509660 male
-2.570215 0.687263 -1.515608 -0.04596291 0.6724558 0.7387089 15320507 male
-2.507398 -0.2621413 -1.367958 0.703151 -0.1086081 -0.7026972 2303017 male
-2.575316 0.3941707 -1.309459 0.1680753 0.2228132 0.9602631 7958378 male
-2.360813 0.3442318 -1.619648 0.9102604 -0.3776554 -0.1697133 15387337 male
-2.396761 0.606684 -1.528808 0.9061134 0.2592852 -0.3342602 10261899 male
-2.502184 -0.2709574 -1.359995 0.8937677 -0.1044196 -0.4362064 2630697 male
-2.715093 0.1017758 -1.44036 0.1660835 -0.03496017 -0.9854919 4409683 male
-2.509313 -0.09850652 -1.341588 0.9919903 0.1216531 0.03399801 2697257 male
-2.583508 -0.08270787 -1.378466 -0.6237761 -0.2515514 -0.7400173 2368036 male
-2.525181 0.850813 -1.671352 0.351048 0.6914734 -0.6313715 7168860 male
-2.517181 0.2931221 -1.303407 0.8426048 0.063747 0.5347463 7037274 male
-2.627342 0.681558 -1.499686 0.0289434 0.9280852 0.3712415 4999236 male
-2.408763 0.5792072 -1.551599 0.4381942 0.2507976 -0.863184 13218467 male
-2.694056 0.07636779 -1.43031 0.4743512 -0.06270354 -0.8781 3554116 male
-2.46463 0.3497378 -1.838991 -0.5667164 0.132606 -0.8131719 12820631 male
-2.774013 0.3186719 -1.352417 -0.9517971 0.2764764 0.1328285 3945779 male
-2.67927 -0.2405274 -1.345716 0.9814966 -0.1893694 -0.02835333 2039327 male
-2.508619 -0.01583321 -1.360074 0.9696174 -0.243053 -0.02770782 2696750 male
-2.725865 -0.1547414 -1.297977 -0.05534416 0.1573693 0.985988 2698289 male
-2.483251 0.7941043 -1.636738 0.9779244 -0.02194812 -0.2078038 5459015 male
-2.513477 -0.1382022 -1.302376 0.7228828 0.2552497 0.6420968 2104610 male
-2.698694 0.01914469 -1.305616 0.2868796 -0.1884075 0.9392565 2830131 male
-2.472666 0.6529013 -1.493131 0.5028515 0.8296524 -0.2425228 3157800 male
-2.686614 -0.1217006 -1.327103 0.8204493 0.2208966 0.5273215 2499878 male
-2.750932 -0.3756939 -1.357492 -0.9914413 -0.04910539 0.1209682 2368292 male
-2.404773 0.6090503 -1.483691 0.8432133 0.3562254 0.4026103 11182745 male
-2.56611 -0.2501673 -1.363553 -0.603986 -0.1134485 -0.7888794 1711394 male
-2.559687 0.4265152 -1.749431 0.04505223 0.9753267 -0.2161209 16043712 male
-2.557563 0.5913424 -1.562502 0.2144542 -0.05563602 -0.9751483 7037274 male
-2.712221 0.02541309 -1.430058 0.09865634 -0.2008204 -0.9746478 4475215 male
-2.635448 0.5586087 -1.378716 -0.05993682 0.3481682 0.9355142 7563877 male
-2.602149 0.8589082 -1.567521 -0.6593494 0.6801711 0.3203526 3814706 male
-2.438505 0.6125762 -1.558798 -0.07264799 0.1963024 -0.9778487 7499882 male
-2.623497 0.825722 -1.596265 -0.9609953 0.2765164 -0.005185783 4406329 male
-2.573186 0.7576273 -1.684693 -0.2430731 0.02921874 -0.969568 15126729 male
-2.540299 0.01655586 -1.295983 0.4821916 -0.1620424 0.8609494 2499878 male
-2.504975 -0.119818 -1.340615 0.9820057 0.1884079 0.01294613 2104611 male
-2.524689 0.3524351 -1.414083 0.8586809 -0.2831075 -0.4272205 4802114 male
-2.60272 0.6216095 -1.415227 -0.3313932 0.6318895 0.7006385 6315607 male
-2.490921 0.08235267 -1.348498 0.9852855 -0.08303338 0.1493929 2236450 male
-2.732924 0.1537864 -1.276075 -0.2826106 -0.3887223 0.8769415 3948356 male
-2.547627 0.7880129 -1.516305 0.08138964 -0.0457969 0.9956297 9340029 male
-2.583625 0.7054817 -1.676774 -0.6835401 -0.3108148 -0.6604296 15850960 male
-2.742878 0.1579268 -1.436548 -0.3207489 0.1116272 -0.9405635 3684929 male
-2.696551 0.2692096 -1.432511 -0.2700536 -0.1857306 -0.9447621 7431266 male
-2.731087 -0.4338565 -1.32594 0.4948264 -0.511121 0.7027819 1052696 male
-2.674387 0.439738 -1.695748 -0.6835945 -0.09576201 -0.7235526 15187637 male
