# .PCD v0.7 - Point Cloud Data file format
VERSION 0.7
FIELDS x y z normal_x normal_y normal_z rgb label
SIZE 4 4 4 4 4 4 4 4
TYPE F F F F F F U U
COUNT 1 1 1 1 1 1 1 1
WIDTH 246
HEIGHT 1
VIEWPOINT 0 0 0 1 0 0 0
POINTS 246
DATA ascii
1.483487 1.017933 -0.7145594 0.07848158 -0.08920124 0.9929168 7630976 male
1.456357 0.6100052 -0.8096114 0.9177701 -0.3809083 -0.1122797 592137 male
1.561385 0.4776797 -0.9076954 -0.5042284 -0.3311404 0.7975587 526600 male
1.383175 0.7879197 -0.731602 -0.8587238 -0.01600655 0.5121886 4804440 male
1.492732 1.006329 -0.7169153 0.1902674 -0.01723173 0.9815811 8881044 male
1.617216 0.5339852 -0.9747662 0.5727945 0.1698486 -0.801909 526600 male
1.572926 1.189714 -0.7469519 0.638538 0.208902 0.7406951 13823176 male
1.454744 1.346956 -0.7006707 0.4441967 0.5357575 0.7180899 11972287 male
1.61019 1.519905 -0.7707264 0.9695685 -0.1810573 -0.1647885 14464170 male
1.579883 0.7895323 -0.8029422 0.01874641 -0.2242739 0.9743458 5726058 male
1.330852 0.3713374 -0.8131141 -0.9721672 -0.08951407 0.2165138 526600 male
1.610768 1.578991 -0.7417342 0.94033 0.3057313 0.1493584 16171968 male
1.564078 1.107049 -0.9042385 0.4164695 0.08072675 -0.9055586 6183526 male
1.536797 1.123893 -0.7109667 0.4490896 -0.02226105 0.8932093 8289933 male
1.374886 0.9357056 -0.8014081 -0.9918525 0.1031842 0.07470953 4343122 male
1.401841 0.6922041 -0.8365735 -0.4182405 -0.003443255 -0.9083298 6515059 male
1.567462 0.7739573 -0.9407677 -0.08210057 -0.006769478 -0.9966011 9869997 male
1.382163 1.242519 -0.6993045 0.8514106 -0.115115 0.5117114 10257288 male
1.377852 0.2428065 -0.7739644 0.5497749 -0.820686 -0.1556344 526600 male
1.469476 1.224678 -0.6914877 -0.03423989 -0.1325505 0.9905846 8683148 male
1.536627 1.393147 -0.7606206 0.635819 -0.5282686 0.5627314 16574948 male
1.481624 0.8230415 -0.6993742 0.5022522 -0.07816 0.8611816 9147812 male
1.722584 0.258446 -0.8638846 -0.01679692 -0.9971917 0.07298317 526600 male
1.626984 1.066188 -0.9406973 -0.6560001 -0.4411504 0.6124133 1644825 male
1.615107 0.3573005 -0.9300257 0.003652483 0.1958573 0.9806256 526600 male
1.450924 1.269832 -0.8976891 -0.7744678 0.05223718 -0.6304529 12170696 male
1.393809 1.328174 -0.8434575 -0.667168 0.2991802 -0.6821862 12629963 male
1.529763 1.17865 -0.7087398 0.495344 0.1294637 0.8589954 15660526 male
1.538682 0.6475867 -0.8634569 -0.7634708 -0.216021 0.6086438 3092015 male
1.327913 1.290214 -0.712001 -0.9320656 0.1334474 0.3368168 15648195 male
1.394678 0.9439295 -0.8739393 -0.7052119 0.07729492 -0.7047707 7963026 male
1.60502 1.324599 -0.8132377 0.7422497 0.378665 0.5528817 16051194 male
1.34563 0.4243032 -0.7790018 -0.5788221 -0.1204417 0.8065102 526600 male
1.328387 1.317474 -0.7169592 -0.938313 0.09272107 0.3331239 8944516 male
1.543762 1.426717 -0.7139746 -0.4809358 -0.725094 0.492889 9732217 male
1.627143 1.339872 -0.9502739 0.7838679 0.05584763 -0.6184109 6710639 male
1.376305 0.8238662 -0.7484431 -0.9449999 0.008759613 0.326953 3355964 male
1.345335 0.5678115 -0.8240681 -0.8667763 0.4263843 -0.2586411 526600 male
1.631479 0.6036524 -0.868466 0.720627 -0.4255216 0.5473829 526600 male
1.456314 1.259911 -0.9037905 -0.7418595 -0.004517404 -0.67054 11513276 male
1.460369 1.099447 -0.8713887 -0.7177641 -0.1011686 -0.6888974 9867169 male
1.684584 1.064901 -0.9611583 0.8945334 0.270609 -0.355782 15844293 male
1.604375 1.579891 -0.7936994 0.9099203 0.2459638 -0.3339862 6184030 male
1.553365 0.9660691 -0.942347 0.2792515 0.1181734 -0.9529185 7041403 male
1.49259 1.573169 -0.7154492 -0.6452804 0.1744317 0.7437652 11314087 male
1.588282 0.5825936 -0.8728192 -0.06601346 -0.4766776 0.876596 789260 male
1.641059 1.265879 -0.9258829 0.9557549 0.2597553 0.1380567 15379880 male
1.637595 0.7925313 -0.9093307 0.8000239 0.03774931 -0.5987794 6185839 male
1.514062 0.8977793 -0.9508402 -0.218608 -0.08387298 -0.9722015 8883363 male
1.608098 1.231987 -0.8642986 0.9631678 -0.03625563 -0.2664456 526344 male
1.398878 0.990045 -0.8632941 -0.6655772 0.3422912 -0.6632071 11646657 male
1.556215 0.5152874 -0.9015808 -0.5467512 -0.1225308 0.828281 526600 male
1.391575 0.913842 -0.7341641 -0.8461535 0.1376748 0.5148495 3817026 male
1.61238 0.9845918 -0.9024824 0.7523197 0.217884 -0.6217247 8552842 male
1.333095 1.156093 -0.7044332 0.8403133 0.2987922 0.4523236 14396072 male
1.484774 1.614324 -0.7498617 -0.6530565 0.6250422 0.4275974 526600 male
1.432526 0.6386929 -0.8378389 0.1505044 -0.09135909 -0.9843791 1052689 male
1.439102 1.412674 -0.8151083 -0.4282209 0.7187071 -0.547802 9932183 male
1.521476 1.376089 -0.9146036 -0.2219749 0.593203 -0.7738458 11381180 male
1.51397 0.8709662 -0.942657 -0.3101993 -0.406871 -0.8592045 6843516 male
1.386781 0.901187 -0.7401718 -0.8836651 0.1301235 0.4496707 3092536 male
1.604079 0.2916601 -0.9410877 -0.8311175 -0.09777469 0.5474339 526600 male
1.601619 0.5211182 -0.9843886 0.2812117 0.1038797 -0.9540068 526600 male
1.55993 1.196688 -0.7390866 0.6401836 0.2367216 0.7308404 15591913 male
1.467324 0.7092904 -0.8305209 0.63767 -0.219447 -0.7383901 2894636 male
1.681266 0.2769964 -0.9712262 0.5588873 0.151209 -0.8153409 526600 male
1.629381 1.368886 -0.9163725 0.5732614 0.8095173 -0.1267006 8814990 male
1.34214 0.2362524 -0.7202984 -0.101079 -0.986322 0.1301991 526600 male
1.593006 0.4205302 -0.9207202 -0.07549119 -0.2895587 0.9541786 526600 male
1.581834 0.3220434 -1.001582 0.3792967 0.3768165 -0.84507 526600 male
1.342334 1.137286 -0.7233471 0.9795827 0.1736084 0.10138 12954028 male
1.291693 1.095547 -0.7295962 -0.7609001 -0.4289439 -0.4868655 16505052 male
1.453892 1.255402 -0.6845098 -0.3449789 -0.3552942 0.8687668 8486793 male
1.585569 1.609441 -0.7264458 0.5543991 0.7105408 0.4333282 526600 male
1.612674 1.231765 -0.8024077 0.9293022 -0.2632435 0.2590374 8682893 male
1.511521 1.275148 -0.6951362 0.5817245 0.1707359 0.7952645 13024474 male
1.553172 0.5302611 -0.9707337 -0.7281356 0.08865705 -0.6796753 526600 male
1.385419 1.023582 -0.7676917 -0.8650162 0.4022937 0.2998445 6117989 male
1.335399 1.29984 -0.7020509 -0.7215887 0.1627874 0.6729116 15908545 male
1.474784 1.445787 -0.8266477 -0.6454341 0.3319159 -0.6879293 15643044 male
1.391622 0.3930389 -0.8197111 0.9542581 -0.2988459 0.009087533 526600 male
1.378153 0.9987892 -0.8253605 -0.91947 0.264185 -0.2911724 9671584 male
1.342212 1.102529 -0.6922657 0.9300402 0.1926127 0.3129307 15055292 male
1.400811 1.331962 -0.7068725 0.8106372 -0.1979814 0.5510632 11051440 male
1.395575 0.4188673 -0.8043556 0.8873101 -0.2639745 0.3781508 526600 male
1.571921 0.792095 -0.8020834 -0.05087557 -0.2362373 0.9703627 6975618 male
1.328784 0.5131621 -0.8044709 -0.9568055 0.1378707 0.2559589 526600 male
1.46158 0.6398621 -0.7581279 0.8482358 -0.3477803 0.3994305 3289910 male
1.606537 1.539246 -0.7869043 0.9123582 -0.09251618 -0.3988024 13086119 male
1.391282 0.9857707 -0.7409355 -0.8538234 0.1400589 0.5013672 4078663 male
1.477726 1.399866 -0.8593445 -0.5592881 0.6577626 -0.5045247 13618399 male
1.33152 1.352788 -0.7197469 -0.942529 0.2113107 0.2588179 6511719 male
1.587759 0.7598346 -0.8098752 0.02463326 -0.2401004 0.9704355 5593964 male
1.736129 0.8999491 -0.9706632 0.5885543 0.03361621 0.8077585 13745346 male
1.59609 1.065844 -0.7651235 0.8985901 -0.04803459 0.4361519 13026007 male
1.551168 0.5159521 -0.9062826 -0.6754928 -0.1089344 0.7292756 526600 male
1.39504 0.4768535 -0.7797656 0.7404568 -0.1599961 0.6527826 526600 male
1.559937 0.5446469 -0.9738644 -0.5975547 0.2123085 -0.7732098 526600 male
1.524314 1.586501 -0.7017695 -0.3096017 0.4024689 0.8614903 9801614 male
1.333807 0.5170499 -0.7924113 -0.8804456 0.1456124 0.4512344 526600 male
1.533345 0.6588022 -0.8977543 -0.9386715 -0.1059344 -0.3281367 3355960 male
1.447443 1.277058 -0.6807585 -0.3229926 -0.3430138 0.8820529 9275798 male
1.541716 0.5264861 -0.9531229 -0.9222552 0.02670422 -0.3856581 526600 male
1.624847 0.3181591 -0.9893487 0.5746309 0.09448957 -0.8129397 526600 male
1.392674 1.349816 -0.6831719 0.4880174 -0.3000146 0.8196525 8551050 male
1.407549 0.5732946 -0.7511391 0.05489099 -0.4763836 0.8775224 526600 male
1.671825 1.067021 -0.9310591 0.2552665 0.2966655 0.9202328 14989243 male
1.551177 1.259321 -0.7449728 0.696309 -0.01033299 0.7176678 15185895 male
1.588692 0.7180121 -0.8194104 -0.036035 -0.2387396 0.9704148 5527390 male
1.490447 1.024124 -0.9169095 -0.47396 0.4881978 -0.7328197 11906750 male
1.559919 1.602922 -0.8389721 0.4392494 0.4696168 -0.765846 4539717 male
1.400471 1.333174 -0.7265899 0.3940841 -0.8909143 0.2257641 526600 male
1.580743 1.607644 -0.8129982 0.6759254 0.5762766 -0.4593801 3289394 male
1.610031 1.529484 -0.7766472 0.9462897 -0.07863329 -0.3136123 15845824 male
1.44751 0.6652362 -0.8358691 0.4155093 -0.08469602 -0.9056371 5395546 male
1.326782 0.4882299 -0.8051382 -0.9662372 0.0341487 0.255381 526600 male
1.457696 1.049743 -0.7094792 -0.2073876 -0.1407006 0.9680877 4605772 male
1.416936 1.243506 -0.8658247 -0.5601358 -0.09004462 -0.8234925 12433352 male
1.373369 0.5876512 -0.7663692 -0.693381 0.1356855 0.7076808 526600 male
1.51217 0.8472095 -0.9293267 -0.5150353 -0.3611832 -0.7773579 6250863 male
1.473484 1.611985 -0.7981235 -0.7667855 0.6116609 -0.1947072 526344 male
1.600125 1.469283 -0.7670907 0.9125776 -0.3663627 -0.1816054 14989234 male
1.649139 0.8399265 -0.8434975 0.970629 0.09443778 0.2212704 1579032 male
-2.593646 0.4089529 -1.377062 0.1294164 -0.1147879 -0.9849241 6181970 male
-2.559801 -0.08174616 -1.397623 -0.7793078 -0.4666289 -0.4182549 2697265 male
-2.755364 0.01628158 -1.344266 -0.1048749 -0.1136261 -0.9879731 4474700 male
-2.492216 0.07767243 -1.317915 0.978298 0.1000485 0.1814485 2565671 male
-2.586554 0.4429391 -1.378898 0.0472669 0.04598094 -0.9978235 6841180 male
-2.786023 -0.1152298 -1.263741 0.05770086 0.611764 0.7889332 2828843 male
-2.52638 0.6150685 -1.340808 0.05733345 0.5415347 -0.8387213 7893612 male
-2.58014 0.5036094 -1.377442 -0.3874677 0.05065307 -0.9204909 10457469 male
-2.475885 0.8142903 -1.351091 0.2964103 0.5619528 -0.7722373 11114384 male
-2.768048 0.07900155 -1.339507 -0.342377 0.03876353 -0.938763 4278095 male
-2.402531 -0.3020474 -1.358548 0.9579527 0.001972721 -0.2869196 2105894 male
-2.497076 0.8528459 -1.296567 -0.7309667 0.6506969 -0.205624 4801601 male
-2.683985 0.4323143 -1.179915 -0.4073026 -0.2461855 0.8794871 4866369 male
-2.675896 0.2920199 -1.356829 -0.4325335 -0.08898052 -0.8972165 8156787 male
-2.528612 0.1780748 -1.221892 0.8572357 -0.05697352 0.511763 2697257 male
-2.542886 -0.1071636 -1.37812 -0.7064011 -0.4119223 0.5756021 2697265 male
-2.779469 0.02026076 -1.228075 -0.6687815 -0.1770164 0.7220782 2829361 male
-2.438519 0.5319817 -1.372806 -0.9358437 0.03572835 -0.3505999 6972001 male
-2.368537 -0.4681071 -1.405658 0.2740591 -0.9518762 0.1371984 526344 male
-2.466551 0.5314372 -1.367212 0.203928 -0.5163997 -0.8317121 4670782 male
-2.527077 0.6798531 -1.341452 -0.1327496 -0.1933193 -0.9721139 16770009 male
-2.642621 0.1008592 -1.339026 -0.7986636 -0.3321592 -0.5018036 3092272 male
-2.746424 -0.4381667 -1.278422 0.2541873 -0.9646565 0.06947406 2499110 male
-2.912544 0.6570051 -1.26423 0.6548589 -0.5526269 -0.5155226 16375770 male
-2.79802 -0.3101553 -1.257448 -0.2528046 -0.4349924 -0.8642175 2434345 male
-2.565028 0.6027763 -1.167783 0.479526 0.1056204 0.8711483 11314589 male
-2.503235 0.5368044 -1.192242 0.1885237 0.01058332 0.9820117 10984598 male
-2.480525 0.4291734 -1.292457 0.8155137 -0.5693656 -0.1037329 4012085 male
-2.716874 -0.06140509 -1.327747 0.7552654 -0.2350643 -0.6118164 2565415 male
-2.37157 0.4878522 -1.436037 0.8040217 0.5716865 -0.1634744 16242633 male
-2.570911 0.1610675 -1.185864 0.3074593 -0.2957495 0.9044342 3419956 male
-2.546486 0.6551135 -1.326691 -0.4471808 -0.06053374 -0.8923931 7431520 male
-2.415275 -0.2057191 -1.368304 0.9837964 0.1743193 0.04192442 2434342 male
-2.391221 0.5597423 -1.370304 0.3179039 0.5372404 -0.7812235 8946039 male
-2.460191 0.7239674 -1.368034 0.5128651 -0.5468968 -0.6617201 14535356 male
-2.699648 0.6753061 -1.158642 -0.1668072 0.16614 0.9718916 8813685 male
-2.511878 0.1619513 -1.311388 0.9665841 0.2426136 -0.08278912 2565673 male
-2.4882 -0.02077192 -1.331705 0.8882043 0.09353455 0.4498273 3158066 male
-2.793525 -0.07421447 -1.342494 -0.7702256 -0.02366848 -0.6373323 3223348 male
-2.528497 0.6137017 -1.195762 0.6421863 0.1013584 0.7598181 10654086 male
-2.575183 0.4930077 -1.181777 0.344732 -0.2985411 0.8899626 7827307 male
-2.948364 0.6732547 -1.211586 -0.5712315 0.7082559 0.4148111 16774123 male
-2.447805 0.8836309 -1.287255 -0.1043738 0.9901671 -0.0931409 4800573 male
-2.676339 0.1935217 -1.150074 0.01366809 -0.1216876 0.9924746 11905701 male
-2.378418 0.7821083 -1.280865 0.9193583 -0.3774442 -0.1109805 3947060 male
-2.783725 -0.1236351 -1.36201 -0.007891178 -0.5942433 -0.8042467 3948098 male
-2.750078 0.6954045 -1.220003 -0.02640595 0.9481578 -0.3167008 5921106 male
-2.785792 0.1060539 -1.215748 -0.758225 -0.08337577 0.6466402 2170657 male
-2.664139 0.2168027 -1.149536 0.1537291 0.01969285 0.9879169 10063496 male
-2.691549 0.6306463 -1.259403 -0.9446179 -0.1632557 -0.284684 5525324 male
-2.598768 0.2560299 -1.177219 0.286259 0.2489138 0.9252557 10130578 male
-2.750816 -0.2325815 -1.279399 0.8057353 -0.3592991 -0.4708447 1973537 male
-2.521522 0.2236686 -1.292208 0.9825596 0.1776776 0.05483985 4077878 male
-2.705879 0.3385352 -1.34611 -0.720687 -0.04209467 -0.6919816 6116687 male
-2.411657 0.3455831 -1.527304 -0.8485135 -0.2854901 -0.4455565 8551030 male
-2.37421 0.8088984 -1.239891 0.9628394 -0.04393011 0.2664787 4340793 male
-2.494814 0.008161475 -1.309887 0.8735083 0.00406358 0.4867926 2301987 male
-2.461695 0.6362758 -1.284422 0.7365398 0.4887626 -0.4675687 4933187 male
-2.601505 0.6789834 -1.248447 0.06299059 0.919486 -0.3880433 4407099 male
-2.729612 0.1415891 -1.170703 -0.3703983 -0.2999049 0.879126 3158840 male
-2.527616 0.2194653 -1.325505 0.8836338 0.2734677 -0.3800092 5591373 male
-2.7688 -0.4236461 -1.205262 0.6385224 -0.7367233 0.2225488 1842204 male
-2.827008 -0.1731101 -1.249834 -0.7854636 0.2054604 0.5838093 2697257 male
-2.746073 0.3657312 -1.272998 -0.9759688 0.1356346 -0.1705535 3552559 male
-2.610697 0.1274243 -1.205565 -0.3271783 -0.7711299 0.5461806 3486774 male
-2.803723 -0.4336198 -1.199558 0.133422 -0.9610921 0.2418692 526600 male
-2.693156 0.7115158 -1.225626 -0.4224145 0.676792 -0.6029251 6643802 male
-2.334456 -0.4420751 -1.354952 0.2629653 -0.9116597 0.3157939 526344 male
-2.7748 -0.2519287 -1.28741 0.4637666 -0.4253472 -0.7771747 2500910 male
-2.795547 -0.386834 -1.104582 0.1681469 0.1710847 0.9708022 5988453 male
-2.420318 0.3722335 -1.491174 -0.9895011 0.1211287 0.07883823 16374744 male
-2.358484 0.482704 -1.567757 0.9675236 0.01949264 0.2520285 15519683 male
-2.458732 0.5428876 -1.367055 0.0482944 -0.259472 -0.9645424 4802112 male
-2.408572 0.8766578 -1.280991 0.4592108 0.8875642 -0.03681394 10786699 male
-2.641828 0.5698594 -1.342563 -0.1429253 0.2812243 -0.9489393 12232080 male
-2.547946 0.6000728 -1.347547 -0.1264945 0.5113667 -0.8500021 9736844 male
-2.813459 -0.2204488 -1.22536 -0.5899072 0.1207884 0.7983859 2499881 male
-2.602207 0.2578398 -1.357784 0.08823913 -0.0283697 -0.9956955 7038307 male
-2.389788 0.5060253 -1.436289 0.3332552 0.8480882 -0.4119315 15980489 male
-2.50281 0.6846085 -1.24254 0.2306199 -0.1624935 0.9593803 16240071 male
-2.445121 -0.264797 -1.388755 -0.1533611 -0.4646016 -0.8721388 2565671 male
-2.558545 0.3104691 -1.215409 0.4274471 0.4135419 0.8039107 8221807 male
-2.357032 0.4051158 -1.571022 0.7280053 -0.1364428 -0.6718572 16574436 male
-2.396524 0.5736765 -1.364152 0.2034487 0.5466592 -0.8122637 7565675 male
-2.43071 -0.2689037 -1.386867 0.230278 -0.3731108 -0.898755 2434600 male
-2.743681 0.08052491 -1.341696 0.004871458 0.01315118 -0.9999018 4013896 male
-2.450031 -0.1271013 -1.359943 0.6158162 0.5749569 0.5386978 2105893 male
-2.541986 -0.07166249 -1.422122 -0.5687042 -0.3915186 -0.7233872 2434093 male
-2.434546 0.8752521 -1.318931 0.04946342 0.9116601 -0.4079575 12168099 male
-2.521595 0.3006152 -1.245035 0.8210719 0.4129293 0.39412 6642521 male
-2.577262 0.6929014 -1.213763 -0.000207305 0.9798595 0.1996883 6183765 male
-2.38228 0.5214068 -1.304308 0.7655091 -0.4000128 0.5039703 9668994 male
-2.692167 -0.01149323 -1.295733 0.913408 -0.1845878 -0.3627853 1974049 male
-2.889059 0.7461642 -1.33189 0.4015395 0.5947588 0.6964396 15914183 male
-2.704608 0.3909858 -1.340037 -0.7455935 0.1603926 -0.6468112 5919307 male
-2.747689 -0.1929532 -1.297929 0.7888805 -0.1896055 -0.5845661 2368550 male
-2.45764 -0.1055613 -1.422291 0.8965 0.2823732 -0.3413991 2698288 male
-2.823472 -0.2523658 -1.2829 -0.7994093 -0.4151187 -0.4343057 2039327 male
-2.402881 0.8069861 -1.348251 0.7619129 -0.0149663 -0.6475067 12889765 male
-2.466661 -0.1281887 -1.348455 0.2325033 0.556235 0.7978377 2565929 male
-2.71376 -0.005744094 -1.226143 0.4887073 -0.2943945 0.8212779 3749945 male
-2.426923 0.602186 -1.319337 0.35473 0.9289815 -0.1056407 4932930 male
-2.744624 -0.1425249 -1.288914 0.9745215 0.2076632 0.08476102 1711135 male
-2.810891 -0.3691007 -1.155203 -0.7573735 0.1507146 0.6353511 2763314 male
-2.381187 0.5764688 -1.34465 0.7169115 0.6414664 -0.2730549 7038307 male
-2.488455 -0.2444731 -1.359194 -0.8719283 -0.4795833 0.0986976 1775131 male
-2.901174 0.6638122 -1.232229 0.9952416 0.09314234 0.02861428 16702669 male
-2.600515 0.555935 -1.349887 -0.4173793 0.2639016 -0.8695693 16373674 male
-2.75532 -0.2613208 -1.261755 0.857628 -0.3249048 -0.3986368 2235938 male
-2.61604 0.3588522 -1.198833 0.3882254 -0.1155372 0.9142935 10459023 male
-2.484397 0.8410876 -1.205133 -0.5643313 0.4511977 0.6913401 4471612 male
-2.451578 0.527451 -1.335852 -0.2273296 -0.6295367 -0.7429703 1052688 male
-2.484726 0.8620671 -1.231071 -0.5446396 0.7493308 0.3766578 3551278 male
-2.468392 0.8096254 -1.356325 -0.4593535 0.8067482 -0.3716877 13086630 male
-2.552941 -0.09696632 -1.373 -0.7455239 -0.4494653 0.4921131 2499878 male
-2.452292 -0.151987 -1.3405 0.4106754 0.4131653 0.8127979 2565932 male
-2.568171 0.3758861 -1.365284 0.2865922 -0.1868025 -0.9396649 5722703 male
-2.585906 0.3947374 -1.201853 0.09115189 -0.1555234 0.9836179 8551031 male
-2.480674 -0.02900531 -1.372426 0.971575 0.1742233 -0.1602767 2368300 male
-2.756189 0.1629626 -1.184672 -0.635439 -0.04173473 0.7710224 2565935 male
-2.401064 0.8026661 -1.198784 0.6100319 -0.0890229 0.7873603 4406587 male
-2.528122 0.7927691 -1.33454 -0.8498996 0.4040275 -0.3382792 15784911 male
-2.690043 0.148128 -1.332898 0.2791274 -0.1516459 -0.9482045 3092788 male
