# .PCD v0.7 - Point Cloud Data file format
VERSION 0.7
FIELDS x y z normal_x normal_y normal_z rgb label
SIZE 4 4 4 4 4 4 4 4
TYPE F F F F F F U U
COUNT 1 1 1 1 1 1 1 1
WIDTH 252
HEIGHT 1
VIEWPOINT 0 0 0 1 0 0 0
POINTS 252
DATA ascii
1.151725 0.3556644 -1.177957 0.332812 0.2399039 0.9119661 9078164 male
1.266668 0.3876978 -0.9752541 0.3604496 0.807972 -0.4661087 4672079 male
1.571748 0.440692 -1.067405 0.3094504 0.4585684 0.8330399 526600 male
1.267152 0.225097 -1.006335 0.6342827 -0.72687 0.2633351 9409952 male
1.161186 0.3971359 -1.174203 0.4958206 0.1072808 0.861773 9802915 male
1.512538 0.4634352 -1.13971 0.4478471 0.7952749 -0.4086203 5133662 male
1.16813 0.1471581 -1.213644 -0.4296207 -0.8936236 -0.1298575 7565691 male
1.269616 0.1394149 -1.23453 0.1934198 -0.7755209 -0.6009627 8488858 male
1.266264 0.7357523 -1.297954 0.256315 0.02723777 -0.9662094 11906226 male
1.519596 0.4716654 -1.082202 -0.5071759 0.41588 0.7548619 526600 male
1.417983 0.3147377 -0.7578434 0.71306 0.6130219 -0.3402199 526600 male
1.337235 0.7497595 -1.226014 0.9971912 0.07054743 -0.02515829 15449278 male
1.202806 0.3878438 -1.375931 0.7165993 -0.2301542 -0.6584181 9997710 male
1.211392 0.3219104 -1.203479 0.6391189 0.7691026 0.002856553 12302539 male
1.075051 0.1967809 -1.148344 -0.7977493 -0.5457802 0.256359 6252400 male
1.279654 0.4193824 -0.8881376 0.3265864 -0.848928 -0.4155267 855309 male
1.444918 0.2886945 -1.180425 0.7261024 -0.2905129 -0.6231995 6515059 male
1.030278 0.6319354 -1.147153 -0.5881076 0.6527154 0.4775899 7301752 male
1.420315 0.2313655 -0.7034164 0.003655761 -0.9938492 0.1106818 526600 male
1.120843 0.6139244 -1.1817 0.7633927 0.5118139 0.3940534 15590647 male
1.221058 0.6178582 -1.243747 0.1859074 -0.8454216 0.5007004 12560806 male
1.210427 0.3476562 -1.049001 0.07124585 0.9019282 -0.425969 6448758 male
1.648847 0.2750981 -0.8746395 -0.5663418 0.1022607 0.8178018 526600 male
1.035961 0.46148 -1.599281 -0.6509991 -0.7574823 0.04920077 2960690 male
1.571006 0.3548016 -1.098787 0.1044056 -0.6794059 -0.7262968 526600 male
1.103175 0.4544813 -1.404167 -0.6016909 -0.1228651 -0.7892225 9144467 male
1.072967 0.6116806 -1.291736 -0.5377428 0.6434236 -0.5448291 14078950 male
1.086524 0.5292974 -1.156962 -0.2866868 -0.7219921 0.6297127 526600 male
1.55679 0.4044113 -1.047394 -0.133206 0.3395832 0.9310958 526600 male
0.9116549 0.2712363 -1.091672 -0.7982768 -0.5958787 0.08765122 7102815 male
1.090274 0.1771619 -1.158768 -0.6948671 -0.7184228 0.03206736 12633038 male
1.535159 0.2469937 -0.7514399 0.9883322 -0.108315 0.1070863 526600 male
1.27225 0.4793488 -0.7855722 -0.3756415 0.1452076 0.9153186 526600 male
1.00327 0.6141972 -1.178198 -0.7485932 0.6403638 -0.1718793 6775664 male
1.284594 0.6386423 -1.214908 0.7132549 -0.5295126 0.4592207 13543067 male
1.162273 0.6206822 -1.437895 -0.5487895 0.6819977 -0.4834349 8878205 male
1.143744 0.3134859 -1.034123 -0.832076 0.5097788 0.218575 1117449 male
0.9990075 0.5722625 -1.204845 -0.355723 -0.0359787 -0.9338987 15512755 male
1.459237 0.3136355 -1.176899 0.6760225 -0.243837 -0.6953682 3223604 male
1.098 0.4699667 -1.400147 -0.6660541 -0.06033463 -0.7434593 7959937 male
1.104327 0.546225 -1.404787 -0.6587377 0.3031002 -0.688618 12697039 male
1.087469 0.4642673 -1.62922 0.2891095 -0.2331956 -0.9284587 14002348 male
1.18477 0.727024 -1.287524 -0.5697151 0.1230721 -0.8125749 12166825 male
1.195473 0.2062042 -1.31778 0.03379017 -0.5425624 -0.8393357 6446955 male
1.232726 0.7604142 -1.157004 -0.1999737 -0.01557836 0.9796774 12431281 male
1.43371 0.3234213 -1.194028 0.5413087 0.1778487 -0.8217997 4343114 male
1.192334 0.5523752 -1.487103 0.8950689 0.1353912 -0.4248774 15379880 male
1.162889 0.5664769 -1.416481 -0.6741011 0.03907588 -0.7376047 4145217 male
1.153767 0.2224881 -1.316579 -0.436596 -0.420202 -0.7954962 9275287 male
1.231963 0.4983768 -1.374467 0.4762853 -0.6877258 -0.5478918 723207 male
1.055274 0.3329904 -1.300087 -0.5963 -0.3877826 -0.7028875 9405847 male
1.596896 0.3830763 -1.044435 0.4817458 0.4702285 0.7394633 526600 male
1.138966 0.2988421 -1.095639 -0.5113025 0.8397008 -0.1829544 4869467 male
1.224932 0.253334 -1.326279 0.3249733 0.04793789 -0.9445074 4802641 male
0.9880739 0.5198189 -1.165807 0.6059216 -0.7585601 -0.2396782 4474188 male
1.170373 0.7321 -1.201825 -0.8176192 -0.1919144 0.542833 11708329 male
1.278444 0.3876197 -0.8964371 0.3898021 -0.9154696 -0.09984832 2895926 male
1.454326 0.2453294 -0.7081409 0.6630276 -0.7483867 -0.01765597 526600 male
1.215565 0.6083686 -1.339627 0.768414 0.6234189 0.1445298 12696265 male
1.310082 0.2013646 -1.260156 0.4948125 -0.07287059 -0.8659391 4343114 male
1.119952 0.2832824 -1.066858 -0.8423654 0.453566 0.2910299 3750976 male
1.665492 0.277777 -0.9912958 -0.7501757 0.3278615 0.5742328 526600 male
1.560684 0.5013297 -1.127866 0.8946766 0.349948 0.2776514 526600 male
1.212584 0.1409852 -1.247212 -0.0432649 -0.8751575 -0.4818999 8357267 male
1.207312 0.1511634 -1.077615 0.4536166 -0.723107 0.5209109 12566735 male
1.701682 0.2200092 -1.012737 -0.1378602 -0.9478824 0.2872516 526600 male
1.230864 0.6271721 -1.42178 0.3994365 0.9081647 -0.1252489 8288642 male
1.486407 0.2184312 -0.7403659 0.4430498 -0.8400301 0.3131395 526600 male
1.589456 0.3643218 -1.09771 0.5685591 -0.5125833 -0.6434275 526600 male
1.680466 0.2519481 -1.032956 0.2901935 -0.2722448 -0.917426 526600 male
0.9183204 0.5340355 -1.155213 0.7525793 -0.2197856 0.6207405 14527667 male
0.8430052 0.4277986 -1.186756 -0.2963576 -0.545616 -0.7838848 1183499 male
1.146251 0.5653874 -1.168002 0.6331961 0.3901296 0.6684771 11971775 male
1.321797 0.7851096 -1.243771 0.8064303 0.4983594 -0.318289 526600 male
1.12977 0.6336364 -1.213683 0.3502252 0.556883 0.7531425 8683404 male
1.182833 0.1401372 -1.19177 -0.2816842 -0.9570007 0.06930853 5199457 male
1.549103 0.4705951 -1.076068 0.1430224 0.5333412 0.8337216 526600 male
1.1108 0.3126493 -1.129052 -0.1763903 0.910737 0.3734227 6906473 male
0.9091329 0.2672907 -1.143093 0.3592752 -0.7999349 -0.4806512 10128530 male
1.32723 0.7731007 -1.199822 0.8447028 0.3544207 0.4010775 789516 male
1.31123 0.3882321 -0.7749141 -0.4086404 -0.1822444 0.8943153 526600 male
1.06742 0.208332 -1.199165 -0.7382882 -0.6006852 -0.3067701 11512765 male
0.8559054 0.5272273 -1.150681 -0.01627693 0.3640273 0.9312461 14988202 male
1.049442 0.557992 -1.146494 0.5875514 -0.6318847 0.5054751 14073283 male
1.296967 0.380818 -0.78739 -0.6625179 -0.3904514 0.6392321 526600 male
1.447465 0.4195057 -1.10162 -0.4189663 0.5927299 0.6878507 527376 male
1.236933 0.3524755 -0.8933807 -0.6159789 -0.4753195 0.6282048 1052432 male
1.288294 0.4822585 -0.8689107 0.5155888 0.8541583 0.06768866 723467 male
1.322967 0.7338467 -1.263785 0.8051528 -0.04927345 -0.5910171 14927566 male
1.091267 0.1998926 -1.112856 -0.7837358 -0.3607104 0.5056146 2699064 male
1.152225 0.6520121 -1.336816 -0.3610626 0.9132741 -0.1885845 10064545 male
0.9868941 0.5633283 -1.129532 -0.04238787 0.302916 0.9520741 15511467 male
1.3971 0.3729008 -1.142791 -0.3812505 0.9239197 -0.03194419 2171428 male
1.19267 0.3371258 -1.547511 0.402707 0.9114566 0.08410662 16238544 male
1.074937 0.4484893 -1.160372 -0.2399483 0.05469888 0.9692434 527368 male
1.613743 0.3591692 -1.038533 0.8060386 0.3849255 0.4495933 526600 male
1.210738 0.3255482 -0.923778 -0.6808937 -0.1497665 0.7169055 4211528 male
1.476347 0.4529102 -1.107313 -0.296038 0.6445441 0.7049286 657674 male
1.30705 0.704034 -1.181753 0.4952825 -0.3171876 0.8087566 14594477 male
1.232231 0.3397477 -0.900519 -0.6294198 -0.4001213 0.6661333 526859 male
1.297903 0.1647022 -1.106938 0.02029267 -0.3244166 0.9456966 3554110 male
1.172511 0.4609385 -1.186168 0.7912073 -0.1985166 0.5784307 13946852 male
1.581658 0.4677909 -1.088089 0.4648085 0.4871377 0.7393577 526600 male
1.6771 0.2843914 -1.022838 0.8083498 -0.1447233 -0.5706363 526600 male
1.019628 0.5877311 -1.132279 -0.1153407 0.1665711 0.9792602 14005177 male
1.329541 0.4584867 -0.7995949 0.7995913 0.4817802 0.3585269 526600 male
1.130399 0.458796 -1.584245 0.7689762 0.6286544 -0.1160565 15383225 male
1.241159 0.4464554 -1.305203 0.9508442 -0.3095787 0.007501572 8288391 male
1.578208 0.4299915 -1.063702 0.3452855 0.4486267 0.8243252 526600 male
1.083472 0.5680467 -1.345385 -0.8543512 0.4585244 -0.2446207 15394551 male
1.241774 0.8320539 -1.26095 -0.01001251 0.8738142 -0.486157 7433073 male
1.059093 0.5961832 -1.124249 0.09505522 -0.407948 0.9080435 15130862 male
1.276755 0.8174484 -1.263426 0.4056595 0.7401393 -0.5363154 5262410 male
1.272819 0.7184148 -1.29775 0.2840464 0.06119213 -0.9568559 15317168 male
1.297496 0.4515809 -0.8816023 0.5113353 -0.5280445 -0.6780157 526344 male
1.238592 0.4681026 -0.8299566 -0.9580438 -0.2119432 0.1929569 526600 male
1.081248 0.3427237 -1.157889 -0.1804423 0.3100666 0.9334341 10327197 male
1.02793 0.5402743 -1.296225 -0.7654283 0.2127593 -0.6073327 9144729 male
1.195929 0.2598379 -0.9602696 -0.5013999 -0.4490566 0.7395582 3817802 male
1.255525 0.2402361 -1.231666 -0.1844328 0.7936095 -0.5798004 6844029 male
1.222592 0.8150675 -1.176756 -0.3254771 0.6283096 0.7066059 526344 male
1.311656 0.6457003 -1.235165 -0.3256735 -0.8759443 0.355891 11501179 male
1.351353 0.3337306 -1.186821 -0.3166437 0.8627104 -0.3942936 6845056 male
1.196203 0.3325689 -1.222289 0.8076575 0.474098 0.3506 11512256 male
1.662736 0.2325337 -1.025927 -0.9645944 -0.2607495 -0.0395903 526602 male
-2.552909 0.3708941 -1.439455 0.8237114 -0.4667586 -0.3219257 6248018 male
-2.579821 0.05140758 -1.390685 0.4787461 -0.1736748 -0.8606042 4079942 male
-2.71039 -0.03563054 -1.429944 0.8378944 -0.1668188 -0.519716 3223609 male
-2.605461 0.1086894 -1.263697 0.2979747 -0.1742256 0.9385397 2565671 male
-2.535209 0.3969986 -1.453551 0.8228191 -0.4629261 -0.329649 5854032 male
-2.747853 -0.1796396 -1.405269 0.8301048 -0.05611143 -0.5547773 3026996 male
-2.756673 0.3797135 -1.468082 -0.7996402 -0.08576902 -0.5943227 3222569 male
-2.510379 0.4949631 -1.501562 0.5604001 -0.4036836 -0.7231816 7695465 male
-2.517391 0.7592369 -1.601963 -0.5237652 -0.1427527 -0.8398166 6839640 male
-2.713852 0.08050962 -1.454697 0.7270859 -0.1043493 -0.6785702 3554116 male
-2.579762 -0.3499067 -1.338847 -0.4113122 0.3062955 -0.8584902 1776929 male
-2.428253 0.7933947 -1.622354 0.398317 0.2315186 -0.8875489 16308431 male
-2.74739 0.4274451 -1.483397 -0.8769947 -0.01847581 -0.480145 3157034 male
-2.632651 0.3154046 -1.472915 0.3920556 -0.5502709 -0.7372208 7696229 male
-2.642567 0.3744763 -1.294914 -0.103735 0.6916137 0.7147794 8221292 male
-2.656459 -0.1540934 -1.299769 -0.9950303 0.0839994 -0.05346936 2170145 male
-2.804421 0.0411522 -1.436421 -0.8395717 -0.2980325 -0.4541984 2039588 male
-2.403875 0.6736923 -1.469372 0.1175821 0.9644527 -0.2366547 5722703 male
-2.507008 -0.4594829 -1.340072 -0.1192908 -0.992179 -0.03674819 526600 male
-2.453182 0.5553095 -1.415384 0.6126446 -0.7349174 -0.2907975 526344 male
-2.551033 0.6677408 -1.568513 -0.09397572 -0.2791117 -0.9556493 16575716 male
-2.640376 0.1374473 -1.40148 -0.2009952 -0.103148 -0.9741467 2170403 male
-2.643657 -0.462028 -1.469172 -0.1980532 -0.9702854 -0.1390013 1052688 male
-2.521624 0.7285078 -1.832431 0.7180576 -0.6472092 -0.2559568 14205372 male
-2.750096 -0.2436471 -1.391981 0.8920981 -0.1138437 -0.4372652 2499884 male
-2.664134 0.6646243 -1.449422 -0.3034694 0.686555 0.6607183 3223601 male
-2.593019 0.6442135 -1.396043 -0.5215713 0.6455588 0.5578685 10327439 male
-2.500366 0.4885374 -1.37206 0.8351129 -0.3502035 0.4241983 2894378 male
-2.719775 -0.08493815 -1.382313 0.9503628 -0.3111103 0.004599154 2697257 male
-2.318515 0.6084526 -1.490381 0.5701157 -0.6040941 0.5568111 7235685 male
-2.719724 0.3265024 -1.289431 -0.3962582 0.4973095 0.771792 10130321 male
-2.54997 0.6303914 -1.541751 0.3764343 -0.4852296 -0.7892083 7695463 male
-2.563774 -0.1516759 -1.315999 0.9667451 0.142076 -0.2126464 3355958 male
-2.366423 0.6630121 -1.5164 -0.3170083 0.8450337 -0.4306086 9209467 male
-2.402329 0.6954274 -1.601395 0.9678748 -0.1337456 -0.2129105 11373196 male
-2.691446 0.6451778 -1.604309 -0.8915757 -0.002671781 -0.4528642 5263438 male
-2.552533 0.180996 -1.308147 0.9443664 0.03314443 0.3272215 3224625 male
-2.441593 0.5613898 -1.402032 0.6565524 -0.7279882 0.1974135 1315092 male
-2.745691 -0.001351862 -1.450697 0.0598208 -0.2402346 -0.9688699 3816515 male
-2.674534 0.6547934 -1.441749 -0.3101992 0.6674588 0.6769604 9078402 male
-2.644285 0.6090734 -1.393963 -0.3130816 0.4949539 0.8105559 9011835 male
-2.534832 0.8213405 -1.848796 -0.3191624 0.8448672 0.4293424 14731703 male
-2.543471 0.7025664 -1.571064 -0.5938939 0.06550504 -0.8018724 10390405 male
-2.776705 0.2661421 -1.293043 -0.4643451 0.1070154 0.8791653 11905701 male
-2.416521 0.7986555 -1.503625 0.771459 0.1010744 0.6281999 5919050 male
-2.748772 -0.0616133 -1.444529 -0.1402327 -0.1644663 -0.9763635 3618878 male
-2.570132 0.7086004 -1.660164 0.7957836 0.4273281 0.4290915 8025714 male
-2.608922 0.656606 -1.666515 0.5029334 -0.8371912 -0.2148694 3486512 male
-2.749353 0.2868397 -1.28621 -0.4086128 0.2317898 0.882785 9208443 male
-2.719527 0.5359759 -1.530275 -0.5915288 -0.04046562 -0.805268 2762792 male
-2.6758 0.3163145 -1.261426 -0.2507758 0.4406703 0.8619289 9406855 male
-2.71022 0.001370189 -1.434956 0.7714828 -0.1160098 -0.6255848 3816514 male
-2.573498 0.2020762 -1.276673 0.7443303 0.04232314 0.6664693 2697257 male
-2.782317 0.3092223 -1.466354 -0.4772818 0.1693445 -0.8622788 3750455 male
-2.25364 0.6490326 -1.595244 -0.5719641 0.4843374 -0.6620231 16376798 male
-2.491293 0.7676193 -1.464529 -0.0112485 -0.1215291 0.9925243 5524040 male
-2.653476 -0.04017954 -1.291155 -0.7092358 -0.1582943 0.6869701 3157815 male
-2.569726 0.6848297 -1.436618 -0.2156123 0.8984647 0.3824559 9538433 male
-2.616956 0.6203279 -1.578796 0.7824843 0.1218653 -0.6106286 7036506 male
-2.82229 0.2666154 -1.414282 -0.9639513 0.1521335 -0.2182969 4538425 male
-2.56148 0.2233653 -1.295981 0.8831699 0.07677992 0.4627267 2368808 male
-2.788984 -0.4298283 -1.414527 0.8334667 -0.4958578 0.2438413 1053456 male
-2.797476 -0.1098829 -1.337471 -0.5268413 0.2959125 0.79679 2763050 male
-2.739927 0.3743401 -1.483609 -0.5809139 -0.1340851 -0.8028453 3552559 male
-2.692327 0.1716798 -1.265541 -0.6323652 -0.469825 0.6159374 3684152 male
-2.781995 -0.4582818 -1.442643 0.1272262 -0.9863486 0.1045463 526600 male
-2.675735 0.7090375 -1.595903 -0.5282968 0.8182971 0.2264782 9801093 male
-2.575972 -0.3894865 -1.341624 -0.7632093 0.06296822 -0.6430761 2170913 male
-2.753432 -0.2247853 -1.406247 0.7758405 -0.1249908 -0.6184249 2632496 male
-2.799942 -0.3652849 -1.357023 0.7475304 0.09790782 0.6569723 2302245 male
-2.290653 0.6294527 -1.565532 -0.2281656 -0.5919257 -0.773023 15716302 male
-2.123185 0.7581993 -1.628934 -0.628509 0.7493373 0.2084949 16772826 male
-2.443112 0.564979 -1.460018 0.8020372 -0.4773401 -0.3590026 5065285 male
-2.502037 0.8584048 -1.567863 -0.3158069 0.873769 -0.3698564 3485741 male
-2.613016 0.5345055 -1.566895 0.3430493 -0.1838773 -0.9211441 8222574 male
-2.715861 0.3730425 -1.496366 -0.3275227 -0.2097787 -0.9212611 5130566 male
-2.825674 -0.1486847 -1.358316 -0.975148 0.115011 0.1893653 2499113 male
-2.555948 0.3018991 -1.363791 0.9312938 0.1103094 -0.3471653 5723215 male
-2.28904 0.661805 -1.507651 0.3843991 0.4620589 0.7992116 16770264 male
-2.495147 0.7184708 -1.48454 0.004239082 -0.2288261 0.9734582 7628389 male
-2.563682 -0.2549526 -1.30406 0.995073 -0.09881965 0.008042336 2565418 male
-2.656162 0.3171051 -1.258317 -0.03454211 0.3804561 0.9241538 9405823 male
-2.174805 0.6838892 -1.565662 0.4109805 0.1931062 0.8909576 16771552 male
-2.390537 0.6429088 -1.42715 0.4026547 0.4367025 0.8044627 10263188 male
-2.578016 -0.2092714 -1.338642 0.4533432 -0.03765858 -0.8905404 2434091 male
-2.701188 0.07243618 -1.429048 0.943343 -0.09538442 -0.3178146 2500649 male
-2.617072 -0.09512416 -1.271914 0.003498763 0.2816249 0.9595183 2630697 male
-2.597051 -0.04484947 -1.378857 0.3838666 -0.1003861 -0.9179157 3882819 male
-2.405887 0.8209177 -1.592144 0.7476934 0.4790359 -0.4598688 9669251 male
-2.612585 0.2984943 -1.264599 0.4626485 0.100068 0.8808762 6775394 male
-2.64383 0.70118 -1.503911 -0.1975507 0.9791417 0.04749162 6183254 male
-2.369835 0.6706994 -1.471212 0.3304059 0.9002736 0.2834421 11575697 male
-2.700274 0.01035434 -1.393032 0.9942997 -0.06058472 0.08773831 2369064 male
-2.470495 0.9232295 -1.990359 -0.7559296 0.6455398 -0.1088537 16242638 male
-2.761044 0.3390578 -1.468238 -0.3310991 0.3602698 -0.872112 3354926 male
-2.706591 -0.01095768 -1.426019 0.8874085 -0.1170192 -0.4458845 3027254 male
-2.570155 0.0459381 -1.301999 0.7317678 -0.2333894 0.6403481 2433829 male
-2.810575 -0.1781321 -1.408044 -0.6950495 -0.04615621 -0.717479 1907998 male
-2.395477 0.7497911 -1.536685 0.9008921 0.02530639 0.4333053 15257024 male
-2.594018 -0.1066056 -1.273086 0.5128356 0.3246423 0.7947373 1711650 male
-2.707099 0.1302267 -1.343048 0.7593421 -0.09374226 0.6439039 2368292 male
-2.431962 0.6667587 -1.437578 0.02030817 0.9788033 0.2037931 5656910 male
-2.825519 -0.1934248 -1.367292 -0.9923463 -0.1204163 0.02736485 2499878 male
-2.84772 -0.4253908 -1.390068 -0.9959608 0.05959336 -0.06716269 2171173 male
-2.384535 0.6402514 -1.430244 0.4323745 0.377205 0.819005 9867918 male
-2.627082 -0.1276318 -1.342835 -0.3664756 -0.3064721 -0.8785049 2697257 male
-2.535219 0.816455 -1.899117 -0.7586539 0.127708 -0.6388545 16375770 male
-2.582031 0.5030869 -1.530633 0.6786327 -0.261605 -0.6863096 16245433 male
-2.760967 -0.3092294 -1.375434 0.9839585 0.004102914 0.178351 2499878 male
-2.746308 0.3975703 -1.36701 -0.6413416 0.3527021 0.6813828 10853012 male
-2.543962 0.8307895 -1.561331 -0.8170629 0.4623015 -0.3445081 5130566 male
-2.406181 0.6553504 -1.423631 0.2249059 0.6956369 0.6822806 12497837 male
-2.552151 0.7634069 -1.551237 -0.9623509 -0.1414943 -0.232078 4077878 male
-2.49743 0.7531565 -1.617513 -0.5522835 -0.005344838 -0.8336394 11443093 male
-2.657464 -0.03472248 -1.29449 -0.7424872 -0.1730028 0.6471347 2828851 male
-2.636922 -0.1299975 -1.265468 -0.5491541 0.220053 0.8062299 2763825 male
-2.531734 0.3931004 -1.402724 0.9040323 -0.4085069 0.1258895 4472636 male
-2.612538 0.6143294 -1.377237 -0.580403 0.5280156 0.6199453 8747893 male
-2.569755 0.1111921 -1.283176 0.6936415 -0.1217013 0.7099651 2237222 male
-2.816968 0.2877263 -1.424056 -0.9528797 0.1477901 -0.2649126 4537917 male
-2.536751 0.8039211 -1.485823 -0.7197291 0.2203958 0.6583433 10195339 male
-2.392359 0.7237721 -1.618094 0.8857422 -0.463911 0.015733 14664897 male
-2.769172 0.1251071 -1.478359 -0.1904524 -0.06067541 -0.9798198 2829875 male
-2.716025 0.2402741 -1.455518 0.2534263 0.05010412 -0.9660565 7828594 male
-2.844613 -0.4456772 -1.433339 -0.8649017 -0.4875367 0.1193872 1579549 male
-2.586283 0.7602692 -1.77777 -0.8255677 0.5538716 0.1080024 16772062 male
-2.683788 0.03893188 -1.343381 -0.9284252 -0.2157744 -0.3024373 2303014 male
