# .PCD v0.7 - Point Cloud Data file format
VERSION 0.7
FIELDS x y z normal_x normal_y normal_z rgb label
SIZE 4 4 4 4 4 4 4 4
TYPE F F F F F F U U
COUNT 1 1 1 1 1 1 1 1
WIDTH 246
HEIGHT 1
VIEWPOINT 0 0 0 1 0 0 0
POINTS 246
DATA ascii
1.408163 0.9177553 -0.7797745 -0.3730484 -0.4438931 0.8147354 5196623 male
1.465667 0.6362782 -0.7789856 0.9628549 -0.05646264 -0.2640501 3355187 male
1.660687 0.4289139 -0.8760822 -0.0489513 -0.2634006 0.9634438 526600 male
1.301788 0.7246067 -0.8811347 -0.8372355 -0.5126951 -0.1902115 3684160 male
1.434222 0.9361036 -0.7468524 -0.6005161 -0.3399537 0.7237485 5329234 male
1.690629 0.5419621 -0.8356165 0.2738322 -0.2503318 0.928628 526600 male
1.561528 0.8892164 -0.9012951 0.4641336 -0.7959245 -0.3886954 9011601 male
1.60275 0.9138741 -0.696214 0.1296311 -0.9214732 0.3661735 15790233 male
1.839082 0.8959913 -0.5988693 0.7757176 -0.2966739 -0.556998 12949651 male
1.563604 0.7514271 -0.9230982 0.6953965 0.59182 0.4076429 6382963 male
1.419264 0.328159 -0.7422813 0.9507957 0.08771642 -0.2971419 526600 male
1.874139 0.9879904 -0.6375014 0.5693076 -0.0520067 -0.8204779 10984351 male
1.550084 0.9620374 -0.9481094 0.5268893 0.1127433 -0.8424231 6512747 male
1.488719 0.8731526 -0.8078737 0.1599988 -0.9058899 0.3921274 11644094 male
1.334936 0.9392005 -0.9112849 -0.6308866 0.6775851 -0.377969 7565691 male
1.461967 0.537271 -0.7304507 0.4997827 0.1386089 -0.8549882 526600 male
1.540481 0.7009782 -1.010587 0.4706876 -0.153999 -0.8687563 4804180 male
1.585497 1.041642 -0.564414 -0.2605231 -0.5643976 0.7833155 9867682 male
1.409576 0.243756 -0.7297176 -0.08202736 -0.9961838 -0.02982449 526600 male
1.602743 1.039005 -0.5659475 0.2753343 -0.1906822 0.9422479 10525096 male
1.71917 0.941354 -0.6359209 -0.5683259 -0.6495089 0.5051175 14201007 male
1.366252 0.7515282 -0.7594447 -0.266659 0.3147492 0.9109478 4276553 male
1.713046 0.2966633 -0.8475075 -0.2417576 0.2892443 0.9262241 526600 male
1.750673 0.574092 -0.7811962 -0.6571257 -0.1627332 0.7360052 11377053 male
1.714884 0.4833865 -0.8783044 0.8718807 -0.4158007 0.2587162 526600 male
1.731102 1.037664 -0.7996669 0.5373918 0.8122612 -0.2268079 13090000 male
1.644068 1.090405 -0.7485759 0.3901104 0.8168326 -0.4249687 13486814 male
1.549316 1.094012 -0.687629 -0.6295825 0.7760225 0.03761467 8618635 male
1.69214 0.5963246 -0.8245592 0.02255994 -0.4209132 0.9068204 526600 male
1.386177 0.9077632 -0.7925029 -0.5563967 -0.4557585 -0.6947711 11240574 male
1.367 0.9291446 -0.9576015 -0.5306715 0.6481795 -0.5461237 6974583 male
1.708358 0.9003556 -0.7460932 0.2025732 -0.7093194 0.6751518 16117240 male
1.397971 0.4941726 -0.6653705 -0.7491484 0.002541276 0.6623973 526600 male
1.522215 1.057159 -0.595556 -0.1710958 -0.4343612 0.8843395 15513790 male
1.770914 0.9094332 -0.5631077 -0.5856852 -0.54445 0.6004558 14265768 male
1.787926 0.8581862 -0.8219362 0.8505709 0.01734892 -0.525574 6446954 male
1.359952 0.8099902 -0.7878977 -0.1015126 0.433548 0.8953945 7303289 male
1.540072 1.103545 -0.652132 -0.02159888 0.6127442 -0.7899862 13016989 male
1.631981 0.660602 -0.932405 0.8571717 0.1765958 -0.4838084 591880 male
1.720841 1.04855 -0.7488116 0.4085734 0.9127201 0.003115311 15000564 male
1.648234 1.061053 -0.8178614 0.08099657 0.9608078 -0.2651188 12367817 male
1.79777 0.5937559 -0.819622 0.7822906 -0.06928303 -0.6190487 12756641 male
1.919446 0.9663885 -0.5853351 0.9443949 -0.1162673 -0.3075711 3223601 male
1.37066 0.9207994 -0.9697523 -0.5655396 0.6046448 -0.560865 11711170 male
1.818293 0.9837804 -0.5002777 -0.4766485 -0.03162021 0.8785251 9735055 male
1.674449 0.6366471 -0.9148244 0.7543001 0.1642649 -0.635648 789515 male
1.737746 0.8247033 -0.7620617 -0.2363246 -0.1967235 0.9515517 10262176 male
1.722231 0.8509156 -0.8133621 -0.9710339 -0.2375724 -0.02554411 526600 male
1.432634 0.8961223 -1.030461 -0.04322979 0.3825624 -0.9229178 6515319 male
1.638045 0.9110842 -0.8808091 0.473611 -0.6709014 -0.5705996 5523020 male
1.307034 0.8997756 -0.9131611 -0.87818 0.4181385 -0.2322931 14871032 male
1.656759 0.4498195 -0.8667805 -0.1588852 -0.3188545 0.9343914 526600 male
1.313626 0.8566691 -0.8202049 -0.7312613 0.1880844 0.6556532 6316648 male
1.527989 0.8836978 -0.9893352 0.8860935 0.1702465 -0.4311083 4999763 male
1.483039 1.065278 -0.6651334 0.2550994 -0.221038 -0.9413111 5065302 male
1.773735 1.032232 -0.5696163 -0.8255806 0.5055422 0.2506867 11708329 male
1.444646 0.5851591 -0.7434239 -0.2300502 -0.1128938 -0.9666084 526600 male
1.708224 1.052389 -0.6508602 0.5825344 0.7153907 0.3858365 6051932 male
1.786433 0.9669793 -0.755033 0.9318753 -0.2115496 0.2947119 6643816 male
1.399495 0.7369099 -1.033664 -0.3045736 -0.7216515 -0.6216543 8685720 male
1.326419 0.840071 -0.8105429 -0.4593619 0.2719343 0.8455994 3421497 male
1.638017 0.3528939 -0.9225574 -0.6777233 -0.01574695 0.7351484 526600 male
1.687786 0.6054326 -0.9133673 0.004037827 0.377912 -0.9258327 526600 male
1.457345 0.8673194 -1.037382 0.2394856 0.196003 -0.9509099 4343122 male
1.418269 0.6430101 -0.8466223 0.4569018 -0.4463412 -0.7694284 2894636 male
1.624838 0.3121281 -0.9934954 -0.1785476 -0.8058659 -0.5645359 526600 male
1.797835 0.8907195 -0.7988068 0.959847 0.2719446 0.06884602 6577772 male
1.410321 0.2898988 -0.7615121 0.8466285 0.01978075 -0.5318164 526600 male
1.688565 0.4134555 -0.9120761 0.846981 -0.2691528 -0.458454 526600 male
1.643954 0.3434447 -0.9744707 0.1170962 0.2610609 -0.958194 526600 male
1.426413 1.083691 -0.6469027 0.4198354 -0.8993636 -0.1219975 12227480 male
1.311814 1.062947 -0.6999522 -0.849306 0.06696301 -0.5236365 12031898 male
1.617553 1.04669 -0.5790485 0.48298 0.1785023 0.857244 7959679 male
1.905924 1.02365 -0.5236914 0.7662376 0.388693 0.5116616 526600 male
1.620024 0.8810681 -0.7554835 -0.1451777 -0.8433468 0.5173873 16446711 male
1.473578 0.9114572 -1.02222 0.2154403 0.3294262 -0.9192735 6973810 male
1.698192 0.5704949 -0.9220611 0.2712722 0.1859819 -0.9443634 526600 male
1.359038 0.8879802 -0.7920652 -0.1609842 0.1948884 0.9675239 2894383 male
1.546917 1.114208 -0.6339824 -0.1799683 0.960701 -0.2113408 16042702 male
1.897148 0.9236069 -0.5316862 0.6498193 -0.5570747 0.51711 526600 male
1.39939 0.4240355 -0.6741911 -0.5563154 -0.1689453 0.8136159 526600 male
1.451558 1.039552 -0.7966615 -0.6749448 0.7376928 0.01609376 7894656 male
1.35043 1.116182 -0.6276126 -0.3561965 -0.1584964 0.9208707 14856872 male
1.571263 1.115087 -0.6002265 -0.2730404 0.9146699 0.2980398 7697280 male
1.389902 0.4453061 -0.6791618 -0.7888905 -0.07501161 0.6099386 526600 male
1.517596 0.6550179 -0.8886086 -0.5087323 -0.2436535 0.8257266 3948356 male
1.415155 0.5951324 -0.7036542 -0.9688751 0.2472596 -0.01198474 526600 male
1.49282 0.5737982 -0.7222381 0.8099951 -0.3597905 -0.4630971 591625 male
1.912125 0.9341677 -0.5711184 0.895658 -0.4203446 -0.1452827 15720414 male
1.346885 0.9657824 -0.8722278 -0.5823305 0.8064248 -0.1028114 10854318 male
1.724691 0.2787837 -0.9028153 -0.3218189 -0.9207829 0.220435 526600 male
1.564239 1.037567 -0.6274205 0.146535 -0.9616719 -0.231764 12630991 male
1.531556 0.7113172 -0.8837975 -0.06008816 0.1925536 0.979445 6514027 male
1.772791 0.4222479 -0.792119 0.8790809 0.2917788 0.3769376 15315131 male
1.474949 0.8702161 -1.03292 0.3581375 0.1425134 -0.9227282 3619398 male
1.63807 0.404712 -0.8982 -0.5019092 -0.1236655 0.8560339 526600 male
1.324708 0.7334046 -0.7848383 -0.7612714 -0.009356194 0.648366 4211278 male
1.649067 0.617166 -0.8870023 -0.8703713 0.2506476 -0.4238271 526600 male
1.86502 0.9337496 -0.5061049 0.1299773 -0.4250902 0.8957702 657673 male
1.410667 0.5987276 -0.7076359 -0.9874648 0.1530631 0.03853366 526600 male
1.44984 0.6693888 -0.9323208 -0.6572196 -0.6025729 0.4527342 4803413 male
1.65245 1.05321 -0.6106059 0.513266 0.2171434 0.8303052 7038315 male
1.720288 0.4985926 -0.8964972 0.9014229 -0.2942822 -0.3175451 526600 male
1.686839 0.3588162 -0.9320282 0.8655759 0.3732546 -0.3338553 526600 male
1.559392 1.096445 -0.5816562 -0.338725 0.4561776 0.8229017 6117983 male
1.477676 0.5142952 -0.680504 0.9320165 -0.3463671 0.1066541 658186 male
1.796951 0.5307392 -0.8046125 0.9371639 -0.03962397 -0.3466319 12030870 male
1.59457 0.9086956 -0.7132764 0.1147016 -0.9778768 0.1749296 16645111 male
1.67169 0.3925734 -0.8916243 0.1518485 0.116965 0.9814587 526600 male
1.470272 1.018777 -0.8854333 -0.3231842 0.8592947 -0.3964399 9999265 male
1.844867 1.068012 -0.5834488 0.04280759 0.9816651 -0.1857444 16643837 male
1.598496 1.097092 -0.5976174 0.04459269 0.8816183 0.4698518 7631484 male
1.846841 1.047119 -0.6222687 0.1834168 0.6832472 -0.7067754 16116461 male
1.848954 0.8892397 -0.5825961 0.3570046 -0.8758171 -0.3247955 16108746 male
1.420938 0.598138 -0.7767222 -0.339287 -0.4203624 -0.8415341 6448492 male
1.427328 0.5667638 -0.7233043 -0.4366992 0.4675249 -0.7685793 526600 male
1.460478 1.019842 -0.7290228 -0.7660152 0.4070195 0.4975498 5263704 male
1.582803 1.063116 -0.8206499 -0.05988345 0.8731596 -0.4837419 12104132 male
1.335793 0.6973332 -0.7763295 -0.7987001 -0.1282714 0.5878984 5857644 male
1.427957 0.7635776 -1.054109 0.04602197 -0.3006662 -0.9526184 8160909 male
1.851599 1.038507 -0.5051079 -0.03232273 0.5844055 0.8108177 526344 male
1.826553 0.9431649 -0.6608452 0.3813809 -0.1180729 -0.9168465 13609893 male
-2.564729 0.5291497 -1.281876 0.9750577 0.0982876 -0.1990033 4143929 male
-2.540628 -0.08781024 -1.371061 -0.9356352 -0.3498251 0.04700464 1776412 male
-2.685213 0.02997299 -1.298418 0.8596936 -0.08855039 -0.5030764 2829615 male
-2.479919 0.1205997 -1.28527 0.9901738 0.1392423 -0.01295787 2170145 male
-2.56199 0.4532771 -1.257026 0.9966392 0.0297881 0.07630938 3092525 male
-2.813265 -0.1478858 -1.283358 -0.9707083 0.147516 -0.1896442 1777185 male
-2.673115 0.6045108 -1.377848 -0.194459 0.1153291 -0.9741074 8092019 male
-2.609871 0.7165001 -1.314625 0.367531 0.9299028 -0.0142059 12499894 male
-2.860088 0.8033998 -1.402102 -0.6792955 -0.4285084 -0.5957671 12035486 male
-2.7392 0.1090519 -1.326684 -0.06785148 0.05523932 -0.9961652 4278095 male
-2.475972 -0.1447129 -1.173417 0.3978755 0.8010023 0.447315 2499884 male
-2.883628 0.8227326 -1.36166 -0.9356693 -0.318914 -0.1510531 4801857 male
-2.729653 0.4253454 -1.162663 -0.1926388 -0.140913 0.9710995 3683120 male
-2.595448 0.3518152 -1.308851 0.5497522 -0.1506138 -0.8216376 8089963 male
-2.585556 0.4978373 -1.204335 0.7235984 -0.02626448 0.6897216 8090479 male
-2.553044 -0.02417983 -1.297314 -0.7463237 -0.2235531 0.6269174 2434085 male
-2.792674 0.09344654 -1.232717 -0.9462972 -0.1108688 0.3036941 1974566 male
-2.531219 0.5756754 -1.382978 -0.3080293 0.3282367 -0.8929607 15189949 male
-2.493038 -0.2285466 -1.11664 0.3517492 0.3203203 -0.8795838 2170913 male
-2.592316 0.5614541 -1.327351 0.8215542 0.1415121 -0.5522891 3355698 male
-2.764114 0.6863171 -1.372526 -0.03267157 -0.5425376 -0.8393961 16773865 male
-2.598948 0.1864094 -1.32291 -0.3442035 0.05546408 -0.9372555 3093303 male
-2.86862 0.4969302 -1.517264 0.8673028 0.2964051 0.3999127 9010296 male
-2.817973 0.3398038 -1.347153 0.5333012 -0.5575245 -0.6362047 10456456 male
-2.823579 -0.3424176 -1.251767 -0.67895 -0.02512867 -0.7337546 2631464 male
-2.68742 0.4598291 -1.168929 0.3488533 0.07861154 0.9338747 8682101 male
-2.684518 0.5872869 -1.18206 0.005481005 0.1573125 0.9875339 7827307 male
-2.780659 0.3577439 -1.263223 -0.9078517 -0.2684291 -0.3221048 3355179 male
-2.681173 -0.008118181 -1.288026 0.932852 -0.1466459 -0.3290633 2303014 male
-2.541481 0.5894862 -1.385649 -0.1969207 0.3510853 -0.9154024 15322560 male
-2.605477 0.2069737 -1.132688 -0.01213664 -0.47235 0.8813276 5000791 male
-2.815773 0.5745194 -1.338598 -0.434858 0.09406535 -0.8955727 6445653 male
-2.468249 -0.1796081 -1.265375 0.1436421 -0.9817288 -0.1248019 2499878 male
-2.557724 0.7021936 -1.331993 0.8575717 0.4789383 -0.1875876 9539200 male
-2.761433 0.7412456 -1.408254 0.8295774 -0.469066 -0.3029501 12366244 male
-2.92477 0.5907694 -1.260065 -0.970728 -0.1477937 -0.1893265 6316376 male
-2.507563 0.2045953 -1.307242 0.8204473 0.3097995 -0.4805111 3683645 male
-2.458444 -0.06990698 -1.377507 0.5742211 0.7501546 0.3279303 2169889 male
-2.758214 -0.07097787 -1.342123 -0.5970381 -0.1534188 -0.7874062 3420984 male
-2.680669 0.4519258 -1.171364 0.244662 0.06372797 0.9675121 8156014 male
-2.755143 0.3240677 -1.15569 -0.5210874 0.349061 0.7788611 6182480 male
-2.859511 0.403712 -1.353861 -0.8819331 0.3754005 0.2850769 14467251 male
-2.886352 0.8745857 -1.369729 -0.936349 0.2621936 -0.2334642 3222825 male
-2.713666 0.6559454 -1.359006 -0.1435699 0.3377648 -0.9302166 7630187 male
-2.757046 0.8833204 -1.36417 0.8751423 0.4244088 -0.2323864 3947060 male
-2.767519 -0.1253306 -1.335594 -0.3893681 -0.3574255 -0.848905 3683385 male
-2.880521 0.586603 -1.291593 -0.04314673 0.112261 -0.9927416 8287347 male
-2.797022 0.1061176 -1.269523 -0.9870637 0.03379818 -0.1567267 2368293 male
-2.680468 0.721292 -1.313138 0.03979512 0.6927351 -0.7200934 4801857 male
-2.835885 0.5377752 -1.313967 -0.6929719 -0.5845622 -0.4219918 5459531 male
-2.612143 0.2484587 -1.127368 0.05963245 -0.0944675 0.9937406 11313305 male
-2.734169 -0.2123228 -1.241417 0.8990082 -0.2827377 0.3344307 2170657 male
-2.528595 0.3015889 -1.21704 0.9418258 0.1832288 0.2817655 4868162 male
-2.677129 0.2680064 -1.320712 -0.3507005 -0.06865678 -0.9339677 8618105 male
-2.498629 0.4763454 -1.375011 -0.832159 0.3032627 0.4642664 16774126 male
-2.776768 0.916017 -1.333176 0.630919 0.7750375 0.03547111 4340793 male
-2.560808 -0.02080599 -1.29796 -0.8392653 -0.2522683 0.4816582 2301987 male
-2.766833 0.6649794 -1.355645 -0.1711476 -0.4253527 -0.8886979 7038563 male
-2.834105 0.6702572 -1.282615 -0.7435674 0.3618357 -0.5623013 5195591 male
-2.727586 0.1319073 -1.159113 -0.2064603 -0.4133068 0.8868777 3158835 male
-2.511894 0.2516626 -1.24123 0.9444464 0.2911527 0.1524837 2303270 male
-2.815206 -0.362589 -1.199399 0.8590733 0.08008339 0.5055492 2303016 male
-2.778063 -0.1204084 -1.233954 -0.2801249 0.468159 0.8380677 2829363 male
-2.668938 0.6293437 -1.374127 -0.1766998 0.2249243 -0.9582205 7366753 male
-2.601062 0.1042174 -1.201437 -0.4543513 -0.4394156 0.7749058 3618368 male
-2.857415 -0.4043299 -1.190375 -0.1297209 -0.9374242 0.3231227 789004 male
-2.853906 0.5977483 -1.259933 0.964541 -0.2326004 -0.1247319 8418929 male
-2.507338 -0.2376614 -1.108035 -0.4483321 -0.5165284 0.7295184 2105120 male
-2.769862 -0.2649406 -1.271313 0.6201243 -0.3935218 -0.6786654 2894124 male
-2.845485 -0.3527014 -1.224287 -0.9831278 0.05035287 -0.1758538 2500134 male
-2.493067 0.4509101 -1.363064 -0.7752426 -0.4279496 0.4646056 14797256 male
-2.49796 0.4514241 -1.451189 0.6440529 -0.3461339 -0.6821932 15125701 male
-2.586729 0.5742288 -1.315563 0.8054028 0.1712438 -0.5674524 2895660 male
-2.858484 0.9118273 -1.37408 -0.5645252 0.7687495 -0.300559 4932930 male
-2.768919 0.5705829 -1.353668 -0.1306217 0.05996555 -0.9896173 11248794 male
-2.66908 0.6604752 -1.361324 -0.2035993 0.4641907 -0.8620178 8682101 male
-2.773803 -0.1308395 -1.22754 -0.152497 0.3917039 0.907366 2764082 male
-2.526349 0.317394 -1.252164 0.9355326 0.3417283 -0.08944762 3355699 male
-2.589081 0.6117591 -1.372332 -0.780182 -0.1343883 -0.610947 8550513 male
-2.762248 0.7381054 -1.28262 0.151969 0.2727728 0.9500004 16240071 male
-2.481649 -0.1864364 -1.217338 -0.2089852 -0.8778226 -0.4309903 2435117 male
-2.632545 0.3955109 -1.169363 0.1650455 0.08731942 0.9824132 9076858 male
-2.507959 0.4905882 -1.4191 -0.3037848 0.9474881 0.09990588 16374730 male
-2.614005 0.6673297 -1.318429 -0.1077495 -0.9800269 -0.1671446 921359 male
-2.502203 -0.1855673 -1.185324 -0.732917 -0.4600987 -0.5011408 1972766 male
-2.715239 0.1110362 -1.322091 0.2865395 0.03513315 -0.9574242 4013896 male
-2.42589 -0.1458967 -1.333693 0.9591472 -0.2689831 0.08766422 2565933 male
-2.480908 0.0594462 -1.31827 0.926031 0.01076703 -0.3772944 2764082 male
-2.862212 0.8824617 -1.409013 -0.6568431 0.4224267 -0.6245903 12168099 male
-2.554704 0.2627696 -1.150976 0.6885802 0.1173123 0.7156085 7695973 male
-2.780308 0.6990717 -1.250349 -0.06358406 0.8221472 0.565713 4999236 male
-2.582129 0.7176562 -1.316273 0.5152792 0.8363363 0.1871606 11906725 male
-2.673795 0.0190703 -1.262465 0.9805234 -0.16511 -0.1063612 1974049 male
-2.876067 0.5198002 -1.487834 -0.005518407 -0.3746721 -0.9271411 11508887 male
-2.774254 0.2992005 -1.273955 -0.6538733 0.1213406 -0.7468109 4078646 male
-2.725838 -0.1959057 -1.267871 0.9124048 -0.3246598 -0.2492262 2039842 male
-2.45804 -0.160709 -1.385303 -0.04543998 -0.9811008 -0.188086 3223609 male
-2.81737 -0.1833426 -1.271343 -0.9954811 0.009476472 -0.09448785 1907998 male
-2.78934 0.8894594 -1.408442 0.5376896 0.5813193 -0.6107029 5458499 male
-2.425189 -0.1192991 -1.329067 0.9647559 0.1639831 0.2058058 1842977 male
-2.726292 0.014238 -1.2041 0.03542036 -0.2699625 0.9622192 2697259 male
-2.627893 0.5455622 -1.362229 0.5258647 -0.3033966 -0.7946175 4669758 male
-2.731214 -0.1329321 -1.239095 0.6675607 0.2566274 0.6989316 2368292 male
-2.83074 -0.3762618 -1.261533 -0.5283698 0.583559 -0.6166721 2171171 male
-2.61199 0.6463642 -1.332049 0.4998244 -0.7793268 -0.3779225 1381653 male
-2.470008 -0.09082116 -1.398982 0.740694 -0.2845696 -0.6085989 3881795 male
-2.806192 0.3226594 -1.296679 0.8754901 -0.3913251 -0.2835174 5393738 male
-2.763057 0.4570099 -1.330271 -0.5115442 -0.3013557 -0.8046785 7631211 male
-2.740841 0.04224644 -1.327264 -0.1002379 -0.1236389 -0.9872518 4211789 male
-2.669981 0.3081619 -1.133907 0.02643865 0.3566146 0.9338775 9142398 male
-2.842712 0.8423197 -1.260851 -0.3786349 -0.05484069 0.9239202 4932154 male
-2.586695 0.6004473 -1.368222 -0.8725971 -0.2824766 -0.398474 16771557 male
-2.879192 0.862971 -1.292643 -0.832815 0.06523069 0.5496949 6511192 male
-2.872041 0.8085995 -1.391508 -0.873266 -0.33209 -0.3565427 14074805 male
-2.564331 0.0327651 -1.239148 -0.4691269 -0.3990708 0.7878215 2829619 male
-2.437523 -0.110343 -1.300022 0.8017133 0.4785086 0.3581694 2171681 male
-2.573329 0.4959866 -1.219684 0.8497142 -0.01810536 0.526933 5656141 male
-2.647656 0.3330761 -1.146159 0.006215215 0.4290506 0.9032593 10262164 male
-2.426717 -0.1313905 -1.397664 0.958331 -0.2553805 -0.127995 2566439 male
-2.753152 0.1595964 -1.157817 -0.5584654 -0.3565327 0.7490001 3026998 male
-2.799626 0.861402 -1.258904 0.2072963 0.1988455 0.9578564 6313295 male
-2.849063 0.7551445 -1.389679 -0.7693882 -0.5284691 -0.3588349 16771030 male
-2.773476 0.1441377 -1.303856 -0.7101722 0.1668676 -0.683967 2894386 male
-2.659946 0.410076 -1.34634 0.04585803 -0.137247 -0.9894749 7235174 male
