# .PCD v0.7 - Point Cloud Data file format
VERSION 0.7
FIELDS x y z normal_x normal_y normal_z rgb label
SIZE 4 4 4 4 4 4 4 4
TYPE F F F F F F U U
COUNT 1 1 1 1 1 1 1 1
WIDTH 249
HEIGHT 1
VIEWPOINT 0 0 0 1 0 0 0
POINTS 249
DATA ascii
1.21956 0.2028466 -1.25224 -0.2841663 0.1002143 0.9535232 4406851 male
1.447818 0.2286859 -1.10818 -0.0004219115 0.903324 -0.4289587 4672079 male
1.769752 0.2637993 -1.284669 0.2967892 0.7706468 0.5639324 526600 male
1.454627 0.09827026 -1.087722 0.2125911 -0.7918062 0.5725801 4212814 male
1.220134 0.1606154 -1.249587 -0.2849274 0.05468205 0.956988 7959419 male
1.734693 0.3070589 -1.430279 0.7649205 -0.1472798 -0.6270608 526600 male
1.393655 0.006866185 -1.394923 0.07361349 -0.664243 -0.7438833 5265248 male
1.357627 0.2081084 -1.401554 0.9878144 0.01985401 -0.1543647 9341078 male
1.283653 0.6162289 -1.441019 0.5992079 0.1265978 -0.7905206 15712955 male
1.597737 0.2212806 -1.310567 -0.2388056 0.5878351 0.7729307 3948100 male
1.745122 0.2236841 -0.9661176 0.3874094 0.8831775 0.264408 526600 male
1.270612 0.7022215 -1.39267 0.604265 0.7837483 -0.1435349 1051664 male
1.253027 0.2339691 -1.504141 -0.2471031 -0.4822287 -0.8404734 7762814 male
1.320162 0.2250869 -1.29374 0.6635025 0.3127769 0.6796581 14341354 male
1.155342 0.2219325 -1.318979 -0.8680389 -0.4193105 0.2658709 8946576 male
1.46975 0.2028292 -1.017977 0.05433103 -0.9586552 0.2793356 723467 male
1.5976 0.1086704 -1.371597 0.5543342 -0.5532393 -0.6218036 5791593 male
1.18115 0.3832936 -1.273856 0.280197 -0.6338794 0.7208929 526600 male
1.796372 0.2124101 -0.9536855 0.3071023 0.9401709 0.1475358 526600 male
1.144795 0.4669839 -1.278961 -0.3220497 0.9387242 0.1228049 7828865 male
1.292669 0.4940913 -1.390215 0.9820968 -0.1558435 0.105824 16768477 male
1.380872 0.1830321 -1.16708 -0.2619012 0.9178842 -0.2981549 6448758 male
1.918992 0.2395453 -1.118658 -0.3621885 0.182948 -0.9139745 526600 male
1.439225 0.2560148 -1.603829 -0.7311938 -0.2455662 0.6364377 9800597 male
1.787205 0.2463605 -1.339161 0.8966588 -0.1889851 -0.4003592 526600 male
1.203439 0.3466376 -1.52275 -0.6894243 -0.1502503 -0.7086035 12170953 male
1.172082 0.2521807 -1.419105 -0.7397858 -0.4267517 -0.5201923 12827085 male
1.129927 0.3332983 -1.294716 -0.7001985 -0.4178013 0.5789337 8815246 male
1.726946 0.286071 -1.302619 -0.189024 0.5726012 0.7977453 526600 male
1.095677 0.3773626 -1.179531 -0.8492644 0.4682844 0.2438435 15118247 male
1.334113 -0.007554585 -1.292649 -0.08434014 -0.994401 -0.06366555 11382978 male
1.18041 0.4776904 -1.407334 -0.7451145 0.5156044 -0.4230324 7563635 male
1.508447 0.2905734 -0.9181763 0.07644376 -0.3819759 0.9210053 526600 male
1.132959 0.4270883 -1.215893 -0.0492045 0.6874775 0.7245369 11115423 male
1.289054 0.5631819 -1.335499 0.415378 -0.2056895 0.8860886 13346978 male
1.265169 0.4165953 -1.57103 -0.5996584 0.0368202 -0.7994086 7829895 male
1.334157 0.1295794 -1.130752 -0.7850428 0.2891366 0.5478209 1117449 male
1.123936 0.3650737 -1.265682 -0.1086349 -0.8383036 -0.5342711 5197143 male
1.661556 0.2099905 -1.401938 0.1541741 -0.8464002 -0.5097422 526344 male
1.188982 0.3672076 -1.50867 -0.8242609 -0.002317201 -0.5662054 13222869 male
1.171568 0.3948807 -1.45669 -0.9441894 0.1267003 -0.3040615 13617375 male
1.464835 0.2586675 -1.650542 0.8259543 0.2866141 -0.4854398 13611440 male
1.251234 0.6811071 -1.444946 0.4959415 0.4981178 -0.711281 6184030 male
1.342735 0.01236567 -1.400549 -0.1814477 -0.7394503 -0.6482977 5725801 male
1.187363 0.6451116 -1.329309 -0.3510687 -0.01255517 0.9362655 14207184 male
1.568938 0.201781 -1.378113 -0.0902357 0.7727807 -0.6282256 7040892 male
1.361024 0.366039 -1.545904 0.6722152 -0.03904618 0.7393254 13278106 male
1.291926 0.3619199 -1.533082 0.5506517 -0.7870359 -0.2781317 526600 male
1.325405 0.01447415 -1.396023 -0.3856274 -0.7504781 -0.5367253 11450055 male
1.338935 0.2964624 -1.477504 0.8553019 -0.02123982 -0.5176945 3750721 male
1.293164 0.001547716 -1.29352 -0.3884672 -0.9070141 -0.1625383 8752798 male
1.807053 0.2250878 -1.256506 -0.1634663 0.8248817 0.5411553 526600 male
1.310848 0.111217 -1.202563 -0.5810584 0.7991316 0.1541425 6449015 male
1.352159 0.1827006 -1.351659 0.8414443 0.5403437 0.0003764927 11315388 male
1.108172 0.2818017 -1.132247 0.7079184 -0.6232973 -0.3321926 14471660 male
1.164121 0.5718714 -1.378283 -0.6344731 -0.6344107 0.4415506 11971502 male
1.465251 0.1704787 -1.032468 -0.0195656 -0.8100362 0.5860533 723723 male
1.851685 0.2152279 -1.010228 -0.3024679 0.8815469 0.3624753 526600 male
1.232177 0.4276753 -1.53106 -0.5403081 0.4269997 -0.7250782 10723758 male
1.502453 0.006311791 -1.357866 0.6216927 -0.6559058 -0.4281191 3553607 male
1.342672 0.06056512 -1.129036 -0.4459139 -0.4379626 0.7806084 3420989 male
1.856978 0.1480736 -1.235367 -0.7645203 0.5213246 0.3791167 526600 male
1.748509 0.3166671 -1.373501 0.6124557 0.7560836 0.2307283 526600 male
1.413651 -0.01030469 -1.373785 0.07810865 -0.8050292 -0.5880706 9739957 male
1.420549 0.01309138 -1.208761 0.7609369 -0.6218249 0.185226 4738131 male
1.901678 0.1287324 -1.219914 -0.01620716 -0.4298552 0.9027523 526600 male
1.351305 0.436996 -1.511466 0.9137658 0.2852404 0.2892577 13484750 male
1.750892 0.2078065 -0.9811584 -0.3190108 0.7806495 -0.5374183 526600 male
1.810738 0.2018024 -1.281628 0.6399634 -0.6119387 -0.4647341 526600 male
1.87186 0.1592639 -1.261489 0.4228749 -0.6646231 -0.6159976 526600 male
1.096736 0.2750037 -1.119396 0.892005 -0.3133346 -0.3258045 10651278 male
1.225528 0.3228069 -1.015007 0.0950439 -0.2344478 0.9674714 16766937 male
1.18279 0.4647125 -1.283066 0.3865537 0.9080401 0.1613674 16775167 male
1.25422 0.7114347 -1.388157 0.4078865 0.9122532 -0.03771797 526600 male
1.286454 0.4529871 -1.39004 0.8032469 0.4381197 0.4035412 15723519 male
1.415006 0.01243575 -1.395945 0.1236626 -0.5842572 -0.8020916 5065815 male
1.764307 0.2724518 -1.393951 0.7828051 -0.2418155 -0.5733598 526600 male
1.239588 0.09335979 -1.218932 -0.6462643 -0.1325896 0.7515068 6644331 male
1.112178 0.3563041 -1.132549 0.2062437 0.8667668 0.4540693 16764874 male
1.22845 0.7086248 -1.353563 0.04911806 0.8326056 0.5516841 2960173 male
1.606793 0.2697276 -0.9708762 0.6936147 0.4214779 0.5841702 526600 male
1.144421 0.2568791 -1.317651 -0.8934433 -0.3566903 0.2730039 10657714 male
1.065254 0.2731772 -1.032798 -0.3511911 0.4972341 0.7933618 15056827 male
1.138186 0.4610844 -1.242672 -0.187196 0.7900625 0.5837455 7960454 male
1.604164 0.2657059 -0.9670934 0.6572078 0.2242069 0.7195896 526600 male
1.649998 0.2865548 -1.341116 -0.1075581 0.6442656 0.7572008 5395802 male
1.454029 0.2704196 -0.9562212 -0.5725303 -0.78839 0.2250561 526600 male
1.497768 0.3373756 -0.9833127 0.2697132 0.702345 -0.6587612 526600 male
1.277757 0.6923802 -1.371301 0.7072144 0.674464 0.212005 14401736 male
1.235989 0.04500372 -1.264565 -0.7403927 -0.6285487 0.2382127 9869736 male
1.192603 0.462105 -1.451227 -0.8138263 0.4782906 -0.3300379 13618399 male
1.10703 0.4329813 -1.249384 -0.8079799 0.5296339 0.258179 7302264 male
1.700959 0.3351156 -1.371932 0.08799097 0.7431548 0.6633087 526600 male
1.532647 0.3039554 -1.520432 -0.574592 0.713976 -0.4001029 15504793 male
1.331589 0.1428394 -1.444608 0.3824466 0.2494291 -0.8896739 3355187 male
1.796312 0.2365937 -1.264712 0.03728154 0.8303346 0.5560166 526600 male
1.398666 0.03456637 -1.14215 0.1348106 -0.7287644 0.6713633 10857909 male
1.677276 0.2642033 -1.423972 -0.4106793 -0.7746125 -0.4809552 526600 male
1.220487 0.6576327 -1.322721 -0.0608581 0.1734595 0.9829588 11051944 male
1.454308 0.2387011 -0.9725379 -0.4877675 -0.4724144 0.7341031 5987688 male
1.537046 0.1018285 -1.266922 0.1729505 0.007433502 0.9849024 3751753 male
1.141654 0.4646609 -1.358094 -0.7736591 0.6326753 -0.03425804 9144211 male
1.772712 0.2916593 -1.367778 0.8951725 0.4377751 -0.08377966 526600 male
1.910239 0.1531136 -1.25483 0.2843259 -0.4555502 -0.8435833 526600 male
1.114355 0.4521325 -1.274658 -0.7704026 0.6371329 0.02326754 7103342 male
1.533268 0.3100964 -0.9282736 0.5455888 0.3517056 0.7606812 526600 male
1.426754 0.272495 -1.641575 -0.5365993 0.8366866 -0.1096207 16175056 male
1.274364 0.4413731 -1.350661 0.7324147 0.5390339 0.415946 16512764 male
1.873951 0.2009676 -1.262165 0.8259566 0.3071449 -0.472713 526600 male
1.193581 0.2037107 -1.410324 -0.8399535 -0.3950437 -0.3720463 11775682 male
1.176567 0.6609623 -1.467784 -0.3036216 0.209472 -0.9294811 5591125 male
1.187284 0.40914 -1.257323 0.6319962 -0.4743808 0.6128162 658442 male
1.200341 0.6868305 -1.460089 -0.0008789599 0.5781494 -0.8159304 4276805 male
1.300286 0.6097342 -1.422577 0.8759154 0.203575 -0.4374121 15381936 male
1.461774 0.1487037 -1.046414 -0.008580297 -0.7487278 0.662822 3487556 male
1.490263 0.2543237 -0.9642356 -0.4516008 -0.8695595 0.1998076 526600 male
1.17008 0.2169347 -1.289175 -0.7437603 -0.3442173 0.5730053 8289414 male
1.248877 0.03506557 -1.309524 -0.6586403 -0.6951305 -0.2880741 5987948 male
1.413245 0.02969218 -1.157731 0.3719146 -0.7629697 0.5287313 3026230 male
1.482525 0.003343254 -1.369652 0.5305811 -0.6589975 -0.5331097 7698822 male
1.13259 0.6656831 -1.387858 -0.9467554 0.2469454 0.2065721 526344 male
1.318118 0.5845485 -1.383435 0.8819211 0.4046841 -0.2417565 11374220 male
1.465963 0.1570519 -1.350039 -0.5120122 0.8535033 -0.09682761 11121098 male
1.392292 0.133247 -1.315815 0.30312 0.8126482 -0.4977159 4934491 male
1.936267 0.1621467 -1.175144 0.1626234 -0.4171115 0.8941876 526600 male
1.376035 0.2463041 -1.696743 -0.01219159 -0.02885905 -0.9995091 15510691 male
-2.470411 0.2381608 -1.315408 0.9812595 -0.1732861 0.08427334 4143414 male
-2.455761 -0.009607137 -1.355491 0.8679374 0.07195595 -0.491434 3487293 male
-2.656157 -0.0525266 -1.428046 0.4029481 0.2913187 -0.8676212 4343114 male
-2.47281 -0.05718427 -1.287578 0.7605719 -0.4138681 0.5002438 2697257 male
-2.468835 0.2303305 -1.347937 0.9419278 -0.3241378 -0.08778965 4340793 male
-2.73682 -0.1905664 -1.508458 -0.8203738 -0.1407533 -0.5542344 2895668 male
-2.698748 0.2484483 -1.345933 -0.9928991 -0.06950202 -0.09654674 3025961 male
-2.484226 0.2281878 -1.547146 0.4448346 -0.8005952 -0.4014593 9013120 male
-2.578184 0.2184357 -1.817315 -0.1358717 -0.9820836 0.1305787 10983569 male
-2.622335 -0.02617557 -1.353636 0.9534888 -0.04823717 -0.2975441 2566444 male
-2.522125 -0.3810281 -1.406636 -0.9418213 0.275012 -0.1932392 1972766 male
-2.599457 0.2581612 -1.849407 -0.8463485 -0.3020099 -0.4387304 9732475 male
-2.691423 0.280437 -1.320854 -0.9096866 0.2972431 0.2900294 7366247 male
-2.505396 0.1832434 -1.415629 0.6175854 -0.7728324 -0.1460088 7038307 male
-2.567884 0.2502667 -1.219915 -0.1169287 0.7554722 0.6446623 8814461 male
-2.50921 -0.1151631 -1.366862 -0.4197981 -0.2640418 0.8683616 2500654 male
-2.720018 -0.06555702 -1.315915 -0.801625 -0.3946536 0.4490501 3223608 male
-2.429229 0.3406647 -1.601113 -0.04355878 -0.969374 -0.2416956 8683132 male
-2.551652 -0.4819216 -1.484245 0.05124398 -0.985001 -0.1647633 1644569 male
-2.435115 0.2931504 -1.57464 0.7055924 -0.6751872 -0.2150857 6117716 male
-2.537323 0.238064 -1.676139 0.6812848 -0.7042177 0.1998212 16506842 male
-2.553527 0.06452124 -1.327794 -0.549742 0.2983248 -0.7802476 3223601 male
-2.695976 -0.4394124 -1.499504 0.8735957 -0.3976235 -0.2805821 2631464 male
-2.656991 -0.1300425 -1.616732 0.9824529 -0.07154427 0.1722438 16375770 male
-2.708475 -0.3451107 -1.382124 -0.7301001 0.1038999 0.6753954 2302499 male
-2.656304 0.3440817 -1.592788 -0.3543545 0.8955711 -0.2690454 4341562 male
-2.597954 0.3765588 -1.557611 -0.6694828 0.7301081 -0.1368764 10919318 male
-2.44805 0.2907481 -1.500062 0.9567878 0.1129857 0.2679396 3815475 male
-2.630334 -0.01200321 -1.372649 0.8579307 0.1136631 -0.5010347 3091249 male
-2.443332 0.1636522 -1.48938 -0.9876813 -0.1232064 -0.09646845 5784127 male
-2.547443 0.1732331 -1.167497 0.09973294 0.2744626 0.9564121 10458515 male
-2.538805 0.2456484 -1.633214 0.4118366 -0.9067827 -0.09019926 7565674 male
-2.434207 -0.2302229 -1.416256 0.9872999 -0.1494087 0.05400229 1842977 male
-2.380945 0.3177657 -1.536016 0.3509423 -0.6763819 -0.6475702 15519680 male
-2.513077 0.2068315 -1.722014 0.6752453 -0.4594048 0.577054 12760745 male
-2.728878 0.1993658 -1.609306 -0.9451923 0.06042313 0.3208752 8682875 male
-2.448466 0.0903847 -1.269446 0.9778466 0.1568842 -0.138577 3289909 male
-2.415274 0.3513925 -1.492434 -0.8381585 -0.04209832 0.5438 16773360 male
-2.721225 -0.08036391 -1.432576 -0.8628415 0.08420752 -0.4984112 2500394 male
-2.671266 0.3397261 -1.585698 -0.441327 0.8565146 -0.2676067 8221804 male
-2.626796 0.3635556 -1.502612 -0.3489658 0.9288374 0.1244345 7892591 male
-2.70958 -0.128117 -1.622809 -0.9792869 -0.1998899 -0.03227097 16771814 male
-2.604292 0.2911383 -1.851429 -0.8929209 -0.01041432 -0.4500933 6972770 male
-2.675614 0.1818339 -1.191574 -0.4288463 0.3693615 0.8244169 9405056 male
-2.46775 0.2983493 -1.825202 0.9973364 -0.02071893 -0.06993634 3881270 male
-2.702353 -0.08878323 -1.47009 -0.5875459 0.297438 -0.7525429 3223862 male
-2.644147 0.1226685 -1.643767 0.8177201 -0.1009947 -0.5666872 8025714 male
-2.744841 0.03987551 -1.296016 -0.9936577 0.06304237 -0.09311426 2237478 male
-2.657534 0.2002189 -1.194728 -0.2239103 0.5226428 0.8226233 8748152 male
-2.674638 0.197385 -1.50799 -0.6144057 -0.7765393 -0.1396155 3289137 male
-2.531339 0.1742737 -1.171143 0.307667 0.2823919 0.9086232 11183002 male
-2.652062 -0.03564167 -1.412868 0.4965709 0.2627674 -0.8272671 4277836 male
-2.451618 0.1490442 -1.239538 0.9730648 0.1076537 0.2038529 4013626 male
-2.703195 0.1882551 -1.344804 -0.6053998 0.07743946 -0.7921454 3881015 male
-2.404646 0.3267087 -1.486677 -0.8784343 -0.3931395 0.2716522 16768990 male
-2.499614 0.3266082 -1.744485 0.6997846 0.3157549 0.6407812 5261639 male
-2.514136 -0.1179843 -1.374195 -0.4839138 -0.2486618 0.8390441 2368300 male
-2.506372 0.325859 -1.641836 0.6534178 -0.1797464 -0.7353481 5196615 male
-2.657258 0.2612213 -1.665948 0.0234172 -0.2189814 -0.9754481 3420462 male
-2.646595 0.03082508 -1.186854 0.3264481 -0.7102424 0.6236887 4933966 male
-2.450297 0.129738 -1.257385 0.9757555 0.1704843 -0.1372464 1578520 male
-2.671331 -0.4031464 -1.374213 0.9946489 -0.09875453 0.0303542 2302243 male
-2.745987 -0.188167 -1.465863 -0.9836971 0.08796512 0.1568521 1908769 male
-2.71166 0.2373818 -1.286824 -0.8198088 0.5660113 0.08686149 5854289 male
-2.560288 0.03286117 -1.184239 -0.4042867 -0.6701933 0.6224094 5724511 male
-2.701933 -0.4276871 -1.339169 -0.2343587 -0.9263623 0.2948372 1184274 male
-2.664053 0.1536834 -1.67529 0.3294094 -0.4643149 -0.8221322 6971481 male
-2.507825 -0.4778332 -1.426784 -0.108491 -0.9937994 -0.02433757 592137 male
-2.68815 -0.3556051 -1.362388 -0.3900768 0.2201467 0.8940781 3553340 male
-2.708126 -0.3909596 -1.349289 -0.7740698 0.3900041 0.4987113 3028022 male
-2.425011 0.333193 -1.519395 -0.8999395 -0.2974822 0.3187687 14666955 male
-2.365329 0.2295227 -1.383028 -0.8059874 0.02642254 0.5913428 13680059 male
-2.426476 0.3260708 -1.632915 0.2784798 -0.4948903 -0.8231238 5656395 male
-2.537956 0.3182213 -1.891195 -0.01032713 0.2336474 -0.9722667 7169118 male
-2.608743 0.1694666 -1.494138 0.002576478 -0.9877498 -0.1560243 7301729 male
-2.50171 0.3117956 -1.631768 0.5570854 -0.257537 -0.789513 4341306 male
-2.739796 -0.2431078 -1.477705 -0.9181224 -0.2714541 -0.2887288 1973793 male
-2.452713 0.1842354 -1.262969 0.978048 0.1958109 0.07127583 3355699 male
-2.400925 0.3937337 -1.531891 0.4158677 0.8211017 0.3909555 10063503 male
-2.513306 0.2699171 -1.885578 0.4436569 -0.1772469 -0.8784945 6708568 male
-2.448351 -0.2851538 -1.428917 0.9125992 -0.2772977 -0.3004481 2565418 male
-2.496625 0.3474822 -1.399083 0.4236235 0.7616249 0.4903783 6382173 male
-2.339738 0.360491 -1.413251 0.1606608 0.6665248 0.7279649 14729402 male
-2.418547 0.4206343 -1.579735 0.3682199 0.882756 0.2918149 8484464 male
-2.445066 -0.280084 -1.409229 0.9668425 -0.2334002 0.1036345 1972766 male
-2.618833 -0.01071259 -1.34691 0.9329121 -0.020962 -0.3594942 2828590 male
-2.447158 -0.1251735 -1.419038 0.9998392 0.01444595 0.01063544 2235938 male
-2.528027 -0.1285466 -1.442436 -0.8381335 -0.2087829 -0.5039269 2040358 male
-2.600809 0.2528089 -1.842298 -0.8639381 -0.3313075 -0.379271 14074813 male
-2.518216 0.2429375 -1.214163 0.3011966 0.6244165 0.7206836 8223347 male
-2.605896 0.3272211 -1.657613 -0.1628165 0.832012 -0.5303273 7893359 male
-2.41453 0.337122 -1.587054 0.2346124 -0.8519142 -0.4681873 8947069 male
-2.638677 -0.1192109 -1.455693 0.9453461 -0.2169813 -0.2433932 1972766 male
-2.67096 -0.2473172 -1.630602 -0.3997244 0.0407998 -0.9157271 14796983 male
-2.725924 0.1752202 -1.255443 -0.9623736 0.1535118 0.2242129 3618352 male
-2.668936 -0.01870285 -1.408639 0.1744637 0.2933621 -0.9399476 4343886 male
-2.447437 -0.002130417 -1.29332 0.9652811 -0.2067072 0.1597021 2171688 male
-2.743782 -0.2152753 -1.485513 -0.9497954 -0.1568386 -0.2707225 1973793 male
-2.487769 0.2515242 -1.854118 0.8008446 -0.3774142 -0.4649805 6116946 male
-2.449976 -0.1127532 -1.398257 0.9925076 -0.02031786 0.1204822 2171945 male
-2.636994 -0.04861045 -1.276743 0.5931665 -0.611877 0.523221 2697258 male
-2.463295 0.3914285 -1.608393 0.1895335 0.7974318 -0.5728697 6314839 male
-2.734117 -0.2243123 -1.433451 -0.8233172 0.05636848 0.5647757 2171941 male
-2.713113 -0.3755232 -1.411686 -0.8954402 0.1908092 -0.4022176 2697257 male
-2.408203 0.4138613 -1.580083 0.5671579 0.7974176 0.2060515 9142653 male
-2.486615 -0.1646519 -1.472399 -0.4148847 -0.304153 -0.8575326 2301987 male
-2.66202 -0.1108735 -1.643077 0.767318 -0.06338195 -0.638127 16768206 male
-2.554534 0.1875125 -1.487371 0.4126554 -0.8405492 -0.3509882 16704438 male
-2.650773 -0.07852641 -1.448693 0.6864436 0.1079655 -0.7191237 3158072 male
-2.674192 0.2697897 -1.283867 -0.5391073 0.7502887 0.3826622 4868418 male
-2.582542 0.3627801 -1.784908 -0.6476102 0.7195225 0.250776 4208183 male
-2.396851 0.3791586 -1.625219 0.8992657 0.1446916 -0.412778 8684415 male
-2.591193 0.3580465 -1.810975 -0.7487628 0.6622255 0.0284934 3683631 male
-2.563236 0.1988675 -1.802925 -0.8618094 -0.216601 -0.4586599 15781063 male
-2.53021 -0.1271245 -1.396495 -0.8048878 -0.2540645 0.5362902 2697265 male
-2.486166 -0.1520389 -1.384698 -0.1912677 0.362608 0.9121033 2763825 male
-2.464296 0.2956249 -1.381767 0.8675059 0.3045951 0.3932627 5525580 male
-2.597305 0.364897 -1.449764 -0.4777132 0.8144551 0.3293223 8419960 male
-2.450721 0.003037002 -1.274172 0.9254171 -0.2538557 0.2813552 2565671 male
-2.674748 0.02750637 -1.192033 -0.1544122 -0.7062968 0.6908703 4737872 male
-2.48944 0.3566827 -1.841113 0.7053521 0.6431461 -0.2980634 7037274 male
-2.601108 0.2198749 -1.774592 -0.8295238 -0.5519572 -0.08505136 16770264 male
-2.647968 0.08146148 -1.336599 0.4434524 0.480952 -0.7563301 3553343 male
