# .PCD v0.7 - Point Cloud Data file format
VERSION 0.7
FIELDS x y z normal_x normal_y normal_z rgb label
SIZE 4 4 4 4 4 4 4 4
TYPE F F F F F F U U
COUNT 1 1 1 1 1 1 1 1
WIDTH 248
HEIGHT 1
VIEWPOINT 0 0 0 1 0 0 0
POINTS 248
DATA ascii
1.26656 0.1782405 -1.225069 0.1783241 0.3187415 0.9309158 5196623 male
1.438061 0.172199 -1.069091 -0.5333905 0.4969475 0.6844982 6317937 male
1.9187 0.1999813 -1.319162 0.624885 0.6669536 -0.4058222 526600 male
1.480211 0.0528487 -1.126651 0.4266876 -0.8581545 0.2854969 9936562 male
1.249332 0.222269 -1.227956 0.1024915 0.1273323 0.9865505 5329234 male
1.745618 0.2942524 -1.442975 0.8290575 0.3350379 -0.4476755 526600 male
1.401497 0.001982594 -1.387304 -0.0009396374 -0.6723835 -0.7402023 2172969 male
1.261347 0.4004966 -1.304951 0.7098725 0.6159965 0.3415104 14273403 male
1.262338 0.6000997 -1.381332 0.8892642 0.4169881 -0.1879627 14856617 male
1.682488 0.2870429 -1.377044 -0.05866978 0.4380414 0.8970382 6249051 male
1.746545 0.2072243 -0.9932099 0.6066507 0.2200814 0.7638974 526600 male
1.211238 0.6952907 -1.384515 0.4989767 0.8415102 -0.2070819 1051664 male
1.275801 0.2259099 -1.482976 0.243929 -0.4156546 -0.8762019 4473160 male
1.325569 0.206692 -1.27803 0.6814145 0.5345457 0.4999353 14472685 male
1.243121 0.04569151 -1.282228 -0.762598 -0.6195226 -0.1861075 12038593 male
1.511043 0.1521079 -1.030746 0.0675813 -0.8774267 0.4749263 986895 male
1.562351 0.08246695 -1.402988 0.3480321 -0.4429853 -0.8262188 7766157 male
1.150568 0.3935896 -1.239597 0.9094951 -0.3760075 0.1773051 986895 male
1.800571 0.2090261 -1.004131 0.156974 0.9842064 -0.08183512 526600 male
1.100564 0.448331 -1.25223 -0.4919809 0.8596488 0.1376909 7038323 male
1.253777 0.4855765 -1.374692 0.9799216 -0.1106124 0.1658874 16574948 male
1.444253 0.14856 -1.202213 0.1588804 0.8105267 -0.5637406 4343375 male
2.001551 0.2370211 -1.187407 0.0606339 0.3276401 0.942855 526600 male
1.276999 0.1885973 -1.710774 0.09111008 -0.9602281 0.2639334 12429997 male
1.811871 0.2274297 -1.374942 0.805898 -0.1271094 -0.5782487 526600 male
1.167043 0.3095556 -1.477169 -0.7853681 -0.3720855 -0.4947215 12631505 male
1.13344 0.3205539 -1.411565 -0.8139569 -0.187129 -0.549961 10986679 male
1.204915 0.3366367 -1.243659 -0.184008 -0.08422383 0.9793096 723467 male
1.743799 0.285699 -1.345691 0.08209266 0.7858046 0.6130024 526600 male
1.059841 0.3561203 -1.203457 -0.9858354 0.1652458 0.02867928 14132125 male
1.361848 -0.01928337 -1.243253 -0.0009936132 -0.9980432 0.06252033 6777717 male
1.152246 0.4493227 -1.414362 -0.864421 0.3330564 -0.3766293 14736624 male
1.603467 0.2163775 -0.9634334 0.04268311 -0.841204 0.5390307 526600 male
1.139381 0.3905829 -1.215331 0.8314331 0.2264596 0.5073807 11052978 male
1.239278 0.5739532 -1.316887 0.4184792 -0.03872946 0.9074003 14069413 male
1.253694 0.4283272 -1.574455 0.1518848 0.517233 -0.8422595 6710639 male
1.373153 0.08920431 -1.103725 -0.5907792 -0.07691765 0.8031585 3882305 male
1.110292 0.3328212 -1.232364 0.6520835 -0.667351 -0.3597634 526856 male
1.586188 0.1569969 -1.410132 0.1495635 0.1528246 -0.9768702 4277321 male
1.163479 0.3391244 -1.490798 -0.8110549 -0.1897389 -0.5533435 12236746 male
1.147103 0.3450058 -1.457556 -0.9518928 -0.129712 -0.2776234 15197173 male
1.324917 0.2378594 -1.728947 0.5918925 0.3010516 -0.7476839 15520720 male
1.191993 0.6694492 -1.434823 0.3987584 0.5159789 -0.7581276 6184030 male
1.35894 0.02035119 -1.402595 -0.06242284 -0.6197363 -0.7823237 6120307 male
1.138262 0.6317291 -1.31454 -0.30474 -0.007145065 0.9524087 14207184 male
1.65555 0.2104116 -1.427921 0.1820241 -0.05695426 -0.9816433 526600 male
1.310081 0.3482401 -1.582754 0.9394757 0.2439615 0.2405581 16571102 male
1.220265 0.3753428 -1.525691 -0.496952 -0.6721624 -0.5488501 526344 male
1.341344 0.02033903 -1.399567 -0.2381771 -0.6661419 -0.706772 10924227 male
1.313004 0.3811704 -1.477199 0.8600062 -0.4083734 -0.3059747 8289409 male
1.317776 -0.01024662 -1.259718 -0.3228498 -0.9464003 -0.00972195 9870255 male
1.885248 0.1999605 -1.297147 -0.3475038 0.8306312 0.4350782 526600 male
1.314132 0.1010214 -1.180638 -0.544887 0.6714906 0.5021936 9868447 male
1.353264 0.197503 -1.341641 0.8898576 0.4522733 -0.06001747 12827603 male
1.070229 0.2535088 -1.152352 0.7460324 -0.5479829 -0.3783523 14471660 male
1.12117 0.554123 -1.358692 -0.5360575 -0.6778741 0.5031193 11971502 male
1.523387 0.1810371 -1.029483 0.4311818 -0.868017 -0.2462291 3158581 male
1.909511 0.2222289 -1.083742 -0.6107702 0.5973676 0.5197228 526600 male
1.232782 0.4812018 -1.436336 0.6195817 0.2764482 -0.7346394 15780805 male
1.495347 0.009795051 -1.382701 0.4207252 -0.5812776 -0.696496 6645871 male
1.328557 0.06120794 -1.147948 -0.562202 -0.1732064 0.8086584 4014405 male
1.938498 0.1894352 -1.296272 -0.1857246 0.8751713 0.4467455 526600 male
1.753502 0.2748085 -1.443935 0.6750922 0.05913088 -0.7353597 526600 male
1.349628 0.2076397 -1.401255 0.9372663 0.133507 -0.3220368 8682380 male
1.433224 -0.001253071 -1.217622 0.7782267 -0.6239856 0.07074651 10264491 male
1.973261 0.1188479 -1.288817 0.1285197 -0.429653 0.8938015 526600 male
1.257739 0.4552557 -1.541717 -0.07822822 0.9468127 -0.3121313 8288642 male
1.840047 0.1774867 -1.006295 -0.228434 0.9720144 -0.05482611 526600 male
1.851171 0.1987416 -1.334559 0.7369394 -0.3212133 -0.5947623 526600 male
1.926448 0.1342435 -1.31425 -0.1007769 -0.9193498 -0.3803154 526600 male
1.057443 0.2456762 -1.142256 0.9303367 -0.2170543 -0.2955687 10651278 male
1.169304 0.2479312 -1.024359 0.09463242 -0.5687436 0.8170529 16572641 male
1.135923 0.4539718 -1.260176 0.03778305 0.9794798 0.197969 15065581 male
1.194024 0.7027624 -1.379574 0.292628 0.9513389 -0.09655601 526600 male
1.261485 0.444879 -1.387874 0.6644995 0.7158347 0.2145255 16184062 male
1.320655 0.1659193 -1.437254 0.5454015 0.06645589 -0.8355362 6183518 male
1.739762 0.2320511 -1.437743 0.2330487 -0.6182849 -0.7506078 526600 male
1.296724 0.1306708 -1.190899 -0.2326047 0.7501696 0.6189836 9601409 male
1.073795 0.3689283 -1.179265 -0.5502129 0.6743768 0.4924244 16235189 male
1.170305 0.6984365 -1.343643 -0.02880484 0.8576071 0.513498 2960173 male
1.660798 0.2530382 -0.9877557 0.7102513 0.6038284 0.3618484 526600 male
1.175342 0.1444494 -1.307495 -0.812465 -0.5690893 0.1266418 9471896 male
1.014348 0.232711 -1.068902 -0.4494736 0.5977626 0.6638172 14531255 male
1.081941 0.4363556 -1.26081 -0.8276291 0.5609252 -0.01981947 7103342 male
1.66694 0.2400392 -0.9839297 0.7277194 0.3015699 0.6160195 526600 male
1.630256 0.2236159 -1.334208 -0.07180294 0.5995958 0.7970754 4540236 male
1.509209 0.2548719 -0.9591964 -0.7748488 -0.6203406 -0.1216007 526600 male
1.523396 0.271224 -0.9651799 -0.1188623 0.5939549 0.7956691 592137 male
1.220473 0.6874967 -1.363008 0.6307908 0.7614897 0.1491186 14401736 male
1.325159 0.001036974 -1.20859 -0.4285579 -0.7409031 0.5171081 2170921 male
1.160701 0.454225 -1.437361 -0.8478293 0.4738209 -0.2380739 12632016 male
1.090376 0.4219761 -1.217576 -0.4992268 0.5228162 0.6909672 7302519 male
1.653165 0.2656434 -1.369815 0.05454686 0.7645033 0.6423079 592137 male
1.441607 0.2320887 -1.567901 -0.854672 0.5117591 -0.08739808 15840706 male
1.321859 0.1259472 -1.436039 -0.04216692 0.1414269 -0.9890503 3552574 male
1.904438 0.202509 -1.300638 -0.1972391 0.9321635 0.3035916 526600 male
1.475528 0.1150256 -1.056408 -0.1398671 -0.5274805 0.8379746 3421500 male
1.765835 0.2878267 -1.39023 0.5557473 0.8259478 0.09463167 526600 male
1.169888 0.6483732 -1.310175 -0.0345901 0.2111839 0.976834 11051944 male
1.511224 0.2422336 -0.9399137 -0.4340612 -0.7657766 0.4745284 526600 male
1.569098 0.08860257 -1.283596 0.4042941 -0.1946442 0.8936778 6316392 male
1.153856 0.4522315 -1.284134 0.3369491 0.9400359 0.05289415 12563391 male
1.757423 0.216816 -1.414697 0.2750773 -0.7240095 -0.6325683 526600 male
1.957895 0.1796875 -1.318881 0.5029606 0.2066171 -0.8392496 526600 male
1.089167 0.443276 -1.238855 -0.6586599 0.6492608 0.3802994 7038323 male
1.608742 0.2848045 -0.9528958 0.6417789 0.667545 0.3774963 526600 male
1.325405 0.2651549 -1.677186 -0.2749576 0.9608229 0.03489612 15056829 male
1.242494 0.4433514 -1.340055 0.6625997 0.6505327 0.3711721 16314619 male
1.907932 0.1989076 -1.320088 0.714852 0.4703664 -0.5174381 526600 male
1.19016 0.1851535 -1.388316 -0.8526029 -0.4882453 -0.1862382 10920628 male
1.128479 0.6608165 -1.450572 -0.2487504 0.4100259 -0.8774976 4539717 male
1.149059 0.4144494 -1.230554 0.7106133 -0.09811451 0.6967082 10064545 male
1.15255 0.6795619 -1.439066 0.02136749 0.6754315 -0.7371131 3289394 male
1.261079 0.6046659 -1.375545 0.8061976 0.4517212 -0.3820907 14198431 male
1.512793 0.1266838 -1.055917 0.2795591 -0.8832027 0.3765631 1710876 male
1.560002 0.2284211 -0.9474853 -0.176995 -0.8540444 0.4891634 526600 male
1.175705 0.2402388 -1.248581 -0.5379604 -0.2363162 0.8091682 5460056 male
1.22783 0.086621 -1.334864 -0.7323067 -0.5791181 -0.3582584 9800861 male
1.483995 0.09616677 -1.07008 0.03132728 -0.6897644 0.7233557 5528421 male
1.478988 0.006133153 -1.383393 0.367772 -0.6157525 -0.6968448 9409439 male
1.078794 0.6430102 -1.371095 -0.9583625 0.1473682 0.2445892 526344 male
1.268507 0.5873303 -1.378816 0.8565216 0.4489182 -0.2546432 12950681 male
1.478557 0.1549971 -1.349816 -0.4606325 0.8873397 -0.02112022 11121098 male
1.419924 0.1305394 -1.284718 0.6111458 0.7687417 -0.1885125 6251888 male
1.951244 0.1411241 -1.286235 -0.4273342 0.7162102 0.5517503 526600 male
-2.469092 0.1415717 -1.378448 0.9663701 -0.2092697 0.1494504 4472636 male
-2.513047 -0.0699573 -1.420732 -0.3146755 0.4655575 -0.8271855 3092017 male
-2.688693 -0.313731 -1.502503 0.7502398 -0.310205 -0.5838777 2040100 male
-2.500223 -0.09423722 -1.257314 0.2705257 -0.6798218 0.6816586 4541008 male
-2.474202 0.1357339 -1.369336 0.9371423 -0.3375659 0.08839652 4538429 male
-2.741406 -0.1815203 -1.601924 -0.4886767 -0.4877051 -0.7234219 2170913 male
-2.677349 0.09561288 -1.378671 -0.6877677 -0.7250443 -0.03586876 4669500 male
-2.49555 0.08955145 -1.5521 0.4869426 -0.8476188 -0.2107825 16772013 male
-2.592943 0.05596249 -1.806141 -0.9764621 -0.1810015 -0.1173054 6380116 male
-2.649843 -0.1367422 -1.477242 0.9501606 -0.1331975 -0.2818753 2499878 male
-2.491935 -0.3210766 -1.485061 -0.6849182 -0.1896519 -0.7035052 1841180 male
-2.556597 0.02654539 -1.863523 -0.5514877 -0.5559153 -0.6219482 6709083 male
-2.697601 0.1864102 -1.336866 -0.924568 0.298967 0.2362053 7366247 male
-2.531525 0.06101815 -1.432866 0.3702199 -0.9203984 -0.1257149 9012607 male
-2.530955 0.1379689 -1.202217 0.2885288 0.5662443 0.7720872 7761257 male
-2.460998 -0.1388441 -1.434714 0.469635 -0.2169546 0.8557886 3618359 male
-2.73695 -0.1145914 -1.354887 -0.9407886 -0.2888345 0.1774594 1842466 male
-2.446442 0.2670641 -1.627725 0.1500126 0.9591271 -0.2399402 9538441 male
-2.547185 -0.4638726 -1.489809 0.7407615 -0.6713482 -0.02375674 3026480 male
-2.437661 0.1547907 -1.595817 0.6150577 -0.7822644 -0.09882554 8945531 male
-2.522557 0.05500601 -1.686961 0.6301008 -0.3188804 0.7080172 12035479 male
-2.52085 -0.001671848 -1.361364 -0.3060654 0.5408207 -0.7834775 3026480 male
-2.710289 -0.4306156 -1.525098 -0.5385367 0.7616037 0.3604694 3092531 male
-2.63564 -0.3243374 -1.648576 0.9151645 -0.09985773 0.3905157 16375770 male
-2.727241 -0.3407592 -1.468835 -0.9874721 -0.1408296 0.07117689 1710362 male
-2.681634 0.1659434 -1.619122 -0.5331116 0.6757032 -0.5091337 9932935 male
-2.589237 0.2536673 -1.546737 -0.5260959 0.8489444 -0.05016455 9867404 male
-2.458174 0.1664076 -1.490311 0.9855196 0.1121527 0.1271742 3356211 male
-2.643641 -0.09552778 -1.429173 0.8797505 0.1520574 -0.4504642 3224633 male
-2.431096 0.1030388 -1.341643 -0.5864108 -0.3235709 0.7425796 5786442 male
-2.581273 0.1315335 -1.196685 -0.1621134 0.5873477 0.7929326 9142394 male
-2.584337 0.04799571 -1.595538 0.5279548 -0.7814162 -0.3326447 8879737 male
-2.41093 -0.2047172 -1.493103 0.9935818 -0.04034273 0.1056785 2303011 male
-2.358465 0.2240277 -1.520548 0.6565323 -0.5134413 -0.552579 15717318 male
-2.517958 0.026872 -1.690731 0.3992114 -0.03982747 0.9159937 11378580 male
-2.720065 0.03133119 -1.631472 -0.9573969 0.01074848 -0.2885761 9143167 male
-2.442277 0.002448491 -1.286297 0.9824886 0.1742934 -0.06586516 2894894 male
-2.345318 0.2912865 -1.412751 -0.4571336 0.4096537 0.7894383 5459531 male
-2.736723 -0.08615866 -1.413585 -0.9056165 0.1962551 -0.3759564 2696491 male
-2.614735 0.1834253 -1.643376 -0.4527004 0.6746704 -0.5829943 8156270 male
-2.628112 0.2077749 -1.586759 -0.4920308 0.7989971 -0.3457016 9735820 male
-2.685708 -0.3212646 -1.666473 -0.9441259 -0.1865813 -0.2716874 16771814 male
-2.575093 0.05750139 -1.867064 -0.7342971 -0.2584535 -0.6277021 3551278 male
-2.613836 0.1073093 -1.190733 -0.1350565 0.429195 0.8930575 9404798 male
-2.453667 0.1026643 -1.817446 0.9867297 0.1571624 0.04080331 4868418 male
-2.74179 -0.1232453 -1.491672 -0.9365088 0.2092912 -0.2813338 2566439 male
-2.642376 -0.04325031 -1.669209 0.3236313 -0.3538753 -0.8775166 5458757 male
-2.683748 0.01518048 -1.570536 0.05885284 -0.7918521 0.6078706 461063 male
-2.63761 0.1313164 -1.209261 -0.1396432 0.6290284 0.7647374 10786958 male
-2.72029 0.1001503 -1.483316 -0.8965793 -0.3835874 0.2213739 8156529 male
-2.531871 0.1298341 -1.196439 0.2977847 0.5246052 0.7975675 8748923 male
-2.685602 -0.3053315 -1.50617 0.7712046 -0.3437602 -0.5357916 2236963 male
-2.45239 0.02197388 -1.2248 0.9665994 0.06392588 0.2481926 2697257 male
-2.729046 0.08342108 -1.28696 -0.9881134 0.1288772 -0.08380258 3552819 male
-2.332207 0.2675605 -1.462187 -0.1994268 -0.5994352 -0.7751816 15914697 male
-2.494826 0.1443766 -1.760116 0.583252 0.618905 0.5260931 7432551 male
-2.4777 -0.1476742 -1.474948 -0.6114455 0.3509383 0.7092087 2763308 male
-2.51652 0.1480424 -1.663501 0.9081438 -0.05047562 -0.4156049 4143414 male
-2.60273 0.0772201 -1.663284 -0.4955721 -0.8681819 -0.0258567 5327680 male
-2.69299 -0.0747621 -1.218124 -0.4539838 -0.7478895 0.484314 3158835 male
-2.449722 0.01186356 -1.233678 0.9732756 0.03668167 0.2266925 2499878 male
-2.683874 -0.3854413 -1.427185 0.9497639 0.03370671 -0.3111475 2236708 male
-2.740255 -0.2031796 -1.595308 -0.3501733 -0.4371293 -0.8284304 3882563 male
-2.721012 0.1016247 -1.254571 -0.9233922 0.2194721 0.3149272 5854545 male
-2.544608 0.005997583 -1.165225 0.04763222 -0.4842221 0.8736477 3421492 male
-2.722538 -0.4115785 -1.369952 -0.1978127 -0.9460756 0.2565366 526602 male
-2.622816 -0.03815284 -1.648655 0.8266994 -0.3882635 -0.4072099 7761772 male
-2.543583 -0.4571576 -1.422365 -0.1883959 -0.9730161 -0.1332171 854285 male
-2.727888 -0.3225395 -1.466387 -0.9168617 -0.1366902 0.3750744 2040353 male
-2.700326 -0.3549999 -1.390696 -0.548654 0.3769328 0.7462578 3420980 male
-2.35378 0.2407712 -1.481529 -0.06083292 -0.9413832 -0.331809 16243919 male
-2.353435 0.2221651 -1.35944 -0.7196233 0.2103733 0.6617292 14469063 male
-2.447884 0.1498699 -1.61144 0.352505 -0.8271461 -0.4376868 5985874 male
-2.531862 0.05732983 -1.890435 -0.1471621 -0.278318 -0.9491483 4932930 male
-2.559565 0.04958675 -1.517448 0.7311092 -0.6801426 0.05371723 10785670 male
-2.723254 0.1196465 -1.275182 -0.9276358 0.2829591 0.2437747 6314840 male
-2.749148 -0.1627667 -1.52255 -0.6452308 0.4126787 0.6429415 2630441 male
-2.459936 0.1057786 -1.29622 0.900955 0.2039848 -0.3829763 4209719 male
-2.470027 0.2732237 -1.607724 -0.182376 0.8754273 0.4476227 4276025 male
-2.491763 0.04128869 -1.87667 0.4967933 -0.403551 -0.768338 6708568 male
-2.424555 -0.2450669 -1.464099 0.8565809 -0.1248779 0.5006746 1974561 male
-2.558627 0.2136673 -1.293665 -0.02154078 0.7593454 0.6503311 9866629 male
-2.313956 0.2871553 -1.446347 0.9329909 0.2184981 -0.2859842 16044487 male
-2.395537 0.2521998 -1.601152 0.9090225 0.2785755 -0.3099581 9998984 male
-2.427679 -0.2685225 -1.507929 0.856234 -0.360443 -0.37006 2697257 male
-2.652388 -0.1494848 -1.483191 0.9708079 -0.2294373 -0.06993377 1973534 male
-2.466857 0.2348955 -1.587399 0.2460543 -0.2420588 0.9385442 526600 male
-2.501207 -0.1818987 -1.501862 -0.9769767 0.1783612 -0.1170645 1973534 male
-2.554424 0.01219187 -1.851216 -0.5204222 -0.7184004 -0.4615861 6510163 male
-2.514125 0.1839648 -1.255059 0.383273 0.8272511 0.4108012 6510423 male
-2.629855 0.1305148 -1.690885 -0.2396795 0.2872184 -0.927394 4868418 male
-2.3986 0.1995891 -1.554078 0.3230621 -0.8852668 -0.3345648 12497321 male
-2.679536 -0.1537117 -1.576565 0.7739685 -0.3800496 -0.5064931 2697257 male
-2.638286 -0.485255 -1.634114 0.9169455 -0.34051 -0.2080007 14794684 male
-2.651449 0.08354971 -1.373432 -0.5243019 -0.8441778 -0.1116758 6380376 male
-2.685348 -0.3169807 -1.491556 0.8513864 -0.2557495 -0.4579669 2170913 male
-2.463516 -0.05911456 -1.25056 0.786824 -0.4479667 0.4245397 2631981 male
-2.753091 -0.2038411 -1.587386 -0.6926376 -0.3226774 -0.6450834 4934734 male
-2.463284 0.06594591 -1.857318 0.8408772 -0.2379687 -0.4861035 3749169 male
-2.468735 0.2489478 -1.586818 0.1786472 -0.004385778 0.9839036 657418 male
-2.62713 -0.1091838 -1.301888 0.777493 -0.6009222 0.1854648 2434085 male
-2.504327 0.2310743 -1.649012 0.07663982 0.6476033 -0.7581139 10129801 male
-2.763463 -0.2281871 -1.536594 -0.9836489 -0.1705562 0.05784279 1973793 male
-2.72825 -0.3613439 -1.436336 -0.9983279 0.03133577 0.04857987 2697257 male
-2.404438 0.2659623 -1.601183 0.7302989 0.6641768 -0.1597903 10328207 male
-2.427362 -0.1548832 -1.528454 0.9421292 -0.04248406 -0.3325475 2435117 male
-2.634392 -0.3025544 -1.674049 0.8899537 -0.01502903 -0.4558034 16768206 male
-2.63651 0.04010065 -1.458731 -0.2424569 -0.9697083 -0.02967328 5722700 male
-2.712902 -0.349475 -1.477825 -0.4314482 -0.112867 -0.8950496 2302499 male
-2.650633 0.2062315 -1.315381 -0.3861069 0.661894 0.642509 10524822 male
-2.561049 0.1628136 -1.815021 -0.4896875 0.8700125 -0.05730911 4932154 male
-2.42291 0.2721499 -1.627252 0.5014937 0.8405874 -0.204736 9800580 male
-2.580673 0.1303267 -1.850226 -0.806599 0.4580394 -0.3736286 6511192 male
-2.570299 0.01261842 -1.789387 -0.6484417 -0.7526074 -0.1144803 13879234 male
-2.486757 -0.1431034 -1.399535 -0.1264913 -0.5664042 0.8143626 3092015 male
-2.432981 -0.1453861 -1.479748 0.7082757 0.3000454 0.638998 2565928 male
-2.475167 0.2071667 -1.426071 0.8046809 0.5257856 0.2757507 3748913 male
-2.629706 0.2259794 -1.523976 -0.5351387 0.843622 -0.04391652 9669762 male
-2.462456 -0.1138355 -1.322047 0.8028181 -0.4514902 0.3894101 2697257 male
-2.689363 -0.06362545 -1.207648 -0.4302738 -0.7544937 0.4955842 3948356 male
-2.476192 0.1389495 -1.858286 0.6835972 0.5857098 -0.4354757 7037274 male
-2.587977 0.03776793 -1.73301 -0.9178715 -0.3038789 0.2552837 14995652 male
-2.635866 -0.01261912 -1.344229 0.6546894 0.4938166 -0.5722998 3618106 male
