# .PCD v0.7 - Point Cloud Data file format
VERSION 0.7
FIELDS x y z normal_x normal_y normal_z rgb label
SIZE 4 4 4 4 4 4 4 4
TYPE F F F F F F U U
COUNT 1 1 1 1 1 1 1 1
WIDTH 251
HEIGHT 1
VIEWPOINT 0 0 0 1 0 0 0
POINTS 251
DATA ascii
1.331808 0.2068893 -1.284323 -0.05840993 0.9750207 0.2142964 11052976 male
1.39742 0.3233356 -1.09543 0.5192449 0.6763341 -0.5224527 3026230 male
1.730019 0.2238125 -1.05402 0.8237823 -0.5618575 0.07549101 526600 male
1.398861 0.1793506 -1.091901 0.7012795 -0.6203324 0.3512757 7304832 male
1.298516 0.2615683 -1.307393 0.1516021 0.2245133 0.9626061 13092572 male
1.691348 0.3114009 -1.229833 0.6834515 0.58061 -0.4424771 5133662 male
1.338428 0.04821694 -1.382824 -0.2639317 -0.7993471 -0.5398002 10921651 male
1.356245 0.02401146 -1.263553 -0.2436115 -0.8319668 0.4984823 5462119 male
1.316891 0.6661906 -1.391579 0.9623159 0.2636128 0.06675518 14650250 male
1.691864 0.3557127 -1.179326 -0.4005595 0.8391262 0.3679936 526600 male
1.505291 0.3358482 -0.9006755 0.7461718 0.6621106 0.0695501 526600 male
1.285946 0.6813151 -1.280499 0.6468837 0.4008728 0.6487237 15249835 male
1.404762 0.249261 -1.440256 0.9899104 -0.1084601 -0.09118029 6051685 male
1.369102 0.2045158 -1.316044 0.6622099 0.7493039 -0.004655659 13487322 male
1.217249 0.09070148 -1.282353 -0.8418523 -0.519644 0.1457908 6252400 male
1.43061 0.3650641 -1.020015 0.4063621 -0.267177 -0.873777 526600 male
1.574533 0.1434873 -1.27707 0.7364064 -0.3342346 -0.5882115 3685446 male
1.092885 0.4543606 -1.36602 -0.8884187 0.3800851 -0.2573859 6643565 male
1.598393 0.2697323 -0.7477083 0.4335562 -0.9006848 0.02821065 526600 male
1.261434 0.3468902 -1.306228 0.09775287 -0.1597367 0.9823077 14473193 male
1.330202 0.5457333 -1.418056 0.8911843 0.4150333 -0.1831335 15445921 male
1.385773 0.2166913 -1.183537 0.6570005 0.4980645 -0.5659348 4014152 male
1.742379 0.1961022 -0.882344 -0.5142534 0.4443963 0.7335226 526600 male
1.491754 0.3355478 -1.601134 -0.8235956 0.3226835 0.4664394 15648461 male
1.677481 0.2324895 -1.097601 -0.7376433 -0.5699366 -0.3620149 526600 male
1.33765 0.3254012 -1.541468 0.04639122 -0.2352503 -0.970827 11314612 male
1.231225 0.4701048 -1.475763 -0.3291703 0.4208436 -0.8453033 15525624 male
1.143601 0.4782732 -1.320854 -0.1613945 0.8098461 0.5640045 9802141 male
1.565332 0.2473904 -1.241611 -0.07999207 0.9152703 -0.3948184 10922934 male
1.182166 0.1901173 -1.2062 0.5650364 -0.7939571 0.2244237 11900305 male
1.268216 0.07188695 -1.352372 -0.5074814 -0.7311326 -0.4559689 7894663 male
1.67018 0.2852125 -0.7692046 0.8531711 0.07050508 -0.5168443 526600 male
1.371897 0.3724729 -0.9542583 -0.7888899 -0.2122082 0.5767325 526600 male
1.05149 0.3544691 -1.319594 -0.8121222 0.4739499 0.3403367 15446438 male
1.293804 0.5449572 -1.29518 0.0925158 -0.668196 0.7382105 14003621 male
1.432074 0.4567795 -1.487299 0.6575677 -0.0905882 0.7479294 16645117 male
1.276546 0.2199226 -1.114145 -0.870917 0.2361856 0.4309524 4145735 male
1.079315 0.363046 -1.370129 -0.5350572 -0.1825106 -0.8248657 15973309 male
1.657186 0.2606014 -1.211196 -0.5408584 -0.7440749 0.392205 526600 male
1.339547 0.3494041 -1.54515 0.0447492 -0.2123182 -0.9761755 8749458 male
1.33835 0.3995994 -1.551479 -0.008404851 -0.09333783 -0.995599 9604250 male
1.507012 0.3052956 -1.687316 0.8420082 -0.3073796 -0.4433283 13608868 male
1.300487 0.6422853 -1.408762 0.7473216 0.1490926 -0.6475196 16243161 male
1.254489 0.1682534 -1.448623 -0.6841363 -0.5548344 -0.4734094 10261925 male
1.175649 0.6432096 -1.320711 -0.8945345 -0.3066739 0.3252063 13221316 male
1.669773 0.2209905 -1.233438 0.478295 -0.7727854 -0.4171769 5066838 male
1.467951 0.4283663 -1.561475 0.8195928 0.5589114 0.1260381 15181213 male
1.393362 0.4168454 -1.54476 -0.653535 -0.7519721 0.08619764 2892835 male
1.245787 0.2052564 -1.454017 -0.5793331 -0.430947 -0.691851 9736869 male
1.406424 0.3776673 -1.450819 0.9937155 0.008901264 -0.1115809 592137 male
1.244916 0.0835398 -1.345229 -0.5386322 -0.6983005 -0.4714359 10130341 male
1.745571 0.2166122 -1.030044 0.973052 -0.2054238 0.1047415 526600 male
1.255499 0.1545599 -1.147071 -0.8325736 -0.07495496 0.5488195 3486782 male
1.38443 0.2140161 -1.391888 0.9752854 0.1682835 0.1431745 9934501 male
1.094577 0.3176622 -1.320772 0.8776832 -0.3583062 0.3182592 8287608 male
1.165717 0.6863933 -1.340925 -0.965909 0.198408 0.166295 526600 male
1.367228 0.3288295 -1.027978 -0.4092458 -0.8664278 0.2860428 526600 male
1.635783 0.3011718 -0.7662821 0.7969204 0.149657 -0.5852526 526600 male
1.350989 0.5081684 -1.430218 0.3599637 0.7857087 0.5030785 11183287 male
1.444147 0.1001274 -1.352135 0.5058653 0.2022256 -0.8385732 3815743 male
1.242799 0.1678929 -1.183251 -0.8996167 0.3026591 0.3147815 3026995 male
1.771042 0.1921528 -0.948842 0.004904322 0.9948455 0.101284 526600 male
1.700011 0.3421788 -1.211599 0.05622567 0.8507681 0.522525 1646108 male
1.368296 0.0468783 -1.383262 0.1266509 -0.7972934 -0.5901549 8489882 male
1.308668 0.07051136 -1.163997 -0.08663341 -0.6576021 0.7483677 9410213 male
1.767875 0.1167862 -0.9510467 -0.5487556 -0.5337018 0.6434513 526600 male
1.360267 0.484253 -1.524425 -0.526127 -0.3416421 -0.7787625 2894386 male
1.648102 0.2242382 -0.7916801 -0.667909 -0.4612035 0.5841138 526600 male
1.688938 0.2255148 -1.104629 -0.3545376 -0.859288 -0.3686831 526600 male
1.741852 0.1490868 -1.010531 0.05760241 -0.6052762 -0.7939287 526600 male
1.019152 0.2833053 -1.331966 0.6139946 0.5111821 0.6014179 14527667 male
1.026639 0.1824563 -1.318236 0.4399188 -0.8710188 -0.2186272 1051923 male
1.291022 0.3569705 -1.315414 0.5752231 -0.0760651 0.8144522 13814755 male
1.236876 0.7386886 -1.329059 0.04157315 0.9596344 0.2781609 526600 male
1.195966 0.516339 -1.408879 -0.580078 0.812925 -0.05159789 5526108 male
1.274124 0.07750612 -1.368091 -0.5297762 -0.6862921 -0.4983375 8551819 male
1.7549 0.3446293 -1.183709 0.5529004 0.5526514 0.6236005 526600 male
1.285193 0.2111586 -1.271451 -0.03501096 0.9722189 0.2314406 12368580 male
1.221139 0.204213 -1.234197 0.4343106 -0.5761122 0.6924369 9728361 male
1.240773 0.5642963 -1.42968 -0.6439906 0.1007993 -0.7583637 16767173 male
1.401451 0.3317952 -0.9447272 -0.6993133 -0.5904848 0.4028506 526600 male
1.224353 0.101052 -1.34763 -0.6222736 -0.6126484 -0.4872757 12893902 male
0.9975926 0.2710983 -1.34822 -0.9859517 0.1605987 -0.04590547 15645100 male
1.085004 0.4141619 -1.324862 -0.6736802 0.3933137 0.625667 13677233 male
1.424146 0.3528596 -0.9142867 -0.4846651 -0.01653535 0.8745434 526600 male
1.716143 0.3662757 -1.20256 -0.05532134 0.6882747 0.7233377 657418 male
1.140182 0.4021553 -1.376881 -0.3445003 -0.9380399 0.03742608 526600 male
1.367177 0.4060025 -1.006474 -0.7171615 0.4490439 0.532953 592393 male
1.308376 0.6663442 -1.308728 0.8948805 0.3196772 0.311441 14135471 male
1.229949 0.1112286 -1.215365 -0.8767268 -0.2444661 0.4142299 2698289 male
1.30057 0.5269611 -1.488438 -0.1800862 0.6789497 -0.7117558 10525864 male
1.091486 0.3638442 -1.299653 0.01077944 0.3403996 0.940219 16040639 male
1.536829 0.232851 -1.251163 -0.1800945 0.9302178 -0.3197824 7896460 male
1.66576 0.355751 -1.484585 0.240822 0.9376488 -0.2506383 14461867 male
1.148279 0.325703 -1.40311 -0.9284439 -0.3614025 -0.08590782 8617614 male
1.745308 0.1878385 -1.021765 0.6965061 -0.6863378 -0.2093316 526600 male
1.325544 0.1744553 -1.078004 -0.4567393 -0.4235645 0.782293 4541525 male
1.762352 0.3387609 -1.216062 0.957583 -0.1370088 0.2535023 526600 male
1.218501 0.6193745 -1.27441 -0.6054305 -0.3476517 0.7159554 14398126 male
1.14004 0.406124 -1.366874 0.7889382 -0.5156856 -0.3341331 526600 male
1.455315 0.1014493 -1.177951 -0.2702569 -0.1485718 0.9512558 2697257 male
1.388024 0.2082863 -1.405595 0.9825587 0.15966 0.0953255 9210008 male
1.707835 0.3007444 -1.247819 -0.2913436 -0.6671633 -0.6855743 526600 male
1.747297 0.1779175 -1.017256 0.6110153 -0.7463262 -0.2639271 526600 male
1.117931 0.4228307 -1.310803 -0.08427083 0.08903118 0.9924575 13418432 male
1.356144 0.3762189 -1.011037 -0.8179657 0.2565553 0.5148897 526344 male
1.537577 0.328342 -1.634295 0.9159294 0.1706512 -0.3632511 15519437 male
1.384159 0.3704288 -1.371799 0.6521874 -0.03074439 0.757434 12560290 male
1.708604 0.189943 -1.044429 -0.4458053 -0.7607902 -0.4716523 526600 male
1.293948 0.491183 -1.514641 -0.3315438 0.5221984 -0.7857402 10919858 male
1.26695 0.6844447 -1.422962 0.454268 0.3747656 -0.8082026 5262928 male
1.089238 0.4454939 -1.347991 -0.8911555 0.4286768 0.1485865 6447211 male
1.274783 0.7278611 -1.346685 0.534578 0.8417836 0.07501125 2828843 male
1.313944 0.666328 -1.353185 0.965795 0.2592094 -0.007111192 10063504 male
1.360782 0.2627712 -1.035448 -0.4284592 -0.5761462 0.6960447 855309 male
1.347436 0.3490654 -1.010915 -0.7914926 -0.4285183 0.4357885 526600 male
1.229145 0.2609341 -1.305671 -0.3243224 0.1040692 0.9402045 6316391 male
1.22818 0.4205831 -1.491808 -0.3420659 0.2374939 -0.9091685 13222097 male
1.336486 0.1151095 -1.117187 0.0004891753 -0.6710007 0.7414566 12173266 male
1.483575 0.07856188 -1.33523 0.635043 -0.2763702 -0.7213458 3882308 male
1.17571 0.698449 -1.387471 -0.8265612 0.372205 -0.4222085 526344 male
1.2971 0.5750625 -1.280255 0.8232809 -0.3586036 0.4400136 13083804 male
1.490725 0.204292 -1.275113 -0.2913115 0.8809353 -0.3729484 8160149 male
1.417067 0.08943955 -1.396925 0.6207157 -0.3946042 -0.6774949 5788761 male
1.733623 0.1298061 -0.9805492 -0.9724358 -0.07996761 0.2190288 526602 male
1.436489 0.4249263 -1.594903 -0.02171287 0.4648653 -0.8851151 14263452 male
-2.512501 0.381259 -1.447759 0.8518561 -0.4819499 -0.2050992 5328969 male
-2.608186 0.04146468 -1.385641 -0.5925637 -0.06941421 -0.8025273 2697257 male
-2.691567 -0.2507691 -1.340062 0.986146 -0.146103 -0.07854998 1644569 male
-2.536798 -0.0008409088 -1.308636 0.8424881 -0.1713311 0.5107445 1776675 male
-2.53554 0.3517047 -1.449286 0.720615 -0.5777971 -0.3832295 6248274 male
-2.765825 -0.1340254 -1.306301 -0.6839516 0.2051585 0.7000861 2565935 male
-2.757099 0.3521698 -1.403149 -0.9643879 0.08549353 -0.2502939 2697513 male
-2.560573 0.39932 -1.527057 0.3212655 -0.4558973 -0.8300279 16767920 male
-2.556875 0.692691 -1.738702 -0.3680492 -0.1632845 -0.9153568 15718604 male
-2.670882 0.06749956 -1.366057 0.9589615 -0.1111668 -0.2608356 3156784 male
-2.517405 -0.3702455 -1.398095 0.1247953 0.4044976 -0.9059846 2170913 male
-2.568099 0.7512539 -1.744648 -0.547628 0.1213239 -0.8278794 5195076 male
-2.737448 0.4274333 -1.397359 -0.9004177 0.2429638 0.3608558 10853013 male
-2.58901 0.3401288 -1.492548 0.2838729 -0.5711771 -0.7701773 7367016 male
-2.596099 0.3141847 -1.255406 0.1949107 0.4843152 0.852906 9077117 male
-2.602441 -0.1414939 -1.321323 -0.9853716 -0.008743115 0.1701962 2039071 male
-2.770069 0.02167103 -1.308846 -0.7515474 -0.2646753 0.6042547 3223608 male
-2.444629 0.5336553 -1.567101 -0.7784903 -0.507211 -0.3697162 7366248 male
-2.49444 -0.4669082 -1.441256 0.08951762 -0.9833329 -0.1582494 526600 male
-2.467408 0.5302054 -1.473544 0.5494184 -0.835129 -0.02643931 1579288 male
-2.545611 0.5941331 -1.647538 0.5327929 -0.735414 -0.4186862 16704477 male
-2.520967 0.1219409 -1.375427 0.8374557 0.07413924 -0.5414531 4079174 male
-2.646244 -0.449941 -1.476255 0.9613876 0.1997618 -0.1892859 2040095 male
-2.527111 0.343445 -1.763239 0.6592267 -0.6033385 0.4487793 7563627 male
-2.762691 -0.3656546 -1.345525 -0.9830848 -0.1567581 0.0947178 2105377 male
-2.619494 0.633149 -1.504913 -0.2066881 0.8782468 0.4312336 9207928 male
-2.591002 0.5993918 -1.432962 -0.4615169 0.6372824 0.6171494 10984598 male
-2.503623 0.5644912 -1.406224 0.3085447 0.2308474 0.9227729 9472387 male
-2.685033 0.04633188 -1.394958 0.8385917 -0.03913071 -0.5433537 3288627 male
-2.374678 0.5261087 -1.536924 0.8375143 0.09012804 0.5389313 9736584 male
-2.649009 0.2701636 -1.237844 -0.228344 0.2391866 0.943742 8945790 male
-2.642155 0.5371507 -1.611864 0.4637388 -0.04583995 -0.8847855 5328201 male
-2.518283 -0.2129191 -1.36364 0.7453051 0.03413228 -0.6658496 2303274 male
-2.436601 0.5406007 -1.579218 -0.5722054 -0.02125374 -0.8198351 7236453 male
-2.482075 0.626497 -1.711396 0.903765 -0.3352191 -0.2661526 12629420 male
-2.711961 0.5491 -1.684845 -0.6102371 0.06510083 -0.7895398 9208700 male
-2.520309 0.1285033 -1.289216 0.87918 -0.07839244 0.4699973 2170913 male
-2.536497 -0.01888028 -1.314316 0.8830214 -0.1126964 0.4556019 1842724 male
-2.756077 -0.07491578 -1.387894 -0.8381598 -0.06027935 -0.5420838 2828843 male
-2.661347 0.624069 -1.501931 -0.1916593 0.8348975 0.5159585 13813438 male
-2.644955 0.5665255 -1.428502 -0.1683521 0.5830387 0.7948104 7563627 male
-2.52221 0.3765776 -1.826641 -0.5376334 0.2573158 -0.8029565 15715261 male
-2.590035 0.7765675 -1.71794 -0.739666 0.3478663 -0.5760934 3222825 male
-2.719246 0.2560445 -1.244289 -0.1739525 0.1596339 0.9717293 11905701 male
-2.472008 0.7703699 -1.658621 0.9456328 0.2903072 0.1466314 3947060 male
-2.736695 -0.10893 -1.401347 -0.1911585 -0.3970422 -0.8976725 2960429 male
-2.64097 0.5397171 -1.679225 0.6587327 0.5942206 -0.4614903 8550515 male
-2.80733 0.098474 -1.348189 -0.985495 -0.1680846 0.02339417 1908257 male
-2.691298 0.2781179 -1.247308 -0.1166842 0.2915538 0.9494111 9208443 male
-2.729535 0.4522245 -1.518627 -0.8048173 -0.2637692 -0.531691 3946035 male
-2.599513 0.2441402 -1.229413 0.2461278 0.1351956 0.9597622 11381413 male
-2.693764 0.03197807 -1.406203 0.6822411 -0.04714621 -0.7296057 3553598 male
-2.51768 0.2434709 -1.315309 0.9738411 0.108417 0.1996986 5590860 male
-2.708634 0.2873097 -1.441112 -0.3292249 -0.2591811 -0.9079848 7365989 male
-2.336926 0.3625211 -1.612095 -0.9936912 -0.04353333 -0.1033589 15849944 male
-2.48645 0.7978687 -1.658483 0.7639289 0.6407461 0.07653329 3354670 male
-2.54883 -0.005992717 -1.29442 0.6829863 -0.1775842 0.7085154 3157808 male
-2.545092 0.6555338 -1.531273 0.1156476 0.9828075 0.1439269 10656664 male
-2.695389 0.6321194 -1.575458 -0.5114505 0.815285 -0.2715306 4933187 male
-2.782434 0.131682 -1.284649 -0.6464155 -0.2686921 0.7141092 3355963 male
-2.532458 0.2417522 -1.362548 0.6848414 0.1695023 -0.7087041 7959409 male
-2.735926 -0.3972158 -1.359183 0.9495274 0.1475503 0.2768156 1777186 male
-2.724386 -0.1287303 -1.29559 0.2073981 0.2357507 0.949425 2303275 male
-2.535315 0.5508019 -1.583257 0.4314714 -0.1175819 -0.8944312 9011576 male
-2.631962 -0.0321576 -1.332546 -0.9910757 -0.1213917 0.0550772 2301475 male
-2.785223 -0.4557972 -1.335301 -0.4105727 -0.8509713 0.3275334 7631476 male
-2.683563 0.5811932 -1.682342 0.226706 0.6932167 -0.6841456 6050895 male
-2.535203 -0.4149632 -1.398287 -0.9227659 0.1397092 -0.3591446 2368550 male
-2.691997 -0.206369 -1.358324 0.8137233 -0.003262919 -0.5812436 2697257 male
-2.79059 -0.4383082 -1.371787 -0.9785562 0.06859462 0.1942235 2171169 male
-2.345078 0.3890685 -1.585149 -0.8551983 0.4036328 -0.3251411 16311001 male
-2.303112 0.3921318 -1.754987 0.3953556 0.9086348 0.1344496 15387579 male
-2.470031 0.4909154 -1.514783 0.869534 -0.4887968 0.07062975 4603710 male
-2.547747 0.7963874 -1.733015 -0.2121154 0.6854141 -0.6965736 15590106 male
-2.635692 0.4456213 -1.580295 0.1243144 -0.6197757 -0.7748705 16440506 male
-2.532163 0.5344878 -1.579642 0.4142442 -0.1464033 -0.898314 9932929 male
-2.761883 -0.1706443 -1.295535 -0.5580469 0.049257 0.8283464 3158840 male
-2.564079 0.2416575 -1.382541 0.4652814 0.0720158 -0.8822286 9407880 male
-2.343707 0.4798295 -1.606148 0.4508057 0.7696058 -0.4521961 16636876 male
-2.570675 0.653789 -1.564514 -0.1069416 0.7635869 0.6367878 14991799 male
-2.517873 -0.2994864 -1.361708 0.8206054 -0.05065106 -0.5692465 2827819 male
-2.546698 0.4688295 -1.366307 0.3442163 0.2206524 0.912594 5460555 male
-2.273636 0.360786 -1.667964 0.9624587 -0.2421963 -0.1225336 16574436 male
-2.408832 0.5864832 -1.578988 0.41492 0.3106901 -0.8551686 5460555 male
-2.513234 -0.2984175 -1.353295 0.9501956 -0.0689012 -0.3039428 2565928 male
-2.668662 0.07075462 -1.359157 0.9712887 -0.1292372 -0.1997403 2763053 male
-2.562146 -0.1406418 -1.281622 -0.002897114 0.2361527 0.9717118 2828851 male
-2.603301 -0.08471218 -1.36891 -0.6288394 -0.235185 -0.7411135 2368036 male
-2.514488 0.7907706 -1.736908 0.314189 0.6505868 -0.6913915 7168860 male
-2.581073 0.2237344 -1.233353 0.4539372 0.05572181 0.8892898 4278606 male
-2.69961 -0.4624824 -1.460698 -0.7370647 -0.6757709 0.008346081 264457 male
-2.384318 0.569455 -1.549672 0.8417004 0.5324921 -0.08940208 10326409 male
-2.68199 -0.08830457 -1.333272 0.9376985 -0.1993548 0.2845693 1907741 male
-2.403345 0.3906427 -1.902807 -0.5802267 0.08456053 -0.8100536 15716298 male
-2.704723 0.3190286 -1.460299 -0.5022759 -0.4212728 -0.7551479 6643548 male
-2.701444 0.03044306 -1.411795 0.5293927 -0.08737244 -0.8438659 3553598 male
-2.526936 -0.01632072 -1.345368 0.9720425 -0.2345279 -0.01141834 2696750 male
-2.751218 -0.209098 -1.388492 -0.3691032 -0.08254653 -0.9257154 2170913 male
-2.470922 0.759811 -1.698489 0.9427366 0.2346832 -0.2370062 6314583 male
-2.52543 -0.1128661 -1.330142 0.9736087 0.2168315 0.07120734 3157816 male
-2.689281 0.02480537 -1.303094 0.6797416 -0.1544446 0.7170066 2368292 male
-2.448491 0.6154178 -1.548315 0.2607846 0.9099804 -0.3223774 4538429 male
-2.710543 -0.1039833 -1.308906 0.5190508 0.1262243 0.8453721 2566695 male
-2.756967 -0.3872931 -1.398535 -0.5709114 0.4819773 -0.6646491 2368804 male
-2.399183 0.5952237 -1.560175 0.7639191 0.5439578 -0.3471855 8881794 male
-2.579808 -0.2526572 -1.357836 -0.6351928 -0.1218181 -0.7626865 1711394 male
-2.516313 0.3938473 -1.793392 0.1378731 0.8918483 0.4308104 16505806 male
-2.603914 0.4248679 -1.549504 0.3887988 -0.4267923 -0.8165072 14008227 male
-2.697941 -0.2680052 -1.354287 0.9072143 -0.09444454 -0.4099303 2697257 male
-2.656433 0.4120097 -1.337145 -0.1562087 0.4676149 0.8700203 9340286 male
-2.612298 0.7834479 -1.649295 -0.9285984 0.3628067 0.07795185 5327945 male
-2.443185 0.5660356 -1.57175 -0.3294927 -0.3342123 -0.8830272 8287347 male
-2.603859 0.7892993 -1.680949 -0.8255286 0.4824416 -0.292836 5196100 male
-2.593623 0.7174302 -1.70979 -0.8678453 -0.1995519 -0.4549989 6314326 male
-2.583198 -0.005620713 -1.277807 4.610419E-05 -0.2213631 0.9751917 2895667 male
-2.519608 -0.1814602 -1.295817 0.8212364 0.08546086 0.564152 2631464 male
-2.504967 0.3948527 -1.4193 0.9272975 -0.3264349 0.1831944 3553590 male
-2.638311 0.476148 -1.378219 -0.2533766 0.4677903 0.8467425 9143683 male
-2.510069 0.08096899 -1.327021 0.9794087 -0.08708306 0.1821412 2236450 male
-2.793449 0.1719384 -1.286054 -0.8319008 -0.1559092 0.5325726 3814714 male
-2.556219 0.7589508 -1.580635 -0.1894506 0.2036169 0.9605461 6313295 male
-2.581142 0.6493755 -1.686438 -0.8424659 -0.5141982 -0.1607841 13614004 male
-2.721242 0.1531432 -1.420807 0.3004007 0.1038703 -0.9481406 4078918 male
-2.67628 0.2036232 -1.415397 -0.2288257 -0.2935576 -0.9281503 1908765 male
-2.746874 -0.4555221 -1.408251 0.4315985 -0.9019038 -0.01709732 592137 male
