# .PCD v0.7 - Point Cloud Data file format
VERSION 0.7
FIELDS x y z normal_x normal_y normal_z rgb label
SIZE 4 4 4 4 4 4 4 4
TYPE F F F F F F U U
COUNT 1 1 1 1 1 1 1 1
WIDTH 249
HEIGHT 1
VIEWPOINT 0 0 0 1 0 0 0
POINTS 249
DATA ascii
1.282337 0.2667208 -1.301943 0.3583981 0.3124771 0.8797209 12301772 male
1.358955 0.2979818 -1.100334 0.457423 0.7706876 -0.443627 4672079 male
1.669269 0.2826653 -1.060863 0.1401958 0.7081506 0.6920028 526600 male
1.31299 0.1426256 -1.10206 -0.08655305 -0.8209265 0.5644362 9936562 male
1.298898 0.2625337 -1.291476 0.1713364 0.7650669 0.6207387 12828883 male
1.661916 0.3146143 -1.193514 0.2598717 0.9407546 0.2178245 9936295 male
1.304836 0.1281057 -1.42042 -0.2802599 -0.5705919 -0.7719321 10920370 male
1.299504 0.07207724 -1.337387 -0.3964278 -0.9004692 -0.1788863 9541284 male
1.252719 0.5824944 -1.145046 0.8368938 -0.2398858 0.4919995 15645108 male
1.494926 0.2422044 -1.245012 -0.1980419 0.9729358 -0.1190602 6580088 male
1.514341 0.2824278 -0.8384749 0.6589888 0.699472 -0.2765366 526600 male
1.231807 0.6100636 -1.106823 0.7697614 -0.1719438 0.6147379 10060932 male
1.382787 0.3707715 -1.423344 0.961498 0.03244917 -0.2728894 9997710 male
1.383622 0.1687794 -1.344952 0.1904612 0.8148891 -0.5474307 14541550 male
1.184699 0.1329597 -1.30202 -0.8593304 -0.5112953 0.01132771 6252400 male
1.382321 0.3515372 -1.001208 0.3708271 -0.1686781 -0.9132551 526600 male
1.545619 0.1330237 -1.23521 0.6870498 -0.7031589 -0.1831121 6054769 male
1.065408 0.4882952 -1.293425 -0.8260493 0.5169106 -0.2246022 6906219 male
1.559605 0.240488 -0.7819608 0.03302369 -0.148385 -0.988378 592137 male
1.302779 0.3489954 -1.285617 0.4200836 0.08141682 0.9038256 15069916 male
1.268813 0.5506628 -1.236719 0.7529457 -0.4371722 0.4918873 15054258 male
1.328531 0.2429467 -1.192259 0.4519255 0.7406646 -0.4971713 2304556 male
1.696167 0.1753684 -0.871542 -0.1925614 0.9171647 0.3488969 526600 male
1.410334 0.5326597 -1.60717 -0.2564805 -0.4535512 -0.8535274 14464700 male
1.643745 0.2025434 -1.037359 -0.6769649 -0.5459731 -0.4935908 526600 male
1.324687 0.4358825 -1.470435 0.1471826 0.1681656 -0.9747089 11314612 male
1.160563 0.4917866 -1.395756 -0.4137501 0.5069053 -0.7562129 14472937 male
1.11448 0.4910261 -1.24875 -0.2591575 0.6017612 0.7554607 10590633 male
1.539018 0.2615233 -1.21611 -0.1862144 0.9800698 -0.06919176 986895 male
1.138633 0.110104 -1.298952 0.4975355 -0.8512333 -0.1669142 14659243 male
1.222794 0.08976801 -1.251899 -0.6400832 -0.7500103 0.1666676 2369068 male
1.147015 0.5489034 -1.303175 -0.6773509 0.7124825 -0.183206 10065569 male
1.353418 0.3756334 -0.9173965 -0.5373736 0.2603928 0.8021379 526600 male
1.033616 0.3622731 -1.301681 -0.73866 0.1072173 0.6654966 16630713 male
1.172935 0.5313404 -1.19097 -0.547667 -0.8365427 0.01603444 15185581 male
1.387059 0.6120339 -1.363424 0.7368066 0.6637744 -0.1285284 7368827 male
1.224818 0.2072229 -1.144237 -0.8877785 0.216208 0.4063293 4474698 male
1.088271 0.4243311 -1.344515 0.1427205 0.1196722 -0.9825016 15909574 male
1.611785 0.2006301 -1.228106 0.6765294 -0.5012115 -0.5395321 526344 male
1.318323 0.44725 -1.468342 0.06241232 0.1886774 -0.9800538 10788526 male
1.324127 0.5555269 -1.414117 0.03350857 0.6605023 -0.750076 9406615 male
1.489972 0.5162205 -1.574775 0.8392591 0.5051295 -0.2012168 12427932 male
1.255798 0.6372322 -1.228199 0.7370366 0.663291 -0.1297 16770529 male
1.252851 0.2230349 -1.452618 -0.3803893 -0.628489 -0.6784582 10195619 male
1.110857 0.622554 -1.165592 -0.9376713 -0.2284204 -0.2619098 11314087 male
1.589603 0.2125689 -1.245016 0.7900003 -0.006806593 -0.6130686 1053204 male
1.405801 0.583334 -1.406845 0.8065599 0.5221136 0.2772337 14196636 male
1.489177 0.08937131 -1.289447 0.6777389 -0.6552403 -0.3336616 5067353 male
1.235611 0.3383883 -1.454283 -0.6794566 -0.09620746 -0.7273808 11907525 male
1.386248 0.4369506 -1.386708 0.9926042 0.09822646 0.07133287 526600 male
1.227688 0.1418195 -1.377923 -0.5284379 -0.5401392 -0.6549833 10722479 male
1.713106 0.1908647 -0.9664038 0.9087096 0.3344414 0.2497918 526600 male
1.233688 0.2222405 -1.224466 -0.4381873 0.876565 -0.1990616 4869467 male
1.400984 0.06860482 -1.338618 0.3800542 -0.7492017 -0.5424533 3422270 male
1.032732 0.3165908 -1.364371 0.6892867 -0.1224187 0.7140711 13542568 male
1.107629 0.6733252 -1.148443 -0.961118 0.2757647 0.0143519 526600 male
1.355492 0.3139496 -1.015623 0.1919123 -0.9373515 -0.2907607 657930 male
1.655346 0.2349668 -0.7553883 0.8044599 -0.4956957 0.3273075 526600 male
1.338419 0.5489408 -1.291946 0.1829303 0.3082066 0.9335657 8618124 male
1.443239 0.1054451 -1.355366 0.6733962 -0.3186063 -0.6671039 7303801 male
1.22247 0.1586883 -1.156937 -0.8247383 -0.1881867 0.5332846 3420989 male
1.698449 0.1630079 -0.8863774 -0.4174284 0.7203376 0.5539561 526600 male
1.698352 0.3485147 -1.15177 0.06221701 0.8170531 0.5731956 526600 male
1.269584 0.1354067 -1.40558 -0.5070318 -0.5325496 -0.6777238 11117233 male
1.258004 0.07615247 -1.202867 -0.2793193 -0.7842317 0.5540408 9146780 male
1.690461 0.1202669 -0.8868822 -0.6452416 -0.3414221 0.683443 526600 male
1.379181 0.6107358 -1.32715 0.1828975 0.8412004 0.5088521 8288642 male
1.568869 0.2280754 -0.7388445 0.328266 -0.9397817 0.09514152 526600 male
1.682159 0.221958 -1.058858 0.5796489 -0.8124481 0.06273007 526600 male
1.669895 0.1187391 -0.9785163 0.07164872 -0.5193602 -0.8515465 526600 male
1.07277 0.333692 -1.32916 0.8912476 -0.3801054 0.2473812 8812409 male
1.048652 0.1931981 -1.370986 0.603406 -0.4887342 -0.6301112 790028 male
1.224239 0.4148486 -1.23866 0.2677787 -0.03654449 0.9627872 16771724 male
1.188225 0.633018 -1.075687 0.1987279 0.01896896 0.9798712 1051656 male
1.292734 0.525764 -1.263776 0.4068863 0.2110863 0.8887555 15327220 male
1.328397 0.1103634 -1.410478 0.01179183 -0.6544225 -0.7560371 11054783 male
1.724567 0.2726618 -1.19033 0.4725029 -0.7767048 -0.416498 526600 male
1.254686 0.2442686 -1.265048 -0.01649067 0.9057035 0.423591 12368580 male
1.19036 0.1363784 -1.273604 0.8981067 -0.4370514 0.04889268 527360 male
1.135066 0.6122592 -1.088819 -0.616138 -0.1973639 0.7625099 789516 male
1.41187 0.3031141 -0.8781238 -0.4984298 -0.07493934 0.863685 526600 male
1.189867 0.1503691 -1.352646 -0.6734281 -0.5101197 -0.5350444 11512765 male
1.005417 0.3030432 -1.411722 -0.253322 -0.04971929 -0.9661036 16761277 male
1.050458 0.4300049 -1.285 -0.8907628 0.01805937 0.4541096 10918561 male
1.402166 0.2893627 -0.8899677 -0.6522837 -0.3939004 0.6475868 526600 male
1.482356 0.2358627 -1.222241 -0.425397 0.873095 0.2382072 6119276 male
1.32482 0.2604973 -1.021343 -0.5683804 -0.5968944 0.5662692 657418 male
1.330387 0.3386416 -1.010091 -0.7641855 0.4635128 0.4485268 5066580 male
1.180676 0.5790715 -1.094033 0.07486644 -0.6058974 0.7920122 7758949 male
1.19518 0.1370369 -1.231305 -0.894475 -0.2873226 0.3425786 2698289 male
1.295766 0.5919865 -1.292566 0.3978629 0.5816851 0.7094699 7433848 male
1.061749 0.3531351 -1.288156 -0.04004818 -0.2535262 0.9664991 16435400 male
1.662061 0.3195539 -1.101909 -0.3188568 0.747489 0.582744 526344 male
1.598657 0.4000811 -1.583302 0.6217435 0.7597768 0.1901952 9197906 male
1.157144 0.3588043 -1.299057 -0.6755954 -0.4146842 0.6095964 526600 male
1.682808 0.244835 -1.024268 0.3826539 0.7698038 0.5108603 526600 male
1.263031 0.1471345 -1.119039 -0.5433552 -0.4610688 0.7015559 8884123 male
1.706659 0.3390528 -1.138833 0.3294951 0.7291725 0.5997835 526600 male
1.114934 0.6010033 -1.148336 -0.9201214 -0.3896567 -0.03929669 11906994 male
1.317987 0.2614979 -1.021799 -0.6792436 -0.4416988 0.5861146 1052433 male
1.431802 0.1608288 -1.18617 -0.4790725 0.2086706 0.8526113 3618878 male
1.227742 0.4767026 -1.240129 0.1056024 0.005937477 0.9943907 14933492 male
1.725084 0.2665136 -1.169128 0.5784521 -0.7761896 -0.2508442 526600 male
1.685188 0.1434804 -0.9837821 0.08854574 -0.8750523 -0.4758604 526600 male
1.046827 0.4342411 -1.305873 -0.9757373 0.2109909 -0.05847716 8484222 male
1.392799 0.3832336 -0.9194628 0.3842661 0.7617943 0.5215449 526600 male
1.481107 0.5021758 -1.541238 0.2480528 0.4495946 0.8580994 16704483 male
1.280536 0.4896013 -1.254957 0.2654314 -0.04976098 0.9628447 14012650 male
1.691173 0.2772761 -1.068143 0.5209683 0.5223315 0.6751013 526600 male
1.267435 0.5600365 -1.407006 -0.3260575 0.7304958 -0.600052 13026261 male
1.240387 0.6911103 -1.170775 0.8249286 0.564118 -0.03554744 13616328 male
1.055753 0.4641236 -1.30547 -0.8691536 0.389923 -0.3041908 6710382 male
1.240901 0.680114 -1.13225 0.8430382 0.4505668 0.293728 7103849 male
1.241183 0.5650864 -1.144134 0.529995 -0.5652239 0.6321608 15711669 male
1.340207 0.2397377 -1.032929 -0.1640509 -0.8579885 0.4867679 4802897 male
1.346864 0.3320939 -0.9858077 -0.5761985 -0.6195585 -0.5330504 526600 male
1.233768 0.2621903 -1.291153 -0.1002624 0.5410407 0.8349984 7565184 male
1.202451 0.4827049 -1.413134 -0.2479805 0.5246332 -0.8144114 12235204 male
1.303797 0.1986121 -1.058795 -0.5541106 -0.441066 0.7059901 5528421 male
1.46346 0.08737198 -1.322729 0.6674962 -0.5455917 -0.5067332 4145737 male
1.133943 0.7117071 -1.164934 -0.6172618 0.7676488 -0.1723467 526344 male
1.243974 0.5331216 -1.187088 0.6710453 -0.6380623 0.3775907 13938088 male
1.444421 0.2004849 -1.200306 -0.4644487 0.6593491 0.5912244 2763053 male
1.321901 0.2841395 -1.311816 0.5682462 0.04357593 0.8217039 12235207 male
-2.548698 0.3403874 -1.430045 0.7531692 -0.6351112 -0.1713768 6117204 male
-2.611234 0.05497875 -1.363103 0.02964646 -0.04704184 -0.998453 3223601 male
-2.761582 -0.005908522 -1.389265 0.03825527 -0.1409432 -0.9892785 3553342 male
-2.631351 0.1199717 -1.209069 0.1113438 -0.2944932 0.9491452 1908003 male
-2.578721 0.3094896 -1.394572 0.7598107 -0.5633248 -0.3245814 6248275 male
-2.816041 -0.1592438 -1.343466 -0.8655021 0.06134798 -0.4971346 2434090 male
-2.785147 0.3661205 -1.403097 -0.961908 0.0357171 -0.2710304 3025961 male
-2.546428 0.4209352 -1.549229 0.2084184 -0.5259311 -0.8245959 16769973 male
-2.54244 0.6120924 -1.747211 -0.6327044 -0.2125835 -0.7446432 15848904 male
-2.720101 0.06551436 -1.359745 0.9112747 -0.03050674 -0.410668 2434604 male
-2.56123 -0.3331837 -1.341458 0.344604 0.1623987 -0.9245944 2302504 male
-2.551778 0.6396739 -1.743357 -0.8019996 -0.1764032 -0.5706829 7365728 male
-2.769882 0.4068486 -1.43311 -0.9961222 0.08277538 -0.02981651 4933187 male
-2.640705 0.2563455 -1.405032 0.5021816 -0.4979511 -0.7070067 8352878 male
-2.642397 0.3173833 -1.227546 0.1383689 0.536121 0.8327236 9077117 male
-2.643539 -0.09056164 -1.276039 -0.7384103 -0.1340962 0.6608847 2302507 male
-2.829038 0.03968884 -1.305516 -0.9149314 -0.2951063 0.2753417 2829361 male
-2.438444 0.4976239 -1.567253 -0.2605715 -0.4183106 -0.8701259 6973538 male
-2.552806 -0.4399467 -1.371045 -0.6403353 -0.6385138 -0.4269321 3223601 male
-2.488018 0.4306331 -1.516994 0.6897174 -0.6104598 -0.3893957 5198415 male
-2.52773 0.5291515 -1.648776 0.6049988 -0.7849721 -0.1333993 16442073 male
-2.58957 0.1279443 -1.356114 0.4298747 0.1121031 -0.8959022 4144968 male
-2.659915 -0.4632375 -1.444967 0.7817896 -0.6123697 -0.1175109 2433317 male
-2.560843 0.2860141 -1.800406 0.4654412 -0.8597898 0.2100622 6379604 male
-2.788084 -0.3615949 -1.299808 -0.5391836 -0.1479716 0.8290873 3552824 male
-2.683564 0.5909941 -1.538302 -0.3485577 0.9162865 0.1972984 10656658 male
-2.593063 0.5555623 -1.421208 -0.3508334 0.6986455 0.6235467 10328206 male
-2.49528 0.4720287 -1.412006 0.8257692 -0.2206356 0.519062 3222569 male
-2.775432 0.04592059 -1.399251 -0.005245745 -0.1669297 -0.9859551 3949129 male
-2.36948 0.4666292 -1.528183 0.6955525 0.08222495 0.713755 8682875 male
-2.703848 0.2972074 -1.223246 -0.2552931 0.4691391 0.8454195 9668738 male
-2.565146 0.5206971 -1.634803 -0.04284459 -0.8259085 -0.5621738 16709358 male
-2.549208 -0.2095164 -1.291012 0.9899228 0.001671102 0.1415989 2302499 male
-2.401179 0.481289 -1.589846 -0.09458196 0.3584741 -0.9287362 9209467 male
-2.490248 0.5255632 -1.700112 0.00385958 -0.9359962 0.3519887 12170409 male
-2.734607 0.4956808 -1.611124 -0.9194961 -0.3930939 0.002098739 5131597 male
-2.599829 0.198505 -1.341875 0.4744072 0.2701874 -0.8378167 3027253 male
-2.451212 0.4907036 -1.497363 -0.1579383 -0.9866121 0.04064508 526600 male
-2.759696 -0.02403899 -1.3879 -0.01801151 -0.04088279 -0.9990017 3618879 male
-2.617909 0.6026027 -1.54297 0.01711053 0.9677042 0.2515075 10590353 male
-2.671884 0.5379189 -1.434524 -0.1879903 0.6633812 0.7242826 7563627 male
-2.55107 0.3160065 -1.872494 -0.5059165 -0.2694786 -0.8194082 16576489 male
-2.572629 0.6349134 -1.64577 -0.92188 -0.1897444 0.3378383 5393993 male
-2.748264 0.2901787 -1.230005 -0.1832173 0.4119599 0.8925922 9604233 male
-2.436503 0.6878768 -1.677524 0.9488174 0.2264402 0.2201606 3947060 male
-2.770422 -0.08503076 -1.384314 -0.2300306 -0.2430909 -0.9423338 3683385 male
-2.627178 0.4861343 -1.70254 0.6956946 0.5753241 -0.4301296 8550515 male
-2.856779 0.1313027 -1.326902 -0.9861243 -0.1123986 -0.1221711 1972767 male
-2.80593 0.3017088 -1.270304 -0.7590727 0.4150573 0.5015339 7498858 male
-2.718059 0.4346792 -1.551586 -0.6847361 -0.3288357 -0.6503874 4406843 male
-2.646664 0.2427998 -1.196771 0.2295266 0.1507579 0.961556 4671813 male
-2.765038 0.02609525 -1.394208 0.1091835 -0.1935628 -0.9749936 4212040 male
-2.566418 0.2191049 -1.258572 0.9309247 0.09453006 0.3527656 2303014 male
-2.81583 0.2966112 -1.386855 -0.7661366 0.2093559 -0.6076224 3749944 male
-2.31898 0.3273492 -1.595254 -0.8893953 0.1970563 -0.4124864 16704740 male
-2.448066 0.7162238 -1.682651 0.8099194 0.5806709 0.08277678 3354670 male
-2.636769 -0.03203609 -1.251672 -0.2944252 -0.2399449 0.9250624 3092015 male
-2.572372 0.6057172 -1.536634 -0.1318073 0.9907586 0.03200268 9538433 male
-2.677809 0.5863895 -1.617673 -0.1761448 0.7632344 -0.6216483 5855056 male
-2.851022 0.188493 -1.289751 -0.9852867 -0.01384241 0.170349 2960433 male
-2.568421 0.2065038 -1.251153 0.9050547 0.08103256 0.4175044 2699056 male
-2.770788 -0.3966736 -1.35546 0.9497099 0.2811009 0.1379621 1710362 male
-2.798946 -0.2106235 -1.362086 -0.5765783 -0.1116228 -0.8093813 1842205 male
-2.788053 0.3665784 -1.371905 -0.9791788 0.2029871 -0.002342463 4078646 male
-2.67486 -0.03133553 -1.302411 -0.9908643 -0.1306013 -0.03363693 2301475 male
-2.834934 -0.4535604 -1.358274 -0.9387072 -0.3048449 0.1609308 2697257 male
-2.698244 0.5376502 -1.686127 -0.2634014 0.810881 -0.5225819 9078140 male
-2.555899 -0.4469273 -1.348384 -0.2813998 -0.9353149 -0.2144766 723723 male
-2.751054 -0.2231542 -1.35326 0.6873968 -0.0276049 -0.7257574 2566189 male
-2.817539 -0.4056911 -1.330585 -0.9025459 -0.2518622 0.3492514 2697514 male
-2.33374 0.34413 -1.591848 -0.8730173 -0.02093962 -0.4872399 16704479 male
-2.252751 0.3649706 -1.749032 -0.7133762 0.6932895 0.1021979 16773349 male
-2.455709 0.509276 -1.570521 0.01064545 -0.1430191 -0.9896628 8419440 male
-2.489553 0.7094958 -1.76348 0.1285645 0.6091039 -0.7826008 10459279 male
-2.644019 0.4271168 -1.592935 0.1848302 -0.5410665 -0.8204176 8946038 male
-2.503933 0.5716649 -1.55048 0.6462841 0.2231325 -0.7297459 4472892 male
-2.819829 -0.2167209 -1.317841 -0.9802496 -0.1977647 0.0001450777 1777185 male
-2.607631 0.2328195 -1.343552 0.5239468 0.067929 -0.8490381 1775894 male
-2.328422 0.441021 -1.586836 0.7216038 0.692138 -0.0152722 16770005 male
-2.529571 0.612668 -1.598677 0.1255456 0.4550349 0.881579 6904914 male
-2.557228 -0.2735046 -1.325523 0.8089278 -0.04257228 -0.5863649 2367780 male
-2.590524 0.4407716 -1.341653 0.264637 0.330297 0.9060196 9077116 male
-2.232434 0.3250651 -1.633046 0.974224 -0.04988486 0.2199986 16638690 male
-2.420864 0.5354908 -1.483816 0.6036481 0.4611027 0.6503794 5327945 male
-2.551375 -0.271746 -1.306607 0.9955337 -0.06418162 -0.06923616 2499624 male
-2.714541 0.05781553 -1.336649 0.9832664 -0.09219309 -0.157124 2632236 male
-2.573991 -0.1341386 -1.263801 0.6981713 0.286195 0.6562389 2170403 male
-2.587144 -0.04954647 -1.351638 0.7026596 0.0660349 -0.7084556 3554629 male
-2.462294 0.6845939 -1.765855 0.511657 0.3196485 -0.7975163 8353135 male
-2.631102 0.2183411 -1.196862 0.3846456 0.1040663 0.9171795 4672854 male
-2.598837 0.6027134 -1.578503 -0.05968894 0.9761646 0.2086622 4473152 male
-2.37404 0.5049345 -1.552651 0.7663835 0.6342057 -0.1021745 16179147 male
-2.726864 -0.09610881 -1.308866 0.9318681 -0.212318 0.2941824 2039843 male
-2.433904 0.3513468 -1.957848 -0.7297344 0.1349161 -0.6702878 15717578 male
-2.808079 0.331138 -1.378005 -0.7514277 0.4994848 -0.4311284 2698023 male
-2.732318 -0.2370063 -1.322181 0.9736102 -0.1062116 -0.2019964 2368550 male
-2.560105 0.03007071 -1.296739 0.9562817 -0.2044893 0.2090688 2434600 male
-2.821165 -0.1713122 -1.298787 -0.9492395 0.008830824 0.3144308 2696745 male
-2.431452 0.6601517 -1.705451 0.9998116 0.01940125 0.0008198619 5459015 male
-2.590078 -0.1377563 -1.252448 0.3175845 0.2788133 0.9063132 2303014 male
-2.720175 0.03888775 -1.296437 0.9296032 -0.1154414 0.3500163 1841436 male
-2.437584 0.5535896 -1.481175 0.6151886 0.6510777 0.4445684 9406594 male
-2.808679 -0.2315472 -1.293621 -0.8118238 -0.2500439 0.5276556 2499110 male
-2.798894 -0.3864887 -1.368804 -0.7654517 0.1252296 -0.6311907 2697257 male
-2.426244 0.5240771 -1.473107 0.5380741 0.1463047 0.8301033 9013121 male
-2.619075 -0.1271488 -1.337794 -0.3923429 -0.3011664 -0.869118 2170913 male
-2.536328 0.3527978 -1.860271 -0.3449802 0.9329205 -0.1031891 16043712 male
-2.57621 0.4364675 -1.564406 0.2084609 -0.5988765 -0.7732342 10061689 male
-2.750257 -0.009009068 -1.386302 0.2351791 -0.07596733 -0.9689789 3949386 male
-2.773413 0.3810349 -1.343755 -0.76987 0.4345836 0.4673729 7365988 male
-2.574956 0.7135881 -1.68705 -0.8931085 0.4420545 -0.08333737 5327945 male
-2.415236 0.5492054 -1.552225 0.4579684 0.8049195 -0.3773192 8156787 male
-2.554872 0.7226217 -1.718096 -0.6343272 0.6244403 -0.455745 4669241 male
-2.556492 0.6383924 -1.735728 -0.8311079 -0.1892149 -0.5229318 6314326 male
-2.649648 -0.02910569 -1.257944 -0.5529456 -0.2658304 0.7896744 3093047 male
-2.56075 -0.1551786 -1.273347 0.8823609 0.2170873 0.4175075 2303016 male
-2.555214 0.3676092 -1.348113 0.8874529 -0.03319488 0.4597019 3354923 male
-2.646553 0.4796655 -1.379069 -0.4260819 0.6052887 0.6723689 9406339 male
-2.55528 0.09707309 -1.278456 0.9617414 -0.05728431 0.2679037 2302501 male
-2.846262 0.1793715 -1.276404 -0.9435759 -0.08467136 0.3201489 3222578 male
-2.518991 0.6815029 -1.603043 -0.1327319 0.2419855 0.9611585 9340029 male
-2.536587 0.5567105 -1.718622 -0.7083055 -0.5933543 -0.3824056 14469564 male
-2.7222 0.1535418 -1.362986 0.7894174 0.003419225 -0.6138475 3158840 male
-2.730407 0.2059649 -1.380546 0.07369679 -0.112278 -0.9909404 2171428 male
-2.787292 -0.4416341 -1.333888 0.9796782 -0.09844852 0.1747537 1315604 male
