# .PCD v0.7 - Point Cloud Data file format
VERSION 0.7
FIELDS x y z normal_x normal_y normal_z rgb label
SIZE 4 4 4 4 4 4 4 4
TYPE F F F F F F U U
COUNT 1 1 1 1 1 1 1 1
WIDTH 247
HEIGHT 1
VIEWPOINT 0 0 0 1 0 0 0
POINTS 247
DATA ascii
1.450529 1.138648 -0.7148407 -0.2599078 -0.2926224 0.9202283 6578022 male
1.421241 0.6124569 -0.8386986 0.6830977 -0.3563001 -0.6375167 526600 male
1.560617 0.4377912 -0.9467024 -0.5693443 -0.2778822 0.773711 526600 male
1.356548 0.8001111 -0.7633248 -0.8380369 -0.01955681 0.545263 5198432 male
1.470933 1.104636 -0.7246091 -0.02695355 -0.3632171 0.9313145 7236214 male
1.619889 0.5430278 -0.9844015 0.857442 0.1103934 -0.5025998 526600 male
1.595465 1.090562 -0.8320054 0.9487282 -0.2724063 0.1603419 9604250 male
1.521335 1.24668 -0.6673668 0.3600646 -0.2784048 0.8904179 9670044 male
1.68583 1.416237 -0.6575418 0.9147295 -0.3813183 0.1336645 11899532 male
1.604136 0.8088827 -0.8612281 0.6922843 -0.05322863 0.719659 9475747 male
1.314745 0.479398 -0.839834 -0.8517357 -0.09902753 -0.5145287 526600 male
1.737502 1.490031 -0.6791291 0.9496955 -0.1148773 -0.2913445 9538449 male
1.574503 1.133625 -0.9186149 0.5260157 -0.09134164 -0.8455555 6446952 male
1.515297 1.122015 -0.7202439 0.2133927 -0.3275976 0.920404 11249337 male
1.359899 1.035862 -0.859833 -0.8633593 0.4042414 -0.301993 9144212 male
1.390936 0.6879106 -0.8627246 -0.1654083 -0.1388277 -0.976405 9147044 male
1.515823 0.7565387 -0.9728161 -0.4593979 -0.1292762 -0.8787724 10461623 male
1.432421 1.262443 -0.6792103 0.8813781 -0.4233002 0.2097372 13679808 male
1.350825 0.2548483 -0.7543178 -0.04928706 -0.9980769 0.03759453 526600 male
1.43305 1.275399 -0.7044056 -0.4337409 -0.4801094 0.7624722 526600 male
1.580981 1.396781 -0.6957141 -0.4664996 -0.5528491 0.6904607 8087915 male
1.490782 0.8521644 -0.7901176 0.8886499 -0.310084 0.3378598 6119277 male
1.725414 0.2787606 -0.8505856 0.2189796 -0.9616785 -0.1649921 526600 male
1.666965 1.042068 -0.929859 -0.4130442 -0.2625907 0.8720324 1379344 male
1.61135 0.4036764 -0.9514455 0.6062962 0.001302302 0.7952379 526600 male
1.510286 1.308886 -0.8900712 -0.6219828 0.4239949 -0.6583052 11380670 male
1.441643 1.339358 -0.8158739 -0.5593278 0.4899721 -0.6686403 16577789 male
1.524457 1.179411 -0.703495 0.3994047 -0.3713504 0.8381974 11907527 male
1.54139 0.6559239 -0.883543 -0.3236138 -0.3033336 0.8962492 724747 male
1.375785 1.294527 -0.6763507 -0.8416455 0.3024834 0.4473662 15908277 male
1.369907 0.9645435 -0.9144046 -0.6848959 0.1019422 -0.7214745 7897745 male
1.602924 1.348682 -0.7270938 0.4599535 -0.7841884 0.4165229 12169409 male
1.335406 0.4390515 -0.7773034 -0.4617581 -0.1072086 0.8805031 526600 male
1.414954 1.334878 -0.6509976 -0.3430633 -0.1605852 0.9254836 7829378 male
1.593479 1.396491 -0.6700793 -0.7789332 -0.5029353 0.3745922 11506569 male
1.680385 1.31449 -0.9190946 0.6356907 0.1228946 -0.7620986 8813443 male
1.355238 0.8923874 -0.7755681 -0.8561242 0.1013655 0.506731 3553606 male
1.323077 0.580569 -0.8220117 -0.9282126 0.3679173 -0.05529895 526600 male
1.602139 0.619794 -0.9744464 0.7171935 0.2514172 -0.6499407 526600 male
1.521626 1.377247 -0.8188111 -0.4039456 0.7383701 -0.5400348 15722487 male
1.582232 1.098972 -0.9118942 0.7836402 0.0389554 -0.6199923 3157298 male
1.705554 1.040565 -0.9644478 0.8195474 0.1115978 -0.562039 12491674 male
1.742399 1.50231 -0.6576887 0.9981188 0.05264431 -0.03142294 3223601 male
1.469468 0.949051 -0.9885104 -0.2718906 0.04382484 -0.9613297 5066077 male
1.623866 1.49986 -0.6031144 -0.6277766 0.008790324 0.7783439 11314087 male
1.577258 0.6074685 -0.8983818 -0.02795991 -0.4668618 0.8838881 592137 male
1.690562 1.261845 -0.9067712 0.983405 0.1301965 -0.1263466 14196636 male
1.606797 0.809992 -0.9492243 0.8030336 0.05568236 -0.5933266 6185839 male
1.418424 0.9358165 -0.9467701 -0.6621408 -0.1663986 -0.7306716 8094100 male
1.641226 1.224548 -0.8389209 0.8556191 -0.3740742 -0.3577493 8157060 male
1.355218 0.9835515 -0.8881502 -0.8839913 0.1960021 -0.4244319 14871032 male
1.546439 0.4879468 -0.9360976 -0.5908799 -0.3097612 0.7449222 526344 male
1.384016 0.9524711 -0.7515965 -0.5276081 0.1458005 0.8368822 2632240 male
1.591015 0.9973423 -0.8774278 0.926302 0.0226046 0.3761032 6577255 male
1.348725 1.144595 -0.7065784 0.988236 -0.007585884 0.1527481 15779530 male
1.642045 1.550789 -0.6064352 -0.3667794 0.5029207 0.7826516 526600 male
1.361222 0.7291507 -0.8530121 -0.7546097 -0.06818485 -0.6526217 7303808 male
1.496603 1.409598 -0.762335 -0.4219749 0.8751286 -0.2368273 13684702 male
1.63825 1.380994 -0.8080146 0.930786 0.2734867 0.2425747 11380149 male
1.494262 0.8493279 -0.9770179 -0.3958473 -0.2830399 -0.8736094 5395554 male
1.396014 0.9428514 -0.7458441 -0.2934309 0.1763009 0.939583 3882051 male
1.615199 0.3093033 -0.9393113 -0.6983427 0.1143888 0.7065639 526600 male
1.548004 0.5682468 -0.9992816 -0.560858 0.2333843 -0.7943361 526600 male
1.596457 1.097635 -0.8213035 0.9272581 -0.3247966 0.1862782 9340566 male
1.417327 0.8084691 -0.8910785 -0.0157077 -0.2051958 -0.978595 5989227 male
1.612782 0.278029 -0.9942313 0.05957529 -0.9970562 -0.04826755 526600 male
1.705789 1.318035 -0.87362 0.9517252 -0.2736366 0.1390759 9999009 male
1.370715 0.2680338 -0.817117 0.9139813 -0.2791739 -0.2944489 526600 male
1.601358 0.436833 -0.9432306 0.3171872 -0.1651855 0.9338663 526600 male
1.605445 0.3078834 -1.021942 0.3971199 0.4304274 -0.8105726 526600 male
1.342685 1.185943 -0.694414 0.846238 0.115109 0.5202222 15184821 male
1.291176 1.160883 -0.7348599 -0.889053 -0.1745327 -0.4232292 16170690 male
1.413045 1.342671 -0.7367134 -0.9180292 0.09009127 -0.3861425 7500410 male
1.719915 1.547381 -0.6276019 0.7403207 0.5161083 0.4307638 526600 male
1.631714 1.270486 -0.7567949 0.6933999 -0.05093476 0.7187504 15457781 male
1.599879 1.115571 -0.799733 0.8821794 -0.3702931 0.2909338 11972801 male
1.542183 0.5562602 -0.9977013 -0.6779602 0.1438213 -0.7208921 526600 male
1.46571 0.977934 -0.7583644 0.2881125 -0.1391389 0.9474342 12368580 male
1.395757 1.257812 -0.6583689 0.1290033 -0.007512842 0.9916157 16766162 male
1.713982 1.479104 -0.5949944 0.5645416 -0.08208515 0.8213129 526600 male
1.369716 0.4058906 -0.7955964 0.8656231 -0.1435993 0.4796623 526600 male
1.393612 1.135281 -0.8328637 -0.9386409 0.1732561 -0.2982207 10130595 male
1.321399 1.085209 -0.6655908 -0.2908914 0.1818126 0.9393223 16437712 male
1.470533 1.327931 -0.6438857 0.3637057 -0.5071166 0.7813776 8420232 male
1.373973 0.4031295 -0.8199802 0.962838 -0.2642673 -0.05572867 526600 male
1.583187 0.8095072 -0.8484751 0.3999621 -0.09293448 0.9118078 9870512 male
1.329514 0.5509523 -0.7830392 -0.704794 0.181617 0.6857702 526600 male
1.428479 0.6942692 -0.7567877 0.4398806 -0.2634196 0.8585541 7896977 male
1.735578 1.465573 -0.6673407 0.9381626 -0.2853938 -0.1959627 13150894 male
1.348814 0.9944758 -0.8378202 -0.9930084 0.0973141 0.06681579 12764624 male
1.562645 1.418985 -0.789273 -0.1733907 0.9345126 -0.3108405 14341352 male
1.404769 1.377987 -0.6726441 -0.8367726 0.4824004 0.2590394 7038323 male
1.511264 0.7240114 -0.8838336 -0.6833842 -0.2471649 0.6869465 3948099 male
1.723675 0.8651738 -0.9994327 -0.3880428 -0.1728255 0.9052923 1052688 male
1.563379 1.123854 -0.7487799 0.6108239 -0.2650705 0.7460774 15727085 male
1.548385 0.4714383 -0.9432752 -0.6857369 -0.3340209 0.64668 526600 male
1.387578 0.4717744 -0.804266 0.9186924 -0.1815651 0.3507686 526600 male
1.609782 0.5146762 -0.998664 0.6695061 -0.004486748 -0.7427931 526600 male
1.674739 1.449484 -0.5926933 -0.0240612 -0.3946337 0.9185234 14591137 male
1.315011 0.5362096 -0.8419365 -0.8748699 0.1451031 -0.4621122 526600 male
1.510868 0.7057822 -0.9498925 -0.8152326 -0.1908398 -0.546787 9409952 male
1.462865 1.35325 -0.6390034 0.2791433 0.2503307 0.9270455 11184050 male
1.526173 0.5620295 -0.9663234 -0.9815156 0.1173026 -0.1512186 526600 male
1.628418 0.3261493 -1.000757 0.6419653 0.1701413 -0.7476179 526600 male
1.460672 1.33443 -0.6577707 0.5580763 -0.6609281 0.501722 10524840 male
1.406561 0.5941816 -0.770079 0.6238708 -0.5697399 0.5349594 855309 male
1.620323 1.133522 -0.9303433 -0.8686264 -0.2731508 0.4133724 1249299 male
1.590516 1.214871 -0.7450075 0.3453012 -0.3712156 0.8619548 16317176 male
1.598822 0.7352267 -0.8695 0.6510884 -0.213021 0.7284955 8687002 male
1.489992 1.057303 -0.9536547 -0.2784256 0.6166751 -0.7363361 10459559 male
1.651303 1.569895 -0.7160836 -0.099381 0.8066041 -0.5826777 16643837 male
1.406155 1.245987 -0.6639283 0.4681787 -0.2492989 0.8477374 15380401 male
1.668171 1.537443 -0.7394018 0.2374235 0.3925696 -0.8885489 16116461 male
1.687607 1.41335 -0.6449651 0.8098196 -0.552059 -0.1985524 15121078 male
1.375086 0.7319174 -0.8647446 -0.4945927 -0.1172099 -0.8611852 3685188 male
1.311562 0.518526 -0.8384366 -0.9222347 0.03981996 -0.3845745 526600 male
1.399541 1.103155 -0.7655504 -0.831467 0.01990432 0.5552174 7170933 male
1.470803 1.312539 -0.84913 -0.4553121 0.4531678 -0.7663744 11380410 male
1.34934 0.5767785 -0.7714987 -0.4843974 0.1515429 0.8616228 526600 male
1.514372 0.8788469 -0.9898758 -0.0255006 -0.205227 -0.9783821 8686228 male
1.641176 1.57597 -0.6329589 -0.3661518 0.8113186 0.4557357 526344 male
1.694517 1.421732 -0.7145876 0.7284957 -0.4360014 -0.5283909 15711925 male
1.617608 0.8482546 -0.8938283 0.9857368 0.132821 0.1033508 3948092 male
-2.668293 0.509831 -1.257819 0.9159837 -0.02761109 -0.4002648 5722703 male
-2.602685 0.1636644 -1.315975 -0.3416029 -0.1186669 -0.9323229 3092272 male
-2.73352 0.07346216 -1.290965 0.9554971 -0.05255516 -0.2902817 2829615 male
-2.607846 0.2073523 -1.163565 0.4565373 -0.1799967 0.8713065 2302507 male
-2.669745 0.5413325 -1.264178 0.902086 -0.03058757 -0.4304712 5197383 male
-2.842742 -0.09557133 -1.226818 -0.9204913 0.2097952 0.3296695 2696233 male
-2.815923 0.4550507 -1.330304 -0.2432179 -0.1093329 -0.9637903 6379348 male
-2.68867 0.6795571 -1.283591 0.4596506 0.4252064 -0.7796929 7631214 male
-2.792119 0.898683 -1.357907 -0.4503917 -0.03735216 -0.8920497 9799549 male
-2.783733 0.1390412 -1.345825 0.1744121 -0.1073847 -0.9787999 4278095 male
-2.319396 -0.1335504 -1.307885 0.925078 0.2943059 -0.2400314 2368808 male
-2.804735 0.9066902 -1.351264 -0.4882206 -0.1150057 -0.8651097 5394762 male
-2.873169 0.4572571 -1.299321 -0.7761708 -0.2073261 -0.5954621 3223085 male
-2.725338 0.447946 -1.320884 0.4119723 0.02604503 -0.9108242 7893611 male
-2.735289 0.4766057 -1.142348 0.1283001 -0.006820865 0.991712 6907233 male
-2.543275 0.1007017 -1.230757 0.163126 -0.2519649 0.9538888 2565930 male
-2.828911 0.07384129 -1.226338 -0.788012 -0.1984874 0.5827866 3223608 male
-2.66852 0.6939178 -1.182899 -0.5226516 -0.7439284 -0.4164203 6183766 male
-2.241749 -0.279157 -1.362721 0.1206646 -0.9348052 0.3340348 526344 male
-2.655779 0.6332706 -1.237072 0.9181527 -0.3367826 0.2087417 4341050 male
-2.750005 0.7680309 -1.297417 0.7927555 -0.4831163 -0.3716687 16704477 male
-2.684815 0.1985383 -1.281814 -0.5403221 -0.3139669 -0.7806901 2565162 male
-2.736237 -0.3835087 -1.303487 -0.5026486 0.7927678 -0.3447663 3289394 male
-2.9218 0.5706917 -1.491453 0.664088 0.05695858 0.7454818 16376023 male
-2.787554 -0.2501605 -1.250773 0.5801224 -0.1529312 -0.8000441 2500142 male
-2.888165 0.6473579 -1.184062 -0.438085 0.07922439 0.8954358 9735820 male
-2.828464 0.6224587 -1.155787 -0.527508 0.01525831 0.8494132 7892840 male
-2.672376 0.5703586 -1.271087 0.8708749 0.02186036 -0.4910185 5328714 male
-2.730952 0.03903479 -1.271438 0.9924138 -0.07129201 -0.1001624 2303014 male
-2.553472 0.6510589 -1.229217 0.3387104 0.7967812 -0.5004148 15322560 male
-2.71385 0.2383332 -1.122559 -0.09237121 -0.5383469 0.8376457 6514027 male
-2.763136 0.740248 -1.299812 0.4537622 -0.3990759 -0.7967675 7431521 male
-2.390348 -0.02158875 -1.261583 0.742219 0.3438897 0.5751966 2170913 male
-2.620027 0.7092314 -1.143131 0.6095181 0.1474936 0.778931 9866888 male
-2.697217 0.8562959 -1.284595 0.960788 -0.2075338 0.1838924 16045515 male
-2.976458 0.6945493 -1.303452 -0.953229 -0.03027112 0.3007301 9670027 male
-2.575845 0.2495098 -1.199664 0.8000673 0.3220313 0.5061506 2105892 male
-2.508003 0.1011563 -1.254259 0.415306 0.1437752 0.8982483 1974310 male
-2.79439 -0.03483653 -1.320796 -0.4176557 -0.2487231 -0.8738998 3420984 male
-2.885857 0.6185157 -1.181702 -0.5087121 -0.04107109 0.8599567 8025714 male
-2.868211 0.4409559 -1.300629 -0.7470818 -0.1352339 -0.6508309 2828585 male
-2.971033 0.5408503 -1.514448 -0.6722973 0.1659774 -0.7214348 16576489 male
-2.779117 0.9642435 -1.355962 -0.1971599 0.4583337 -0.8666362 3222825 male
-2.842057 0.2613612 -1.160626 -0.6354855 -0.2256748 0.7383964 11379356 male
-2.714584 0.936649 -1.246617 0.7665568 0.1126945 0.6322112 5919050 male
-2.775051 -0.0680405 -1.308702 0.4702674 -0.601818 -0.645495 3684152 male
-2.935233 0.6742043 -1.379647 0.0477061 0.629869 -0.7752351 6841440 male
-2.861308 0.1460657 -1.274654 -0.9852429 -0.1682399 -0.03149843 1908257 male
-2.800363 0.2543779 -1.143819 -0.1453632 -0.2741778 0.9506295 3420212 male
-2.915864 0.5466589 -1.281736 -0.8415343 -0.3435213 -0.4169093 3223601 male
-2.774022 0.3098936 -1.126755 -0.3655367 -0.01832394 0.9306167 9602690 male
-2.764482 -0.1968314 -1.212313 0.9097868 -0.1425781 0.3898199 1841436 male
-2.62994 0.3400193 -1.18387 0.797815 0.414508 0.4378065 4013626 male
-2.764313 0.3590493 -1.32441 0.0158408 -0.07991695 -0.9966758 6972001 male
-2.504379 0.5200275 -1.235421 -0.982443 0.05950831 0.1768187 16773350 male
-2.744968 0.9806433 -1.238403 0.4877545 0.5880641 0.6451948 4340793 male
-2.534485 0.1185651 -1.227533 0.5025085 -0.02834614 0.8641076 2434085 male
-2.817163 0.7314237 -1.313915 0.0939351 0.643761 -0.7594393 4670532 male
-2.815727 0.7532764 -1.308385 -0.3028003 -0.06087563 -0.951108 5327680 male
-2.829251 0.1915598 -1.193727 -0.5307182 -0.3954232 0.7496526 3486524 male
-2.622835 0.3376754 -1.230849 0.7310078 0.6313514 -0.2588885 2105891 male
-2.773956 -0.3483286 -1.242389 0.862604 0.505523 -0.01900297 3025971 male
-2.838988 -0.1121096 -1.212286 -0.8135511 0.1579052 0.5596436 2302505 male
-2.809096 0.4664414 -1.333905 -0.1945436 -0.1412283 -0.9706739 6774105 male
-2.669566 0.1505785 -1.197745 -0.4502714 -0.7358655 0.505725 3618368 male
-2.825095 -0.3902701 -1.204512 -0.06460837 -0.9881856 0.1389788 526602 male
-2.932785 0.7356767 -1.358862 -0.0502495 0.709583 -0.7028279 4604477 male
-2.245283 -0.2276971 -1.350986 -0.7963945 -0.5531645 -0.244469 2303523 male
-2.814094 -0.29397 -1.242403 -0.7144645 -0.1555628 -0.6821591 1644569 male
-2.844121 -0.3741995 -1.199228 -0.9957719 0.08411003 -0.03693247 2171171 male
-2.501342 0.5036105 -1.256057 -0.7360505 -0.4152536 -0.5345974 13810871 male
-2.48063 0.6504661 -1.334476 0.9228505 0.3792279 0.06733072 16574945 male
-2.668852 0.6626201 -1.188708 0.737829 -0.6275803 -0.2484984 789516 male
-2.752007 0.9915305 -1.329479 0.1844205 0.8357453 -0.5172225 4932930 male
-2.786675 0.5910935 -1.348252 0.4410251 -0.1621755 -0.8827209 16438951 male
-2.796673 0.4926662 -1.341409 -0.06822407 -0.1384843 -0.9880121 7367013 male
-2.830734 -0.1487984 -1.1998 -0.6569129 -0.02158562 0.7536577 2828590 male
-2.667149 0.3535408 -1.262544 0.5665345 0.274441 -0.7769948 8354167 male
-2.604395 0.674491 -1.235162 -0.2295627 0.3225321 -0.9182997 8550513 male
-2.710941 0.9732094 -1.320394 0.7006493 0.6707999 -0.2431425 9076602 male
-2.412926 -0.03917954 -1.33067 0.01992503 -0.2517798 -0.9675796 2500137 male
-2.756849 0.4564502 -1.144408 -0.1378241 -0.142608 0.9801366 11116184 male
-2.493949 0.57354 -1.245932 -0.6463151 0.4947461 0.5809504 15978691 male
-2.659566 0.6926692 -1.206581 0.5921477 -0.6803131 -0.4318976 8288630 male
-2.357246 -0.09298909 -1.30779 0.7646879 0.1242687 -0.6323054 2827819 male
-2.761687 0.1445777 -1.336754 0.505559 -0.07683447 -0.8593643 4013896 male
-2.420273 0.04190692 -1.27794 0.6871073 0.6024391 0.4061414 2565671 male
-2.532502 0.06678261 -1.340485 -0.3624659 -0.4858537 -0.7953395 2235938 male
-2.732376 0.9594626 -1.355625 0.3032941 0.4801948 -0.8230588 12168099 male
-2.663678 0.2757258 -1.125529 0.4077815 0.08255077 0.9093404 4014665 male
-2.866771 0.774694 -1.253979 -0.5493452 0.8132335 0.1920191 7038819 male
-2.628675 0.7467648 -1.151785 0.668039 0.5492479 0.5020468 9672075 male
-2.730933 0.06934984 -1.251836 0.9882752 -0.06012844 0.1403463 1974049 male
-2.899307 0.674779 -1.546013 -0.8913616 0.4525167 0.02652216 14530992 male
-2.729323 0.5161684 -1.322586 0.4418851 0.08214921 -0.8933024 7630181 male
-2.753749 -0.1550212 -1.237372 0.9721268 -0.1301903 -0.194988 2039842 male
-2.510868 0.1435185 -1.259331 0.891142 0.3008913 0.3396034 2368807 male
-2.838115 -0.1773982 -1.257241 -0.8743696 -0.2422594 -0.4204622 1908256 male
-2.688963 0.920899 -1.301387 0.9873585 0.07861451 0.1376343 6904657 male
-2.43377 0.05994567 -1.286698 0.6672782 0.6576157 0.3496878 2631464 male
-2.785587 0.05518813 -1.209199 0.008965313 -0.120234 0.9927052 3026483 male
-2.656734 0.7086656 -1.244221 0.5256669 0.3298491 -0.7841392 7038563 male
-2.757851 -0.07268786 -1.232655 0.8611144 0.1281675 0.4919912 1645344 male
-2.824443 -0.3310412 -1.232443 -0.8494745 0.04031988 -0.5260869 856084 male
-2.668004 0.704976 -1.198238 -0.0454357 -0.6130469 -0.788739 7303271 male
-2.430952 -0.08777887 -1.300163 -0.6579207 -0.6361099 -0.4031187 1579035 male
-2.951785 0.5339712 -1.463222 0.3903913 0.3651616 0.8451343 16705245 male
-2.73358 0.6221068 -1.314867 0.1321024 -0.05882724 -0.9894891 8287856 male
-2.780609 0.07403824 -1.333676 0.146932 -0.2798883 -0.9487222 4211789 male
-2.867689 0.3724672 -1.194454 -0.7362962 0.3699999 0.5665407 7563619 male
-2.856703 0.9385723 -1.265075 -0.9680114 0.1762499 0.1785784 4932154 male
-2.57795 0.6526322 -1.24178 -0.1059885 0.4113865 -0.9052778 16773352 male
-2.842469 0.9631022 -1.309675 -0.844287 0.3614259 -0.395665 6511192 male
-2.748941 0.8818957 -1.360641 0.205915 -0.2889471 -0.9349379 13550525 male
-2.550416 0.1336857 -1.21167 0.4817097 -0.08573852 0.8721267 2499878 male
-2.400049 0.02028274 -1.305851 0.8710539 0.4769097 -0.1175697 2435117 male
-2.668456 0.4667653 -1.187131 0.8737113 0.1691615 0.4560844 3617327 male
-2.777013 0.3829618 -1.143085 -0.3930103 0.3252679 0.8600836 12432300 male
-2.544653 0.2235608 -1.237023 0.8631278 0.4195025 0.2811199 2236450 male
-2.853376 0.2079651 -1.20988 -0.8125415 -0.2935247 0.5036067 3421242 male
-2.793021 0.9823965 -1.226445 -0.1281742 0.6288422 0.7668957 4406587 male
-2.784008 0.831111 -1.347619 -0.344124 -0.3842303 -0.8567064 15719374 male
-2.72146 0.2242524 -1.298234 0.9120595 -0.1102354 -0.3949634 2762538 male
-2.71763 0.2526592 -1.313498 0.14831 -0.6061677 -0.7813866 3092279 male
