# .PCD v0.7 - Point Cloud Data file format
VERSION 0.7
FIELDS x y z normal_x normal_y normal_z rgb label
SIZE 4 4 4 4 4 4 4 4
TYPE F F F F F F U U
COUNT 1 1 1 1 1 1 1 1
WIDTH 247
HEIGHT 1
VIEWPOINT 0 0 0 1 0 0 0
POINTS 247
DATA ascii
1.483801 1.007869 -0.7141725 0.1462815 0.03412174 0.9886544 8288392 male
1.460602 0.6269709 -0.8102108 0.9427481 -0.3068186 -0.1307221 657930 male
1.550537 0.4528322 -0.9322087 -0.8223598 -0.3466889 0.4511442 526600 male
1.381872 0.7775076 -0.7319788 -0.870878 -0.01916021 0.4911256 5198432 male
1.49093 1.02247 -0.7132809 0.07778594 -0.1919468 0.9783177 9407904 male
1.600126 0.5419863 -0.9841376 0.3857522 0.2177398 -0.8965403 526600 male
1.533556 1.272463 -0.7225849 0.8288959 0.1675586 0.5337187 16644332 male
1.436598 1.378406 -0.7390678 0.2237096 0.7870299 0.5749244 13421018 male
1.589972 1.543192 -0.7972353 0.9274561 -0.03976906 -0.3718111 14793912 male
1.58803 0.7925012 -0.8015622 0.1100288 -0.2185764 0.9695969 5923697 male
1.336016 0.3219351 -0.7940431 -0.7483442 0.1049739 0.6549515 526600 male
1.59249 1.582719 -0.774695 0.9560749 0.2883201 -0.05284259 16040647 male
1.563126 1.106217 -0.903265 0.414282 0.0795463 -0.9066657 6183526 male
1.536333 1.124516 -0.7098681 0.4509692 -0.005833597 0.8925204 8289933 male
1.375256 0.9344113 -0.7998922 -0.9921489 0.101644 0.07286319 4343122 male
1.435117 0.6157613 -0.8352079 0.3451192 -0.1743985 -0.9222136 526600 male
1.578167 0.806322 -0.939833 0.07245603 -0.02068101 -0.9971571 8093324 male
1.392267 1.291794 -0.7222676 0.9657702 -0.2325822 -0.1148624 722695 male
1.367254 0.2348153 -0.7643583 0.2028838 -0.9737596 -0.1031036 526600 male
1.360562 1.276955 -0.745641 -0.6380698 -0.7304809 0.243443 7236720 male
1.528302 1.391428 -0.764401 0.6495106 -0.4271592 0.6290238 15123401 male
1.521236 0.8248761 -0.7442135 0.8421308 -0.3953565 0.3667545 6119277 male
1.716529 0.2608012 -0.8478 0.1848908 -0.9426111 -0.2780283 526600 male
1.603567 1.086016 -0.9708828 -0.7955993 -0.5461245 -0.2622398 13480626 male
1.607357 0.3964624 -0.9333756 0.3120524 -0.112834 0.9433408 526600 male
1.444446 1.247441 -0.8958512 -0.7773241 -0.07139103 -0.6250364 11710403 male
1.422241 1.347982 -0.8580167 -0.4236715 0.320004 -0.8474078 15000053 male
1.541797 1.178064 -0.7164188 0.6064797 0.188864 0.7723424 14741724 male
1.537044 0.6611475 -0.8596552 -0.697839 -0.196451 0.6887871 4736585 male
1.318936 1.271909 -0.7234043 -0.9884356 0.09909051 0.1147872 14855850 male
1.433599 0.9831148 -0.8926976 -0.5995154 0.2995543 -0.7421917 6974583 male
1.576615 1.349494 -0.8084334 0.7117367 0.4808858 0.5120349 12959445 male
1.332999 0.4267129 -0.7922068 -0.7665706 -0.08628384 0.6363368 526600 male
1.325577 1.317711 -0.7139168 -0.8586172 0.1105876 0.5005464 7302260 male
1.524607 1.452381 -0.7121161 -0.3418964 -0.4466633 0.8268002 11900812 male
1.562887 1.331911 -0.9678417 -0.4767121 -0.09289023 -0.8741378 10327974 male
1.38314 0.8711745 -0.7401568 -0.9026953 0.09083319 0.4205834 2828851 male
1.351665 0.5687914 -0.8408317 -0.644546 0.4517137 -0.6168592 526600 male
1.622277 0.6174355 -0.8589177 0.601452 -0.3564621 0.7149758 6120044 male
1.449954 1.271173 -0.9030432 -0.7737601 0.0202672 -0.6331544 12960210 male
1.470829 1.086521 -0.8838391 -0.6810225 -0.1265304 -0.7212478 11907008 male
1.575421 1.193691 -0.9389348 -0.9044247 -0.2090135 0.3719264 723722 male
1.528961 1.52303 -0.861446 0.3181838 -0.2706567 -0.9085725 12168624 male
1.568112 0.970247 -0.9338507 0.368564 0.118325 -0.9220411 5133408 male
1.471543 1.578501 -0.7332051 -0.6641256 0.1891539 0.7232966 11314087 male
1.59476 0.5618737 -0.8872405 0.09068611 -0.4036944 0.9103883 526600 male
1.630583 1.259463 -0.9149813 0.8501293 0.1676736 0.499165 16178393 male
1.646211 0.7860195 -0.8937763 0.9145213 0.02866861 -0.4035206 6711414 male
1.533538 0.9187986 -0.9495824 0.04132476 0.1168216 -0.9922926 4804696 male
1.604584 1.22019 -0.8711787 0.9632556 -0.04232403 -0.2652304 3750721 male
1.412097 0.9930491 -0.871447 -0.6000619 0.3634472 -0.7126231 6578030 male
1.549426 0.5150352 -0.9068426 -0.5542068 -0.1174586 0.82405 526600 male
1.391998 0.912991 -0.7328135 -0.8474148 0.1400687 0.5121219 3817026 male
1.626597 0.9781633 -0.8785698 0.9548407 0.2215051 -0.1980272 2302499 male
1.341453 1.107842 -0.7219263 0.9982324 0.007817911 -0.05891588 11309203 male
1.46073 1.615532 -0.7712762 -0.7052981 0.6063718 0.3672435 526600 male
1.42316 0.6650053 -0.840784 0.00968647 -0.05979436 -0.9981637 7502731 male
1.437526 1.42071 -0.8088568 -0.5660717 0.7661943 -0.304153 14925493 male
1.520162 1.369472 -0.9239902 -0.2214031 0.5747151 -0.7878345 11708858 male
1.549203 0.8919434 -0.9487522 0.09500703 -0.04056944 -0.9946496 9409952 male
1.446032 0.9324747 -0.7013479 0.05403611 0.1584835 0.9858819 11317693 male
1.597143 0.2914745 -0.9483933 -0.8315486 -0.08182218 0.5493925 526600 male
1.595578 0.5203524 -0.9893003 0.290642 0.09985874 -0.9516068 526600 male
1.524968 1.269198 -0.7104226 0.7353772 0.1796347 0.6534154 12696018 male
1.453247 0.791684 -0.8518409 0.03365037 -0.1286906 -0.9911137 5989227 male
1.639681 0.2698743 -0.9961045 0.3329958 -0.7188061 -0.6102717 526600 male
1.634966 1.358775 -0.8979312 0.8480607 0.3901798 0.3585426 13352915 male
1.32941 0.233534 -0.7394556 -0.1375689 -0.9813701 0.1341174 526600 male
1.585882 0.4200216 -0.9257549 -0.08480036 -0.2860507 0.9544548 526600 male
1.575199 0.3211937 -1.008784 0.3911709 0.3602251 -0.8468903 526600 male
1.323993 1.176136 -0.70557 0.6895609 0.3682432 0.6236206 14658992 male
1.295024 1.079696 -0.731589 -0.6113827 -0.5134721 -0.6021275 15381437 male
1.480072 1.238381 -0.688334 0.0961957 -0.260669 0.9606236 8748685 male
1.56662 1.620205 -0.757527 0.5983164 0.7714991 0.2163481 526600 male
1.593031 1.263482 -0.773343 0.6784779 0.1235907 0.7241499 12953508 male
1.519266 1.258327 -0.7025942 0.6609052 0.06295896 0.7478238 13815525 male
1.546992 0.5298644 -0.9761365 -0.7223157 0.09134891 -0.6855038 526600 male
1.38517 1.022146 -0.7661459 -0.8677346 0.3976573 0.29817 6117989 male
1.351989 1.237695 -0.687894 0.2251569 0.1445971 0.963533 16371664 male
1.464496 1.440771 -0.8320367 -0.6707165 0.2237475 -0.7071607 15643044 male
1.382231 0.3913015 -0.8082004 0.8992616 -0.2585919 0.3527871 526600 male
1.378063 0.9971148 -0.8238148 -0.9209088 0.2577646 -0.292377 9671584 male
1.314359 1.044944 -0.6602962 -0.5507269 0.2093256 0.8080116 14661819 male
1.399513 1.34295 -0.6916941 0.575748 -0.4003791 0.7128891 8025218 male
1.394212 0.4143717 -0.817921 0.9453495 -0.2956388 0.1375211 526600 male
1.571816 0.7904081 -0.8012862 -0.04717711 -0.2503435 0.967007 6975618 male
1.341015 0.524409 -0.8533974 -0.6305518 0.2128286 -0.7463968 526600 male
1.446272 0.6676464 -0.7325377 0.3563755 -0.3685366 0.8585903 7896977 male
1.593238 1.580652 -0.7677827 0.960579 0.2772947 0.01989087 15713222 male
1.39137 0.9845033 -0.7393103 -0.8550447 0.1375767 0.4999712 4078663 male
1.4838 1.404586 -0.8682303 -0.5228969 0.7036441 -0.481107 12762833 male
1.328223 1.360742 -0.72236 -0.9572439 0.2524029 0.1413395 7038323 male
1.586968 0.75803 -0.8098264 0.02833346 -0.2554649 0.966403 5593964 male
1.732242 0.8825196 -0.9744198 0.5669664 -0.8237406 0.0005656332 2171684 male
1.598587 1.055575 -0.7732512 0.9342953 -0.08820483 0.3454161 12433102 male
1.544423 0.5157245 -0.9115838 -0.6821649 -0.1032321 0.7238744 526600 male
1.389866 0.4858739 -0.7774391 0.7011392 -0.1646539 0.6937529 526600 male
1.553865 0.5442301 -0.979228 -0.5902067 0.2142449 -0.7783027 526600 male
1.50572 1.59346 -0.7176231 -0.3255884 0.4291185 0.8425257 8748925 male
1.326057 0.5148029 -0.8049856 -0.9479988 0.1498033 0.2808155 526600 male
1.527717 0.6596025 -0.8759873 -0.9566023 -0.1275696 0.2619884 723981 male
1.419434 1.294348 -0.6973808 -0.2782166 -0.7078384 0.6492767 657930 male
1.53536 0.5262113 -0.9585889 -0.9192305 0.0313626 -0.3924687 526600 male
1.618032 0.3170568 -0.9961514 0.5764571 0.07907429 -0.8132923 526600 male
1.394166 1.328369 -0.7089793 0.8039327 -0.1738478 0.5687435 11577784 male
1.393465 0.5748577 -0.7535077 -0.2856885 -0.2842626 0.9151922 526600 male
1.57219 1.150442 -0.9609715 -0.9185305 -0.3908521 0.05946741 10128528 male
1.557691 1.240298 -0.7518008 0.4447578 0.1145836 0.8882911 16108265 male
1.586976 0.7164111 -0.8201265 -0.03263372 -0.2518193 0.9672238 5527390 male
1.474736 1.023415 -0.9038121 -0.5297109 0.4651644 -0.709245 10657457 male
1.524648 1.58695 -0.8684134 0.2385916 0.2254687 -0.9445834 4933195 male
1.357669 1.231127 -0.6903509 0.4317847 0.04867714 0.9006622 16435402 male
1.547873 1.604965 -0.8487706 0.5374213 0.4910018 -0.6856352 4276805 male
1.585597 1.530111 -0.7477694 0.6067512 -0.1333619 0.7836246 7561570 male
1.424844 0.6970413 -0.8422217 -0.03327808 -0.07853647 -0.9963555 5856621 male
1.357092 0.4934674 -0.7681124 -0.2939398 -0.03383315 0.9552249 526600 male
1.459315 1.043827 -0.7087597 -0.1830402 -0.1737425 0.967631 4868170 male
1.413195 1.255628 -0.8679475 -0.549209 -0.0488481 -0.8342561 12958671 male
1.360711 0.5319595 -0.7670373 -0.3687287 0.08346809 0.925782 526600 male
1.512065 0.8478972 -0.9272016 -0.5228685 -0.3474047 -0.7784077 6250863 male
1.450061 1.607837 -0.8191423 -0.8118141 0.5268251 -0.2518201 526344 male
1.588067 1.487412 -0.7499615 0.9549509 -0.09748539 0.2802952 16106939 male
1.649598 0.8376639 -0.8425002 0.9736719 0.07579926 0.2149824 1579032 male
-2.283448 0.3766031 -1.296654 0.9751673 -0.2134439 0.05908209 6445914 male
-2.379842 -0.06846956 -1.320893 -0.7964811 -0.1612248 -0.5827733 2171428 male
-2.377561 0.0309723 -1.474361 0.6447041 0.003407517 -0.7644249 3553342 male
-2.300115 0.1060671 -1.217501 0.6207248 -0.1983383 0.7585269 2302758 male
-2.276013 0.4068726 -1.293105 0.9539267 -0.2942125 0.0588485 6510930 male
-2.421801 -0.09888396 -1.534639 -0.2854556 0.1462452 -0.9471683 2434090 male
-2.50312 0.3467262 -1.386464 -0.8287826 0.3572364 -0.4306991 6445141 male
-2.23687 0.577079 -1.347784 0.8235346 -0.0121047 -0.5671372 16376764 male
-2.208488 0.8197088 -1.443278 0.590362 -0.1588924 -0.7913446 10392978 male
-2.366597 0.1067435 -1.406263 0.9914705 -0.08212049 0.1012072 3026222 male
-2.36602 -0.2004149 -1.227428 -0.09631233 -0.1302072 0.986798 2499878 male
-2.250979 0.8794125 -1.440153 -0.4104477 0.1697787 -0.8959398 5065541 male
-2.432014 0.4682514 -1.431346 -0.5282335 -0.1452622 -0.8365816 3552565 male
-2.308742 0.3494176 -1.363588 0.7922908 -0.300739 -0.5308782 8025202 male
-2.383185 0.234003 -1.174556 0.01910707 0.03754156 0.9991125 2763050 male
-2.397109 0.01192833 -1.250715 -0.8280206 -0.1752055 0.532621 2960949 male
-2.460878 0.05417266 -1.464229 -0.7458221 -0.0693867 -0.662522 1908771 male
-2.244141 0.6365519 -1.233393 0.05853286 -0.7851305 -0.6165583 4143927 male
-2.40212 -0.4257874 -1.294614 -0.2517932 -0.837098 -0.4856616 723211 male
-2.213812 0.5779546 -1.282969 0.980767 -0.1946777 -0.0140335 6578524 male
-2.229563 0.7141286 -1.365201 0.8745968 -0.4848299 0.004534006 16506842 male
-2.326114 0.1804811 -1.331972 0.3731386 -0.05760935 -0.9259855 2171945 male
-2.475067 -0.4354761 -1.511873 0.1283462 -0.5881467 0.7985055 1841692 male
-2.245018 0.6565284 -1.734926 0.5814915 -0.1589038 0.7978832 16771038 male
-2.421393 -0.1917231 -1.470283 0.7710003 -0.581489 0.2596714 2368808 male
-2.405159 0.7094664 -1.379196 -0.6675317 0.7302551 0.145358 12039085 male
-2.371848 0.6702162 -1.252439 -0.6874933 0.554317 0.469133 8748667 male
-2.314625 0.5509983 -1.198887 0.05991334 -0.2775474 0.9588422 4143671 male
-2.378481 0.08549479 -1.462892 0.7520752 -0.007023717 -0.6590401 4475215 male
-2.285745 0.6222984 -1.176523 -0.8184978 -0.1074798 0.5643666 7368040 male
-2.433204 0.2381189 -1.185515 -0.4491538 -0.08618274 0.8892883 3355703 male
-2.253917 0.704057 -1.304891 0.8806033 0.2204676 0.4194425 3880499 male
-2.314804 -0.215267 -1.278873 0.9591507 -0.2770754 -0.05709022 2368811 male
-2.206599 0.5952026 -1.20131 0.9660569 0.200371 -0.1630512 9276289 male
-2.215748 0.7356942 -1.373216 0.2846548 -0.8761898 0.3889257 11378324 male
-2.410361 0.6543161 -1.513585 -0.8778596 -0.439797 -0.1895818 7893616 male
-2.313324 0.1895439 -1.194211 0.545821 -0.06677409 0.835237 2565673 male
-2.314409 -0.06094099 -1.260013 0.7848945 -0.1059535 0.6105037 2500142 male
-2.420403 -0.03260328 -1.504864 -0.7144696 0.3316765 -0.6160555 1908768 male
-2.387623 0.7136921 -1.353783 -0.5755234 0.7301443 0.3683236 8288886 male
-2.423908 0.6512164 -1.326306 -0.6599657 0.4015777 0.6349653 9473160 male
-2.294883 0.6591894 -1.775725 -0.4546873 0.3192543 -0.8314664 16773095 male
-2.302852 0.8810357 -1.388248 -0.909439 0.2117361 -0.357895 4011828 male
-2.484903 0.3115088 -1.257189 -0.7756398 0.2945149 0.5582509 9273980 male
-2.169264 0.8676211 -1.327509 0.7711091 -0.05257797 0.6345288 3947060 male
-2.364985 0.002713794 -1.478933 0.7318319 0.04661776 -0.6798891 3818051 male
-2.308797 0.6838315 -1.590932 0.6525792 0.7460078 0.1327138 10392461 male
-2.366429 0.6392189 -1.515094 0.3326911 -0.9412389 0.058189 3485998 male
-2.524668 0.2954343 -1.31005 -0.9303628 0.2226623 0.291285 8353909 male
-2.336696 0.6022767 -1.476661 0.1267472 -0.3861733 -0.9136769 5459531 male
-2.458088 0.3550242 -1.253313 -0.7055158 0.4897132 0.5122778 12628911 male
-2.380697 0.06541624 -1.467896 0.6955582 -0.0453718 -0.7170359 4212040 male
-2.29153 0.2557197 -1.212067 0.8486779 0.06431318 0.5249855 7170917 male
-2.384487 0.3353902 -1.411837 0.4223211 0.01012604 -0.90639 6970971 male
-2.266389 0.41723 -1.140432 -0.7963048 -0.5810344 -0.1682201 6708054 male
-2.18797 0.9122448 -1.318763 0.6114818 0.44119 0.6568422 4340793 male
-2.395746 -0.02932569 -1.295645 -0.9967908 -0.07692793 0.0221439 2565673 male
-2.32015 0.7098202 -1.252662 -0.319982 0.7044739 0.6335046 11774373 male
-2.28223 0.6928413 -1.399236 0.3532425 -0.1800644 -0.9180397 5787471 male
-2.511132 0.2124866 -1.407034 -0.8646559 0.03912244 -0.5008394 2960433 male
-2.2841 0.2473404 -1.226747 0.9504105 0.1210329 0.2864809 2105891 male
-2.492594 -0.374376 -1.539525 0.8893941 0.2133236 0.4043159 2961461 male
-2.450745 -0.1124384 -1.522978 -0.6076547 0.2200109 -0.7631195 1973534 male
-2.493466 0.3702662 -1.371756 -0.7414941 0.6138223 -0.2709407 5197383 male
-2.440389 0.1644944 -1.235612 -0.8948635 -0.4026539 0.1925859 5724511 male
-2.567677 -0.3928823 -1.578416 -0.9050608 -0.4087249 0.1175127 526344 male
-2.361768 0.7228233 -1.528172 0.07615089 0.9094106 -0.4088686 5985611 male
-2.396703 -0.3708152 -1.305703 -0.5227091 0.06291003 -0.8501868 2236706 male
-2.532143 -0.2913588 -1.521524 -0.6196202 0.1973701 -0.7596816 2170914 male
-2.573723 -0.3309002 -1.543341 -0.5791951 0.5064313 -0.6387963 3027254 male
-2.272568 0.4695848 -1.161604 -0.697693 -0.1986275 -0.6883109 14533308 male
-2.154702 0.3417201 -1.163198 0.3455451 -0.2777292 0.8963623 16771555 male
-2.207962 0.6382949 -1.261357 0.8785521 0.1060186 -0.4657324 7169893 male
-2.215099 0.9458883 -1.387038 0.1639986 0.9455616 -0.2811011 7368296 male
-2.299921 0.591681 -1.451916 0.7392882 -0.01025263 -0.6733114 9210235 male
-2.24645 0.6809738 -1.301254 0.8659729 0.4999523 0.01178235 4340792 male
-2.461848 -0.1481578 -1.522006 -0.5749922 0.04413953 -0.8169676 1907998 male
-2.290782 0.3221441 -1.253029 0.9836577 0.1792306 0.01715487 6380120 male
-2.236625 0.6074737 -1.157503 0.2287408 0.09851568 0.9684899 9275520 male
-2.161155 0.9112979 -1.387347 0.8062744 0.5901747 -0.04019415 6708568 male
-2.363028 -0.2328028 -1.308007 0.07494417 -0.1422808 -0.9869852 2630440 male
-2.397083 0.3967582 -1.217665 -0.5518134 0.1411844 0.8219302 10654609 male
-2.18616 0.3813713 -1.135305 0.5071592 -0.261106 0.8213485 16771551 male
-2.210275 0.6548551 -1.178922 0.7470465 0.1382505 0.6502374 7500136 male
-2.356494 -0.2547568 -1.30329 0.2494958 -0.1602861 -0.9550186 2697257 male
-2.389881 0.0625303 -1.371685 0.7140839 -0.2927897 0.6358922 1711394 male
-2.359769 -0.1480612 -1.225453 -0.05845919 0.1318938 0.9895387 2696490 male
-2.304672 -0.004246658 -1.321283 0.8069496 -0.1088083 -0.5805113 4342602 male
-2.196295 0.8834624 -1.448601 0.1689239 0.2984756 -0.9393494 6971226 male
-2.377592 0.3405617 -1.182947 -0.03364152 0.262349 0.9643865 7038307 male
-2.366424 0.7353913 -1.372383 -0.3940753 0.9010823 0.1809844 9603202 male
-2.227079 0.6136813 -1.161208 0.5258157 0.1642519 0.8345895 9538178 male
-2.364149 -0.005713045 -1.417639 0.7969255 -0.2864263 0.5318553 2368036 male
-2.163349 0.7507974 -1.797678 -0.7110736 0.6680723 -0.2192117 16638420 male
-2.410007 0.3741588 -1.422503 -0.04271832 -0.2066182 -0.9774888 4472892 male
-2.420011 -0.1822014 -1.456541 0.6750749 -0.5308473 0.5123233 2368550 male
-2.303244 -0.1242232 -1.293183 0.9661319 -0.202459 -0.1599987 3093046 male
-2.408329 -0.1618995 -1.526415 0.4442186 -0.4815515 -0.7554987 2170913 male
-2.150417 0.8883292 -1.377891 0.9433557 0.2967503 0.1483903 5524550 male
-2.310587 -0.1150043 -1.259176 0.8429264 0.03774941 0.5367033 2565931 male
-2.399435 0.09786622 -1.344219 0.5898096 -0.361395 0.7221625 2500394 male
-2.298928 0.6777109 -1.208512 -0.2457837 0.6399276 0.7280682 10196363 male
-2.396754 -0.0550779 -1.44731 -0.1509214 0.2471155 0.9571608 2566695 male
-2.554278 -0.3445044 -1.560295 -0.6332443 0.2825846 -0.7205192 2368292 male
-2.226328 0.6589115 -1.169847 0.4069439 0.2135757 0.8881342 9998727 male
-2.301003 -0.09768651 -1.313582 0.7715918 -0.5010484 -0.3919142 3222833 male
-2.273706 0.6913288 -1.753546 -0.5674362 0.8231618 0.02051604 14731697 male
-2.271329 0.5732405 -1.394359 0.9479207 -0.1405882 -0.2858002 8942950 male
-2.363025 0.01394456 -1.466435 0.8590267 0.004090248 -0.5119148 4869466 male
-2.443817 0.4728731 -1.289554 -0.6415802 0.08213465 0.7626461 7959920 male
-2.298263 0.8947937 -1.326673 -0.8054343 0.3628567 0.4686266 6182222 male
-2.201891 0.6497559 -1.224965 0.8718395 -0.2601932 -0.4149646 4342073 male
-2.305923 0.895795 -1.363419 -0.941797 0.3267271 -0.07917082 4801857 male
-2.195962 0.8049712 -1.438047 -0.06068671 0.2799507 -0.9580945 15847624 male
-2.406847 0.01555219 -1.278335 -0.9905964 -0.1249995 0.05562538 3026222 male
-2.314116 -0.1892332 -1.257575 0.8863518 -0.1869515 0.4235919 2632232 male
-2.285499 0.3866011 -1.260027 0.9354932 -0.1709248 0.3092531 4802114 male
-2.405695 0.5994288 -1.260556 -0.8817117 0.2149029 0.4200019 7564651 male
-2.308017 -0.07348131 -1.27212 0.8584936 -0.0954767 0.5038584 2434091 male
-2.511124 0.245823 -1.398827 -0.8550959 0.1601455 -0.4931172 2499884 male
-2.234122 0.9216849 -1.304493 0.01201349 0.5804955 0.8141749 4406587 male
-2.258877 0.7869525 -1.437398 -0.4649971 -0.2025187 -0.8618376 15389897 male
-2.368546 0.1734313 -1.398135 0.9930159 0.06095583 -0.1010144 2829875 male
-2.358623 0.2179736 -1.371848 0.783472 -0.2952253 -0.5468217 2895152 male
