# .PCD v0.7 - Point Cloud Data file format
VERSION 0.7
FIELDS x y z normal_x normal_y normal_z rgb label
SIZE 4 4 4 4 4 4 4 4
TYPE F F F F F F U U
COUNT 1 1 1 1 1 1 1 1
WIDTH 245
HEIGHT 1
VIEWPOINT 0 0 0 1 0 0 0
POINTS 245
DATA ascii
1.425728 1.049287 -0.7575176 -0.5272932 -0.3357495 0.7805345 4866378 male
1.436729 0.7115163 -0.8325087 0.9579861 -0.1543271 -0.2417553 2961202 male
1.589152 0.7360227 -0.9117114 0.8380069 0.06328883 0.5419769 5397609 male
1.323962 0.7710298 -0.8074738 -0.9161049 -0.09725659 0.3889638 5529189 male
1.424032 1.033548 -0.76654 -0.3586116 -0.3557591 0.8630372 9472914 male
1.57025 0.6258411 -0.9551461 -0.7313252 0.2493488 -0.6348137 526600 male
1.498677 1.023321 -1.009846 0.2346655 0.4527992 -0.8601772 6842736 male
1.576933 1.083098 -0.6843991 0.3190546 -0.7809578 0.5369442 12234699 male
1.829298 1.166884 -0.6010475 -0.2613356 -0.8925468 -0.3675104 10782595 male
1.498239 0.7687003 -0.8957126 -0.2728745 -0.145192 0.9510304 4078919 male
1.32638 0.4334382 -0.7568387 -0.8395119 -0.08538134 0.536591 526600 male
1.844354 1.238174 -0.6437328 0.5445025 -0.1621826 -0.82293 12432053 male
1.575531 1.064189 -0.9333205 0.6735117 -0.1100786 -0.7309341 8353148 male
1.505864 1.022312 -0.7497529 0.002181828 -0.7018552 0.7123163 11249337 male
1.334049 1.010669 -0.9113701 -0.7877929 0.5055249 -0.3518905 9278374 male
1.393858 0.6286005 -0.8344483 -0.07045832 -0.2843367 -0.9561319 526344 male
1.524817 0.7273121 -1.009597 0.07808325 -0.2786255 -0.9572204 9278371 male
1.538839 1.214109 -0.6442758 0.3986264 -0.6897029 -0.6044888 593161 male
1.368007 0.2661138 -0.7410048 0.2897187 -0.9510357 -0.1076759 526600 male
1.546562 1.125303 -0.6412179 -0.1405639 -0.591921 0.7936444 10590633 male
1.69091 1.176748 -0.6426319 -0.4339529 -0.689824 0.5795065 14201007 male
1.410917 0.839347 -0.776266 0.4076436 0.2116212 0.8882811 13028318 male
1.662046 0.3099192 -0.8969122 -0.429643 0.352518 0.831347 526600 male
1.702514 0.926532 -0.8766511 -0.9748038 -0.06840996 -0.2123151 12429997 male
1.605877 0.4802597 -0.9094763 0.09208694 -0.275391 0.9569117 526600 male
1.666587 1.256719 -0.7775693 0.04386677 0.9872552 -0.1529802 12433093 male
1.603838 1.261355 -0.7651117 0.1932757 0.8358063 -0.5138797 15196143 male
1.497974 1.143685 -0.6781583 -0.6138254 -0.1260538 0.7793129 657930 male
1.513757 0.7207579 -0.8969695 -0.4388072 -0.1455037 0.8867226 3553598 male
1.487888 1.269066 -0.6283841 -0.6420849 0.735839 0.2150998 4933195 male
1.332588 0.9630736 -0.9485978 -0.7333048 0.2466062 -0.6336004 7897745 male
1.697181 1.159074 -0.6804122 0.1056274 -0.9936663 -0.03834286 15916514 male
1.376482 0.5240148 -0.7260233 0.2544292 -0.04421541 0.9660801 526600 male
1.519987 1.205011 -0.6179941 0.2945909 -0.8137873 0.5009654 12822186 male
1.731984 1.166882 -0.5769639 -0.579417 -0.5416235 0.609032 13740965 male
1.794245 1.101826 -0.825464 0.9503694 -0.30224 -0.0738169 7368827 male
1.316758 0.8345945 -0.8145291 -0.8714396 0.02950818 0.4896145 3355964 male
1.340008 0.6725289 -0.8197016 -0.9866891 -0.1080727 -0.1215104 789516 male
1.624853 0.6419385 -0.9543501 0.7421815 0.149591 -0.653291 657418 male
1.667674 1.252224 -0.8007814 0.09162611 0.96742 -0.2360152 13486557 male
1.60175 1.246586 -0.7940667 -0.06072462 0.9387788 -0.3391267 14143456 male
1.761468 0.8672598 -0.9038928 0.5680388 -0.0228726 -0.8226839 15979730 male
1.887806 1.232815 -0.5749688 0.9967176 -0.08092799 -0.002209306 6644064 male
1.381997 0.9548764 -0.9978487 -0.7363135 0.1847894 -0.6509187 5921131 male
1.777755 1.255767 -0.5145848 -0.4976889 0.05264657 0.8657565 9735055 male
1.651404 0.6202936 -0.9192995 0.9746912 -0.05684764 -0.2162069 526600 male
1.775331 1.039114 -0.8193137 0.8589343 -0.1085195 0.5004554 14393241 male
1.549486 0.8084105 -1.017311 0.6209191 0.004327466 -0.7838627 3092790 male
1.389927 1.007763 -0.9728565 -0.5740759 0.53924 -0.6161634 10987447 male
1.655228 1.078067 -0.8508474 0.6703695 -0.6324911 -0.3880202 7565947 male
1.340879 0.9984717 -0.934699 -0.6786882 0.4925226 -0.5447972 7830927 male
1.54256 0.7263223 -0.8862302 -0.09172034 -0.01563496 0.9956621 5132635 male
1.324264 0.9228826 -0.8255093 -0.8168277 0.1820861 0.5473914 2894900 male
1.541252 0.9824512 -0.8569286 0.7347521 -0.6679272 0.1183752 13421020 male
1.336214 1.196935 -0.7128687 0.7663399 0.02462987 -0.6419629 14994898 male
1.728377 1.281435 -0.5871474 -0.9106638 0.3554196 0.2106377 11971502 male
1.35388 0.6780816 -0.8545473 -0.538262 -0.2869748 -0.7924137 6909818 male
1.633684 1.275498 -0.6579118 0.1353413 0.9096825 0.3926328 9538201 male
1.747121 1.224082 -0.7728604 0.8556416 0.4973284 -0.1433243 8420488 male
1.42458 0.8452143 -1.033591 -0.4171906 -0.5565066 -0.7185072 8685720 male
1.329696 0.9281637 -0.8185211 -0.7728915 0.1758918 0.6096727 4474959 male
1.616963 0.3271136 -0.9284495 -0.6251579 0.06794561 0.7775352 526600 male
1.61246 0.5618708 -0.9850441 0.198374 0.1646411 -0.9661993 526600 male
1.524915 1.050477 -0.9737214 0.4861485 0.3337007 -0.8076531 5592153 male
1.370787 0.7867125 -0.9266579 -0.1312131 -0.382318 -0.9146672 5989227 male
1.60132 0.2941214 -0.9930761 -0.03252755 -0.9452724 -0.3246569 526600 male
1.77209 1.167917 -0.8475903 0.7002056 0.4920468 -0.5173026 7433850 male
1.378731 0.2994667 -0.7507811 0.9462063 0.2348682 -0.2225545 526600 male
1.608112 0.5020461 -0.9032787 0.175087 -0.2568809 0.9504508 526600 male
1.61502 0.3301472 -0.9897479 0.2732886 0.2841806 -0.9189966 526600 male
1.370566 1.210747 -0.7034783 0.5009569 -0.1021928 -0.8594177 9139835 male
1.348276 1.046254 -0.6971237 0.897669 0.1905319 0.3973512 15053235 male
1.569801 1.157947 -0.627779 0.2198997 -0.5984703 0.7703749 15394547 male
1.877221 1.273114 -0.5474 0.8955618 0.2554478 0.3643014 526600 male
1.66698 1.069972 -0.7610158 0.4387361 -0.7652673 0.471038 13811393 male
1.639122 1.179526 -0.6487426 0.3869413 -0.1969653 0.9008225 14077927 male
1.582322 0.5702605 -0.980854 -0.4419899 0.2264972 -0.8679538 526600 male
1.390027 0.9628731 -0.7924468 0.1756648 0.04207707 0.9835504 16311255 male
1.444572 1.206415 -0.6166418 -0.2689236 0.03136157 0.9626508 14985114 male
1.86375 1.199549 -0.5342061 0.680656 -0.403677 0.6113528 526600 male
1.375251 0.4408124 -0.7435442 0.6421306 -0.2028207 0.7392781 526600 male
1.408245 1.126509 -0.8496137 -0.8060486 0.5190732 -0.2843391 9471896 male
1.296518 1.144747 -0.6701615 -0.6186395 -0.2135684 0.7560911 13741995 male
1.538687 1.264628 -0.5856169 -0.1958365 0.6151561 0.7636956 6973554 male
1.370588 0.4423303 -0.739674 0.4434685 -0.1964256 0.8745012 526600 male
1.522835 0.7919678 -0.892453 0.03483042 0.04168757 0.9985234 6185843 male
1.323806 0.5652844 -0.7799644 -0.9518521 0.3050956 0.02990371 526600 male
1.427013 0.6551313 -0.7592415 0.7619587 -0.0571415 0.6451 5527648 male
1.879219 1.205675 -0.57502 0.9344293 -0.351969 -0.05440298 15720414 male
1.360823 1.060601 -0.8698264 -0.656615 0.7471526 -0.1030525 9538714 male
1.720932 0.2802557 -0.9427799 0.007226445 -0.9762277 -0.2166271 526601 male
1.502599 1.249087 -0.5952815 -0.4215009 0.1151059 0.899493 6973045 male
1.528168 0.6533768 -0.9033553 -0.7650378 -0.2459271 0.5951782 526344 male
1.740055 0.6459551 -0.9159826 -0.05620641 -0.3079488 0.9497412 15455194 male
1.552547 1.033264 -0.9484838 0.79607 -0.1237822 -0.5924108 2302757 male
1.542533 0.7429614 -0.8868181 -0.01349986 0.01057052 0.999853 5987943 male
1.37328 0.643444 -0.7519661 -0.4969184 0.1301539 0.8579815 1381654 male
1.656115 0.5210364 -0.9333882 0.9834379 -0.1335313 0.1225534 526600 male
1.828803 1.210143 -0.5120915 0.1215179 -0.2680267 0.9557171 657673 male
1.327911 0.5652832 -0.7998617 -0.8535498 0.3090267 -0.4194701 526600 male
1.478526 0.7371998 -0.9163266 -0.6123927 -0.3220396 0.7219873 2632232 male
1.533858 1.277081 -0.6570778 -0.3597853 0.9330028 0.007770136 9209492 male
1.558918 0.6165072 -0.927516 -0.9988065 0.04564364 0.01738456 526600 male
1.644667 0.3564192 -0.9552783 0.910244 0.2806378 -0.3044639 526600 male
1.538844 1.251583 -0.5761901 -0.2203539 0.2646095 0.9388428 7038323 male
1.39776 0.5733515 -0.735486 0.5174724 -0.2612818 0.8148338 526600 male
1.769849 0.8417249 -0.8637289 0.8649853 -0.02715419 0.501062 16505304 male
1.621375 1.095864 -0.7088933 0.3841102 -0.8032619 0.4552249 15328638 male
1.581419 0.7211483 -0.8973712 0.6530502 0.1015138 0.7504801 7962250 male
1.456775 1.105441 -0.9283565 -0.6075689 0.4744478 -0.6369925 11577020 male
1.799161 1.330038 -0.6086912 -0.04510084 0.9455785 -0.3222535 16709374 male
1.554929 1.210904 -0.6202376 -0.007680908 -0.9884359 -0.151445 9341849 male
1.805795 1.297732 -0.6473955 0.1903015 0.5272977 -0.8280957 9406607 male
1.828259 1.159613 -0.5902814 0.09453014 -0.9078185 -0.4085703 12491159 male
1.332458 0.7117642 -0.8557028 -0.876002 -0.2321827 -0.4227431 6448755 male
1.33094 0.5505869 -0.81091 -0.72798 0.196201 -0.6569247 526600 male
1.420289 1.10086 -0.7522154 -0.8646517 0.03325922 0.5012697 6513003 male
1.523442 1.212917 -0.8293939 -0.2739079 0.7003796 -0.6591228 13353171 male
1.34134 0.7323681 -0.7848848 -0.8097416 -0.1130236 0.5757987 3949129 male
1.445176 0.8489775 -1.044414 -0.1701836 -0.3935333 -0.9034208 7961481 male
1.806398 1.312337 -0.526245 -0.111238 0.6816493 0.7231737 526344 male
1.792738 1.203718 -0.6710029 0.3923493 -0.1061888 -0.9136662 12954019 male
-2.65012 0.4493538 -1.217669 0.998327 0.03747686 -0.04403406 4341050 male
-2.591563 0.1646681 -1.364993 -0.5644002 -0.08068732 -0.8215488 2697257 male
-2.747037 -0.1972372 -1.290437 0.8966912 -0.3510112 -0.2696967 2632233 male
-2.506879 0.167937 -1.296626 0.8513659 0.1772883 0.4937057 2696491 male
-2.650501 0.4342788 -1.228771 0.9700333 0.1460302 -0.1941926 4670270 male
-2.830785 -0.1337839 -1.297334 -0.9833695 0.1802816 0.02198601 2105893 male
-2.685856 0.6439012 -1.27585 0.4214944 0.4128274 -0.8074134 8223350 male
-2.716657 0.7372171 -1.175002 0.3929715 0.9192014 0.02534099 8617335 male
-2.750269 0.8515995 -1.343218 0.6232358 -0.1410229 -0.7692138 9932941 male
-2.755844 0.1180523 -1.36258 0.3606406 0.006046477 -0.9326854 4541269 male
-2.366718 -0.02343147 -1.342677 0.8754225 0.2998692 0.3790965 1908514 male
-2.818588 0.8741394 -1.335264 -0.4524536 -0.1382186 -0.8810118 4472636 male
-2.866409 0.3847409 -1.200353 -0.7716764 -0.2809136 0.5706166 4669502 male
-2.686541 0.365366 -1.295311 0.7113664 -0.05884719 -0.7003536 8090995 male
-2.733836 0.4387808 -1.133053 0.1048993 -0.1197658 0.987245 11050391 male
-2.514488 0.1016152 -1.387238 -0.4190572 -0.743771 0.5207648 2829358 male
-2.826216 0.08614331 -1.255134 -0.8340135 -0.2086359 0.5107766 2235938 male
-2.612736 0.5975819 -1.228176 -0.6803569 -0.1122609 -0.7242322 16770788 male
-2.360683 -0.1570427 -1.348736 -0.5511838 0.3568783 -0.7542112 2237474 male
-2.65238 0.5712836 -1.231569 0.9912388 -0.08481107 -0.1012583 4867394 male
-2.740086 0.7514215 -1.274225 0.9521645 -0.2870218 -0.104888 14929090 male
-2.57482 0.26196 -1.30431 0.4783587 0.8261708 -0.2976826 4079174 male
-2.828855 0.6171778 -1.606816 0.7420279 -0.1657149 0.649564 7823972 male
-2.857823 0.5133798 -1.480448 0.7623482 0.03893501 0.645995 15783119 male
-2.808094 -0.3349395 -1.265623 -0.1657629 0.06427463 -0.984069 1644825 male
-2.84981 0.6064825 -1.158027 -0.3029437 0.1444384 0.9419996 5920082 male
-2.81764 0.5422545 -1.146685 -0.4201575 -0.1775011 0.889922 9800844 male
-2.695348 0.5113887 -1.296613 0.567099 0.1593692 -0.8080844 5722959 male
-2.712149 -0.0551482 -1.301367 0.9543132 -0.2131602 0.2094024 1644827 male
-2.586522 0.650069 -1.185946 0.8146554 0.5798079 -0.01263279 8487033 male
-2.686728 0.1928913 -1.138794 0.03290015 -0.6611939 0.7494934 6514027 male
-2.794119 0.6533957 -1.321511 0.30861 0.4099816 -0.8582979 9208705 male
-2.361333 0.030551 -1.405031 0.9992126 0.03309241 0.02189589 2499627 male
-2.619124 0.6619543 -1.133869 0.5795869 -0.1413718 0.8025542 9866630 male
-2.734849 0.769197 -1.273324 0.5415164 -0.759147 0.3611869 11378324 male
-2.962041 0.6708424 -1.317703 -0.9126881 0.3850854 -0.1367844 8681843 male
-2.588594 0.2616198 -1.208699 0.785724 0.4581897 0.4155722 2565673 male
-2.475815 0.1397534 -1.35571 0.6464109 0.1448116 0.7491214 2764082 male
-2.791198 -0.09942877 -1.360481 -0.675436 -0.2059262 -0.7080826 2632496 male
-2.856524 0.5965698 -1.159794 -0.3439393 0.07834474 0.9357179 7367528 male
-2.801822 0.4234844 -1.160685 -0.2746681 -0.1785688 0.9448127 9734788 male
-2.908092 0.5011995 -1.482787 -0.8515698 0.500355 -0.156441 15782851 male
-2.809565 0.9161072 -1.339139 -0.3577171 0.2755708 -0.892244 6972770 male
-2.826129 0.4225648 -1.317747 -0.3434274 -0.1163938 -0.931939 5788496 male
-2.731346 0.9095159 -1.227756 0.7155886 0.2031375 0.6683325 3947060 male
-2.776764 -0.1244665 -1.361324 -0.1401495 -0.4381066 -0.8879308 2762538 male
-2.942029 0.6197897 -1.358643 -0.4745527 0.4283017 -0.7689978 6314324 male
-2.840704 0.1399824 -1.321866 -0.9191341 -0.03504872 -0.3923829 1842979 male
-2.825796 0.2032557 -1.176908 -0.6581036 -0.3008697 0.690201 3947329 male
-2.875019 0.5318064 -1.31096 -0.5757241 -0.1926441 -0.7946259 3486253 male
-2.72486 0.2397069 -1.127456 -0.2384004 -0.3335416 0.912094 11313305 male
-2.720937 0.009516489 -1.334861 0.8920959 -0.08525807 -0.4437301 3158583 male
-2.587155 0.1884105 -1.192868 0.6397931 -0.2501526 0.7266972 2829875 male
-2.782067 0.2972594 -1.323926 -0.07266971 0.003650206 -0.9973496 5722703 male
-2.529728 0.4499209 -1.255586 -0.7139017 -0.5780061 -0.3952889 13877178 male
-2.762065 0.9472706 -1.221725 0.4196854 0.6052611 0.6764047 4340793 male
-2.526234 0.1039877 -1.347771 -0.2260891 -0.788545 0.5719097 2763051 male
-2.833438 0.6709146 -1.323793 0.1905115 0.6311601 -0.7518926 5394249 male
-2.845167 0.7231068 -1.275871 -0.3308513 0.5739416 -0.7490852 4275000 male
-2.837501 0.18859 -1.209226 -0.8203987 -0.3108034 0.4799453 2499881 male
-2.63273 0.3168864 -1.165244 0.7648966 0.2387401 0.598278 4144438 male
-2.805521 -0.352377 -1.210339 0.7723705 0.08896428 0.6289114 2105378 male
-2.822059 -0.2174098 -1.307254 -0.7913573 -0.2902985 -0.5380342 1974307 male
-2.687804 0.6283619 -1.283489 0.4349375 0.3177923 -0.8425186 8880505 male
-2.695291 0.1720116 -1.163113 -0.1355166 -0.9783527 0.1564011 2303274 male
-2.857009 -0.3974094 -1.228034 -0.6568626 -0.7440423 0.1221993 526602 male
-2.888135 0.6273726 -1.318643 0.06092943 -0.8262112 -0.560056 5526092 male
-2.362267 -0.1985269 -1.363173 0.240375 -0.9306671 0.2758236 2828843 male
-2.758806 -0.2328813 -1.277334 0.9187117 -0.3374003 -0.2052563 2565415 male
-2.852051 -0.3790643 -1.233363 -0.9173971 0.2917255 -0.2707012 2171169 male
-2.536329 0.4466252 -1.212976 -0.9846234 -0.1637096 -0.0609594 16375256 male
-2.536157 0.5658759 -1.335023 0.6660075 0.684922 0.2954928 14731452 male
-2.658729 0.5985057 -1.180218 0.9962751 -0.08538669 -0.01205981 3749937 male
-2.783405 0.9723299 -1.286042 0.03476955 0.9730964 -0.2277596 7169118 male
-2.784793 0.6713284 -1.308828 0.3459852 0.4147308 -0.8416013 7433065 male
-2.696518 0.5973004 -1.296255 0.3847286 0.1836189 -0.9045819 10917515 male
-2.753099 -0.08468535 -1.282949 0.55399 0.3822754 0.739568 2171174 male
-2.621123 0.3375827 -1.220122 0.8065735 0.5845157 -0.08820885 4867646 male
-2.605691 0.6359676 -1.226834 0.05732545 0.5781769 -0.8138952 12037543 male
-2.727745 0.946388 -1.303712 0.6192263 0.7476038 -0.2400988 9076602 male
-2.416117 -0.01054481 -1.397244 -0.4648294 -0.7484427 -0.4730406 1644825 male
-2.706064 0.5242929 -1.123364 0.3169238 -0.1888443 0.9294608 6117461 male
-2.494731 0.5139408 -1.270889 0.7658598 0.6382726 0.07789084 16770523 male
-2.665819 0.6737778 -1.186007 -0.1971765 -0.6376672 -0.7446491 7171428 male
-2.409255 0.00544221 -1.422079 -0.1225807 -0.7591976 -0.639213 2039327 male
-2.728451 0.1215696 -1.340994 0.7236813 -0.002823246 -0.6901288 2961201 male
-2.379925 0.1175415 -1.438152 0.7941895 0.5262544 0.3038415 2434597 male
-2.501605 0.1921783 -1.342529 0.8171248 0.5613581 -0.1310891 3027254 male
-2.769256 0.9095969 -1.349216 -0.02763525 0.2565735 -0.9661297 4931902 male
-2.722273 0.3665775 -1.134692 -0.2195524 0.3565788 0.9081016 8682100 male
-2.854645 0.7109123 -1.203948 -0.3804438 0.5843786 0.7167735 4077366 male
-2.631494 0.7041556 -1.135574 0.5282279 0.4885526 0.6944723 12103592 male
-2.723242 0.07998952 -1.333441 0.8426399 -0.06592695 -0.5344267 2434857 male
-2.836598 0.5927007 -1.548533 0.9761251 -0.1250498 0.1776023 5918543 male
-2.801196 0.3507477 -1.317133 -0.290414 -0.1155618 -0.9498976 6117458 male
-2.719395 0.01949406 -1.329759 0.9141087 -0.06284586 -0.4005697 2698289 male
-2.436293 0.1462977 -1.439595 0.8180867 0.5713009 0.0659517 2960429 male
-2.833134 -0.1695295 -1.283755 -0.9926879 0.02482691 0.1181301 2171937 male
-2.712462 0.9300856 -1.281973 0.8384691 0.5265089 0.1405637 6444882 male
-2.411055 0.1277401 -1.419557 0.1622157 0.7107973 0.6844367 2696233 male
-2.720081 0.01604975 -1.26488 0.8089162 -0.05495775 0.58535 1973793 male
-2.652301 0.6013204 -1.259897 0.8462021 -0.09955602 -0.5234796 5196869 male
-2.808692 -0.1578543 -1.249243 -0.4563943 0.1983261 0.8673934 2829615 male
-2.826643 -0.359309 -1.260257 -0.6326443 0.3978234 -0.6644532 2105894 male
-2.651011 0.6699464 -1.205124 0.502587 -0.4778199 -0.7204823 5262152 male
-2.437975 0.02394173 -1.429532 -0.6703199 -0.6697863 -0.3194647 1775899 male
-2.89262 0.505844 -1.46111 -0.08923131 0.5629986 0.8216268 16637137 male
-2.778821 0.503647 -1.333637 0.1521563 0.0495201 -0.9871152 9208956 male
-2.740352 0.04765965 -1.353337 0.5594754 -0.113897 -0.8209842 3553856 male
-2.864081 0.2900533 -1.197686 -0.8786596 -0.09139555 0.4686196 6380377 male
-2.869278 0.8866054 -1.26334 -0.9974057 -0.03921852 -0.06036592 4208183 male
-2.63547 0.6358813 -1.218045 -0.6352594 -0.05345222 -0.770447 6906205 male
-2.864507 0.9072949 -1.282268 -0.9598619 0.1284936 -0.2493088 3683631 male
-2.732571 0.8393307 -1.335468 -0.1068125 0.2176739 -0.9701595 15847624 male
-2.539781 0.09638754 -1.391901 -0.6772666 -0.7357291 -0.003563732 2630953 male
-2.380063 0.09733787 -1.413224 0.7319552 0.4795074 0.4840605 1974561 male
-2.659964 0.4784204 -1.173361 0.8489248 -0.128335 0.512696 3683377 male
-2.716002 0.3060156 -1.118597 -0.1539283 0.1064851 0.9823275 10656148 male
-2.50362 0.1843796 -1.309994 0.8864298 0.3290796 0.3254982 2630952 male
-2.796953 0.1528313 -1.199883 -0.3153414 -0.5414147 0.779378 3948356 male
-2.80997 0.94306 -1.210008 -0.1899614 0.5788236 0.7930183 4406587 male
-2.795989 0.805895 -1.333549 -0.4348378 -0.3330057 -0.8366742 14864065 male
-2.827776 0.1520242 -1.340263 -0.7781616 0.03229395 -0.6272335 2697257 male
