# .PCD v0.7 - Point Cloud Data file format
VERSION 0.7
FIELDS x y z normal_x normal_y normal_z rgb label
SIZE 4 4 4 4 4 4 4 4
TYPE F F F F F F U U
COUNT 1 1 1 1 1 1 1 1
WIDTH 252
HEIGHT 1
VIEWPOINT 0 0 0 1 0 0 0
POINTS 252
DATA ascii
1.33543 0.1995475 -1.333024 0.8015023 0.3580347 0.4789627 11577784 male
1.40265 0.3120307 -1.098791 -0.3535625 0.903313 -0.2429382 8094610 male
1.754593 0.3257327 -1.276222 0.6101775 0.6707586 0.4216235 526600 male
1.448117 0.1965586 -1.094897 0.8052611 -0.5555888 0.207064 3884115 male
1.340622 0.2359002 -1.319831 0.6760893 0.244411 0.6951019 11839924 male
1.685114 0.3148917 -1.361492 0.5600323 -0.11122 -0.8209714 526600 male
1.309748 0.02854212 -1.388899 -0.5300639 -0.7486865 -0.3981216 12037311 male
1.366594 -0.01261352 -1.328449 -0.2076216 -0.9779903 -0.02069448 7369861 male
1.319464 0.5868595 -1.482964 0.4184532 -0.1895071 -0.8882477 12161938 male
1.708374 0.3024912 -1.236055 -0.4258732 0.4207765 0.8009863 526600 male
1.546685 0.3354497 -0.9860824 0.7771872 0.6062521 -0.1686369 526600 male
1.329233 0.6426483 -1.47973 0.5275947 0.2084852 -0.8235155 14135726 male
1.384459 0.2488205 -1.475661 0.9125469 -0.01126157 -0.4088169 9670043 male
1.401262 0.1184525 -1.316191 -0.284207 0.8239497 -0.490238 7370889 male
1.209715 0.0886018 -1.306588 -0.8957476 -0.4400287 -0.06333211 9801887 male
1.412893 0.3827979 -1.047142 -0.2045706 -0.2675245 -0.9415845 526600 male
1.529893 0.1193586 -1.369276 0.3082 -0.1302024 -0.9423694 7239551 male
1.217672 0.4457474 -1.263899 0.6676478 0.4923061 0.558463 12367048 male
1.745111 0.1949201 -0.888621 0.4984509 -0.8373631 0.2244318 526600 male
1.314834 0.3338857 -1.312847 0.6609139 0.04115839 0.7493322 14801645 male
1.362515 0.5250312 -1.397023 0.6535485 -0.092543 0.7512059 11442069 male
1.444149 0.2173652 -1.16329 0.707355 0.3856879 -0.5923628 3684672 male
1.854081 0.1788475 -1.016636 0.1879264 0.6316903 -0.7520977 526600 male
1.599671 0.2107537 -1.532478 0.8261218 0.05966418 -0.560324 13345436 male
1.709961 0.251526 -1.279381 -0.4429049 -0.8611125 -0.2496407 526600 male
1.22993 0.1584083 -1.448785 -0.8884407 -0.3790412 -0.258845 10788524 male
1.189156 0.4251121 -1.458409 -0.6810456 0.316804 -0.6601607 12631503 male
1.164143 0.4573621 -1.316863 -0.7279714 0.6855105 0.01153713 8617611 male
1.585674 0.2581344 -1.322572 -0.285116 0.8424574 -0.4571372 9540514 male
1.330726 0.4658045 -1.104257 0.7800637 0.4254362 0.4588077 526344 male
1.267673 0.03593515 -1.244752 -0.6397114 -0.6663784 0.3830264 7896209 male
1.757717 0.2236855 -0.8711907 0.5957006 -0.6900814 -0.411009 526600 male
1.407856 0.3585158 -0.978662 -0.6345994 -0.4681754 0.6148947 526600 male
1.162013 0.3763255 -1.246713 -0.9386696 -0.3317743 0.09394324 16242905 male
1.405714 0.6036479 -1.386306 0.7228937 0.6137922 0.3173073 12755610 male
1.557846 0.2550802 -1.54336 0.1709451 0.7153137 -0.6775723 14330532 male
1.378501 0.1683266 -1.250417 0.244737 0.6668113 -0.7038939 5395037 male
1.184932 0.3209448 -1.17852 -0.4443069 -0.8651404 -0.2326446 14985636 male
1.648659 0.30174 -1.306773 -0.4750873 -0.4333636 0.7658252 526600 male
1.236821 0.1963703 -1.485263 -0.7707798 -0.3762912 -0.5141046 12104902 male
1.271084 0.280507 -1.547741 -0.455252 -0.3750106 -0.8075349 10591404 male
1.592265 0.2345411 -1.547462 0.5321677 0.424783 -0.732364 14331560 male
1.317584 0.5243162 -1.47165 0.1006765 -0.2061831 -0.9733204 16634321 male
1.225524 0.1628159 -1.432775 -0.8284177 -0.3815211 -0.4100804 10065575 male
1.236912 0.6366376 -1.369297 -0.3833807 0.203108 0.9009808 9933206 male
1.650458 0.2471766 -1.323086 0.1921712 -0.9813073 -0.01030728 986894 male
1.395917 0.3621205 -1.565402 -0.1330085 -0.499799 -0.8558677 13676199 male
1.518494 0.2531696 -1.514663 -0.4451466 -0.890099 0.09781706 16370373 male
1.218561 0.2204727 -1.451056 -0.8059855 -0.352581 -0.4754726 11314868 male
1.367276 0.2626291 -1.511817 0.8373245 -0.1759036 -0.5176347 4999500 male
1.21981 0.1406522 -1.413842 -0.6557473 -0.5202977 -0.5470701 9341078 male
1.73017 0.3280181 -1.260329 0.3266674 0.7270198 0.6039292 526600 male
1.289401 0.1309146 -1.172372 -0.8481872 0.1833109 0.4969663 3685184 male
1.380671 0.2291428 -1.37499 0.9039397 0.1843639 0.3858797 15923956 male
1.219016 0.3871563 -1.272693 0.6328086 -0.6603044 -0.4044147 526344 male
1.228668 0.6656921 -1.387158 -0.4848274 0.5940614 0.6418984 723723 male
1.508517 0.3369246 -1.025676 0.4194324 -0.0796073 -0.9042893 526600 male
1.695097 0.2821664 -0.8556575 0.4248815 0.8229073 -0.3772259 526600 male
1.308757 0.4724989 -1.523519 0.3400306 0.8621234 -0.3756628 6840936 male
1.438008 0.07173437 -1.373915 0.1024161 0.2185542 -0.9704355 4078914 male
1.294834 0.134461 -1.158789 -0.8308967 0.1190687 0.5435377 4802899 male
1.892932 0.1893344 -1.071026 -0.484263 0.3806774 0.7877651 526600 male
1.718222 0.3346016 -1.374445 0.6248562 -0.2937049 -0.7233893 526600 male
1.318484 0.02072671 -1.383447 -0.4818139 -0.7893641 -0.3804728 6381418 male
1.374263 0.05257529 -1.165286 0.2570519 -0.6085408 0.7507347 10791866 male
1.926196 0.128038 -1.166693 0.3010336 -0.7528983 -0.5852545 526600 male
1.463172 0.3834926 -1.536884 0.604046 0.6846783 -0.4078529 15383221 male
1.740162 0.2142709 -0.9281694 -0.7626238 0.6433483 -0.06714207 526600 male
1.714588 0.2452831 -1.259751 -0.5939846 -0.7897994 -0.1529677 526600 male
1.842597 0.1682088 -1.183192 -0.7731851 0.5435595 0.3266922 526600 male
1.219143 0.3424259 -1.156907 0.9007295 0.4146135 0.1295458 15713222 male
1.24148 0.2971286 -1.102543 0.2337899 -0.3978647 -0.8871561 15320269 male
1.350309 0.2891501 -1.35338 0.7794575 0.4292644 0.4562652 13557963 male
1.253976 0.6840672 -1.475574 -0.2296119 0.7435822 -0.6279839 526600 male
1.745794 0.2452944 -0.8952525 -0.2873867 0.9102402 0.2981134 526600 male
1.341839 0.01188813 -1.387983 -0.2642885 -0.8365417 -0.4799475 11844300 male
1.712662 0.382386 -1.330473 0.3633262 0.6437927 0.6734427 526600 male
1.24069 0.1742725 -1.267318 -0.5566626 0.7687257 0.3149406 3815997 male
1.350173 0.4099248 -1.132028 0.6729125 -0.4389823 -0.595385 12103606 male
1.247435 0.4865215 -1.416455 -0.7905965 0.5786837 0.2002061 14659494 male
1.468274 0.3496119 -0.9536617 -0.1988413 -0.1829658 0.962801 526600 male
1.23369 0.05703183 -1.290552 -0.7481292 -0.6621805 0.0426577 9144474 male
1.17875 0.3600272 -1.155421 -0.7312524 0.5452611 0.4098297 15381928 male
1.236757 0.3870961 -1.2065 0.9121586 0.3960209 0.105518 11502726 male
1.461186 0.3356892 -0.9597449 -0.3624043 -0.4077821 0.8380793 526600 male
1.688522 0.3354536 -1.26275 -0.3862761 0.5310895 0.754145 526600 male
1.160316 0.3913231 -1.324862 -0.6388803 -0.7690653 -0.01925087 986127 male
1.477478 0.3855545 -1.043024 0.5315948 0.3404599 -0.7755604 526600 male
1.324757 0.6915225 -1.437994 0.5193755 0.8027942 -0.2928661 13478563 male
1.222668 0.09113052 -1.256132 -0.7719306 -0.3273622 0.5449377 8816018 male
1.262145 0.4761836 -1.471278 -0.8633736 0.3116713 -0.3967958 11314606 male
1.19289 0.3674044 -1.149928 -0.2764616 0.8836327 0.3778388 15576483 male
1.578955 0.2625504 -1.309543 -0.4101591 0.9081729 -0.08361441 2171172 male
1.50794 0.4019235 -1.41715 -0.7755981 -0.6252123 0.08693218 16766942 male
1.163007 0.3195551 -1.33156 -0.7566611 -0.2359308 0.6097546 8091011 male
1.811168 0.2003615 -1.204949 0.471577 -0.6662323 -0.5777105 526600 male
1.418221 0.1047897 -1.13018 0.4519008 -0.6939557 0.5605456 4935259 male
1.683848 0.3565742 -1.338866 0.4464061 0.8643577 0.2315328 2632750 male
1.326552 0.659642 -1.374811 0.5358636 0.4427913 0.7188783 13806240 male
1.176956 0.383474 -1.302822 0.1051786 -0.863901 -0.4925572 1051656 male
1.538222 0.06900956 -1.246204 0.4917296 -0.5959336 0.634874 3488321 male
1.282404 0.440917 -1.356605 0.4045364 0.7655122 0.5003412 13484757 male
1.738564 0.3448021 -1.358109 0.8614408 -0.008045 -0.5077942 526600 male
1.884042 0.152824 -1.182149 0.2424379 -0.6482162 -0.7218308 526600 male
1.231444 0.4007409 -1.212561 0.7104192 0.6656383 0.2285394 15184312 male
1.354373 0.2078525 -1.087763 -0.6397488 0.02293219 0.7682419 4212304 male
1.521074 0.2938394 -1.539961 0.4494327 0.006038347 -0.8932937 15120309 male
1.356109 0.4232982 -1.44654 0.7155482 0.5951632 0.3657479 12104132 male
1.767655 0.299265 -1.260198 0.8762928 0.4343036 0.2085456 526600 male
1.255246 0.3487861 -1.558408 -0.6124477 -0.04840558 -0.7890277 11907781 male
1.254819 0.5584909 -1.482095 -0.1116361 -0.6423721 -0.7582186 14471896 male
1.186822 0.4305922 -1.237471 -0.1762522 0.7685259 0.6150635 13545135 male
1.251652 0.6399472 -1.50279 -0.1305939 0.2728184 -0.9531606 2828843 male
1.295208 0.571677 -1.499535 0.7687199 -0.02620104 -0.6390486 15573921 male
1.406023 0.3651046 -1.039452 -0.1097369 -0.7907433 -0.6022314 526600 male
1.403682 0.2657068 -1.042047 -0.333582 -0.5870833 0.7376016 592137 male
1.29085 0.2648622 -1.291285 0.2899497 0.1773041 0.9404745 7696766 male
1.185888 0.3792633 -1.466987 -0.576153 0.1067634 -0.8103391 14670828 male
1.421908 0.1159035 -1.122136 0.4657267 -0.6989613 0.5427262 8028049 male
1.464717 0.08391482 -1.378617 0.1410348 0.04107258 -0.9891522 2764082 male
1.211206 0.5577224 -1.413534 -0.7388192 -0.6456816 0.1929806 7432812 male
1.403072 0.5993316 -1.404186 0.8847604 0.2574253 -0.3884987 13741227 male
1.594687 0.2522283 -1.261849 -0.4122411 0.4236502 0.806584 4737865 male
1.378498 0.1423872 -1.425215 0.5306606 0.6040695 -0.5945581 7959425 male
1.866252 0.1389054 -1.17196 -0.9743081 -0.1488076 0.1690556 526602 male
1.515626 0.254346 -1.49457 -0.537502 -0.1512996 0.8295783 7826551 male
1.426241 0.0850419 -1.164047 0.7422861 -0.5781965 0.3386741 2828851 male
1.52206 0.3597687 -0.9829608 0.7302647 0.6752505 0.1036838 526600 male
1.307067 0.1816497 -1.512076 0.04307082 -0.5960109 -0.8018203 5658206 male
-2.470404 0.1282755 -1.397448 0.9627776 -0.1975768 0.1844535 4340793 male
-2.507375 -0.08241099 -1.435888 -0.1328442 0.4910859 -0.8609223 4342856 male
-2.711826 -0.3524614 -1.484967 -0.2075644 -0.02580635 -0.977881 2368805 male
-2.524621 -0.1099655 -1.267051 -0.0208199 -0.7610669 0.6483393 4607058 male
-2.474298 0.1207182 -1.388167 0.9376344 -0.3065447 0.1639282 4868162 male
-2.719062 -0.1652777 -1.613011 0.436201 -0.6320705 -0.6404808 3684152 male
-2.669383 0.0669484 -1.390874 -0.5501629 -0.8324388 0.06607988 5985874 male
-2.590221 0.03029779 -1.441822 0.2077089 -0.9714294 -0.1148122 8353135 male
-2.589317 0.01005884 -1.796376 -0.8759658 -0.4788513 -0.05818522 14864065 male
-2.648123 -0.1309575 -1.450039 0.9634955 -0.07981254 -0.2555518 2566444 male
-2.497833 -0.311369 -1.494996 -0.742824 -0.2528854 -0.6198885 1776411 male
-2.559004 0.002335516 -1.862396 -0.5583434 -0.5687364 -0.60398 6709083 male
-2.707379 0.1632695 -1.346093 -0.9862685 0.1333031 0.09749389 4669502 male
-2.561491 0.06806386 -1.371579 0.3873709 -0.7330696 -0.5590643 8682875 male
-2.536103 0.2184757 -1.328803 0.2603218 0.8322272 0.4895207 5920082 male
-2.505793 -0.2188816 -1.484498 -0.9270892 0.1212454 0.3546908 2236451 male
-2.747538 -0.1115239 -1.390807 -0.9954347 -0.09355027 0.01893109 1908771 male
-2.420704 0.2428492 -1.647053 0.6619055 0.6440065 -0.3835841 10920604 male
-2.533331 -0.4750977 -1.452739 0.04133416 -0.9873835 -0.1528567 526600 male
-2.426955 0.1627476 -1.648552 0.46819 -0.5978906 -0.6506344 6445657 male
-2.526729 0.0372369 -1.686898 0.6125339 -0.3040484 0.729628 12035479 male
-2.58335 -0.05222143 -1.323696 -0.9017539 0.05476187 -0.4287673 2105378 male
-2.724635 -0.4350389 -1.533291 0.02015356 0.9888737 -0.1473863 2631982 male
-2.633764 -0.3585986 -1.677229 0.9555058 0.1122449 -0.2727822 16768467 male
-2.742219 -0.3125578 -1.522127 -0.8287413 -0.4453522 -0.3388943 2302499 male
-2.674193 0.1500096 -1.63367 -0.4873112 0.6891149 -0.5363288 3223601 male
-2.586685 0.2404048 -1.574903 -0.4892246 0.8474599 -0.2060849 8813950 male
-2.507317 0.2571243 -1.556176 0.171816 0.9654981 0.1956852 7103587 male
-2.671826 -0.2171577 -1.550532 0.9947868 -0.07782204 -0.06590408 2171937 male
-2.439754 0.08108743 -1.355375 -0.9743944 0.08873105 -0.2065977 9535869 male
-2.52734 0.05396548 -1.178331 0.4102304 0.1576226 0.8982574 3355703 male
-2.565149 0.0500921 -1.612612 0.5401462 -0.7985971 -0.2654899 7893616 male
-2.412496 -0.2114759 -1.516412 0.991078 -0.1002241 -0.08786243 2632488 male
-2.355232 0.2231057 -1.525555 0.8404187 -0.02366965 -0.5414209 16373962 male
-2.539871 0.01815077 -1.685591 0.1449929 -0.1550134 0.9772145 11510934 male
-2.708957 -0.0157328 -1.640715 -0.9306598 0.04554769 -0.3630401 8681849 male
-2.463487 0.01300971 -1.318882 0.7921836 0.4680274 -0.3916577 3487806 male
-2.419655 0.2589397 -1.555203 0.08016917 0.9702036 0.228644 3026217 male
-2.748863 -0.1428352 -1.479794 -0.8120427 -0.03980207 0.5822396 2895664 male
-2.682422 0.1551912 -1.617992 -0.49306 0.7211154 -0.486708 9078402 male
-2.658268 0.1918172 -1.567443 -0.3637043 0.901396 -0.2349565 6183254 male
-2.684791 -0.3264959 -1.68113 -0.8233905 -0.1267429 -0.5531408 16773095 male
-2.575098 0.03071938 -1.868311 -0.7143467 -0.2928437 -0.635572 3222825 male
-2.636775 0.1019526 -1.199891 -0.111645 0.497191 0.8604283 9735562 male
-2.454749 0.07769519 -1.818342 0.9899745 0.132688 0.04842335 4868418 male
-2.704661 -0.07764903 -1.440763 -0.2332502 0.5325782 -0.8136061 4079942 male
-2.631531 -0.06830157 -1.659989 0.6546047 -0.2882147 -0.6988741 7827822 male
-2.704698 0.01169228 -1.562752 -0.2562753 -0.7036887 0.6626805 526344 male
-2.616191 0.1396555 -1.223724 -0.1529066 0.7010714 0.6965045 9208444 male
-2.72646 0.1025663 -1.481287 -0.9715956 -0.1438327 0.187921 7301222 male
-2.561397 0.1443023 -1.21738 -0.03965041 0.7087734 0.7043213 10260879 male
-2.685793 -0.3543906 -1.455488 0.9741438 0.181257 -0.1348704 1841692 male
-2.493437 0.05768351 -1.278285 0.4702934 0.5231106 -0.7107599 8618620 male
-2.734033 0.07628608 -1.285725 -0.9893928 0.1451484 -0.005833387 3223593 male
-2.450622 0.2191539 -1.561787 -0.8600933 -0.2229416 0.4588429 5722699 male
-2.4957 0.122952 -1.763374 0.5918248 0.6260816 0.507706 7432551 male
-2.471601 -0.1443815 -1.452709 0.1068225 -0.2051732 0.9728788 2500654 male
-2.513071 0.1364045 -1.657689 0.7948046 -0.2862228 -0.5351283 5525067 male
-2.59958 0.05546794 -1.666313 -0.4368998 -0.8902033 0.1290611 15261136 male
-2.697824 -0.08593788 -1.224203 -0.4569787 -0.7586998 0.4642686 3158835 male
-2.455639 -0.01429784 -1.242347 0.9558619 -0.05616834 0.288398 2829359 male
-2.687061 -0.386822 -1.43898 0.9463722 0.03639323 -0.3210227 2236708 male
-2.764859 -0.1785076 -1.597176 -0.8816206 -0.1761222 -0.4378657 4803664 male
-2.691868 0.1049842 -1.372362 -0.8288523 -0.5370023 -0.1569476 3552048 male
-2.535923 -0.01237451 -1.171747 0.2210058 -0.4918807 0.842146 2302499 male
-2.752167 -0.4120173 -1.401955 -0.5097478 -0.6481776 0.5657058 526344 male
-2.634338 -0.0185999 -1.664661 0.6054884 -0.1368472 -0.7840006 7698034 male
-2.512524 -0.4687695 -1.43569 0.005815022 -0.9993728 -0.0349306 526600 male
-2.724894 -0.335159 -1.448353 -0.7837719 0.04574107 0.6193622 2170913 male
-2.701265 -0.3558272 -1.400383 -0.5172381 0.4105297 0.750953 3355187 male
-2.339422 0.2329284 -1.492533 0.3938424 -0.6438591 -0.6559982 15520195 male
-2.311668 0.267149 -1.35936 0.1094615 0.07340408 0.9912771 5590605 male
-2.441983 0.155124 -1.648374 0.2961217 -0.5898439 -0.7512631 7039074 male
-2.533129 0.03120658 -1.890326 -0.1425624 -0.3170784 -0.9376233 4932930 male
-2.577403 0.03087755 -1.499067 0.5632986 -0.812287 0.1512766 7037791 male
-2.722405 0.1134422 -1.269787 -0.883379 0.3358124 0.3269123 6511962 male
-2.768057 -0.222913 -1.575656 -0.898697 -0.2850686 -0.3332867 1776923 male
-2.473012 0.07444496 -1.289131 0.7565297 0.2026175 -0.6217792 5197127 male
-2.471842 0.08941387 -1.371175 0.1115387 -0.9888873 -0.09829067 13546157 male
-2.503567 0.00153182 -1.870945 0.3590842 -0.5877196 -0.7250134 9076602 male
-2.428144 -0.2745857 -1.503959 0.9335533 -0.3207811 -0.159931 2697001 male
-2.571651 0.1840018 -1.269275 -0.09678295 0.8712655 0.4811753 10064523 male
-2.336653 0.2625313 -1.478248 0.8488467 0.4509783 -0.2758226 16768979 male
-2.418504 0.257764 -1.609517 0.5343587 0.8401394 -0.0928793 9801352 male
-2.429564 -0.2707447 -1.517975 0.857945 -0.3597914 -0.366716 2697257 male
-2.661723 -0.1474395 -1.512002 0.9356524 -0.1454324 -0.3215654 2104864 male
-2.471662 0.2324503 -1.590733 0.2152749 0.0002480534 0.9765536 657418 male
-2.501457 -0.1606631 -1.538384 -0.8452603 -0.2721465 -0.4598604 2170913 male
-2.560083 -0.0107611 -1.847005 -0.5722753 -0.7067348 -0.4159651 7431009 male
-2.515775 0.05949687 -1.183921 0.5695712 0.206883 0.79548 9012097 male
-2.652166 0.1357217 -1.66807 -0.3715813 0.5952772 -0.7124413 6972002 male
-2.401948 0.1881854 -1.569691 0.4575227 -0.8070867 -0.3732078 9736844 male
-2.683941 -0.1712922 -1.583302 0.9245036 -0.202205 -0.3231198 1973534 male
-2.64658 -0.5068176 -1.657453 0.7588261 0.2114172 -0.6160243 16176327 male
-2.729686 0.06802741 -1.255461 -0.9535303 0.1550146 0.258362 3749681 male
-2.693583 -0.3231185 -1.504449 0.8168852 -0.199234 -0.541299 2434085 male
-2.486439 -0.06399983 -1.22411 0.6167725 -0.5722061 0.5405294 1710627 male
-2.768581 -0.1557151 -1.555248 -0.8944656 0.2937453 0.3371131 1842465 male
-2.464815 0.03943619 -1.856666 0.8407068 -0.28144 -0.4626056 3749169 male
-2.467065 0.2310422 -1.602121 -0.7554981 -0.05936936 0.6524556 2566695 male
-2.645466 -0.1313999 -1.317312 0.6293358 -0.7379957 0.2435135 2631464 male
-2.47986 0.1936548 -1.659709 0.2324094 0.2189128 -0.9476621 8947840 male
-2.742627 -0.2413859 -1.587376 -0.2508543 -0.5364754 -0.8057707 2566444 male
-2.729812 -0.3591595 -1.436452 -0.9405781 0.08448789 0.3288996 2368292 male
-2.40501 0.203787 -1.613021 0.8122136 -0.5483946 -0.198929 8747375 male
-2.440204 -0.2041049 -1.559871 0.3667652 -0.2665565 -0.8913087 3354936 male
-2.635482 -0.2211784 -1.624318 0.7090256 -0.01802243 0.7049526 15717326 male
-2.577257 0.03402575 -1.466256 0.4108349 -0.9042583 -0.116326 8813168 male
-2.697769 -0.2803326 -1.546295 0.553109 -0.4576828 -0.6961302 2301731 male
-2.632873 0.2048568 -1.330301 -0.2378682 0.7954895 0.5573288 11181211 male
-2.56049 0.1406229 -1.820072 -0.4655576 0.878983 -0.1031754 4932154 male
-2.411647 0.241685 -1.632794 0.8155644 0.426727 -0.3908439 9735556 male
-2.580519 0.1071314 -1.854071 -0.7889513 0.4622411 -0.4048324 6511192 male
-2.588828 0.009641322 -1.802159 -0.8982346 -0.4240321 -0.115636 14206391 male
-2.496424 -0.1681086 -1.499935 -0.8992107 0.2908575 0.3268368 2368292 male
-2.434049 -0.1416622 -1.480409 0.9983591 0.02278461 0.05253929 2237482 male
-2.493082 0.2179161 -1.455468 0.607649 0.7412452 0.2851636 4999238 male
-2.633692 0.2065016 -1.554365 -0.5390627 0.8161695 -0.2080358 9341568 male
-2.50678 -0.06949332 -1.218522 0.3666048 -0.7191615 0.5902607 1645858 male
-2.719647 -0.05324982 -1.214023 -0.7885756 -0.4525149 0.416388 3026998 male
-2.475752 0.1126923 -1.861043 0.704862 0.5479151 -0.4505094 7037274 male
-2.585816 0.001235703 -1.748805 -0.8377931 -0.5306364 0.128561 16771294 male
-2.659285 -0.01239437 -1.359017 0.4138761 0.6544955 -0.6327263 4474962 male
