# .PCD v0.7 - Point Cloud Data file format
VERSION 0.7
FIELDS x y z normal_x normal_y normal_z rgb label
SIZE 4 4 4 4 4 4 4 4
TYPE F F F F F F U U
COUNT 1 1 1 1 1 1 1 1
WIDTH 247
HEIGHT 1
VIEWPOINT 0 0 0 1 0 0 0
POINTS 247
DATA ascii
1.369303 0.9037294 -0.7229044 -0.5875173 -0.1031501 0.8026105 5394258 male
1.445153 0.6394703 -0.7352537 0.9685954 0.1974892 -0.1510661 3356994 male
1.61168 0.6429425 -0.8245999 0.6855031 0.597446 0.4161055 7436679 male
1.292331 0.6499473 -0.8001244 -0.8437749 -0.5300886 -0.08396333 6712697 male
1.370361 0.8823123 -0.7296369 -0.4249173 -0.3517493 0.8340968 10853540 male
1.671351 0.5489376 -0.7664787 -0.03195295 -0.2797478 0.9595416 526600 male
1.425723 0.8427053 -0.9892097 0.2261256 0.2282733 -0.9469733 5525333 male
1.551791 0.8587822 -0.6487241 0.1024638 -0.9064611 0.4096699 16710396 male
1.812565 0.8445556 -0.5521743 0.6808034 -0.6931441 0.2367656 10255482 male
1.530676 0.7234466 -0.8778238 0.6233558 0.6783237 0.3889788 6382963 male
1.424454 0.3335127 -0.7076079 0.9908324 0.06820413 0.1166156 526600 male
1.859535 0.8955685 -0.5716231 0.6789411 -0.2150699 -0.7019856 9076609 male
1.504463 0.9569179 -0.8883565 0.1141304 0.4557432 -0.8827641 8946576 male
1.457932 0.827003 -0.7321456 -0.1396158 -0.868741 0.4751806 11841217 male
1.363683 0.9627118 -0.8176438 -0.6561077 0.6734335 -0.3406025 9406615 male
1.405473 0.5751634 -0.7055615 -0.6014459 -0.4368278 -0.6689128 2171428 male
1.549483 0.6113214 -0.9202405 0.2122293 -0.3155269 -0.9248792 7896456 male
1.555534 0.9727492 -0.5316235 -0.2739929 -0.8813928 0.3848045 13156049 male
1.432377 0.2440912 -0.7213681 -0.1851515 -0.982276 0.02920444 526600 male
1.549242 0.9380856 -0.5673181 -0.3829891 -0.8031094 0.4564369 6579828 male
1.684673 0.8743903 -0.5960725 -0.5628217 -0.6851196 0.4624316 14728378 male
1.36606 0.7195613 -0.7138864 0.05311084 0.4749095 0.8784305 1381917 male
1.671753 0.2967608 -0.8383875 0.265573 0.952 0.1522067 526600 male
1.696711 0.5097634 -0.7441874 -0.9336624 -0.2117559 0.2888492 1644825 male
1.696473 0.4711529 -0.8239105 0.7991394 -0.544894 0.2539029 526600 male
1.686079 0.9791698 -0.7772401 0.4893822 0.8166883 -0.305819 13553630 male
1.628294 1.017331 -0.7131262 0.5111746 0.7313774 -0.4514284 12037311 male
1.495236 1.0054 -0.6332974 -0.8325989 0.3239485 0.4492622 7564923 male
1.680886 0.5854328 -0.7573324 -0.04985267 -0.509554 0.8589932 657418 male
1.561783 1.060676 -0.5754128 -0.05310424 0.9286085 -0.3672413 6710377 male
1.257016 0.7809537 -0.882926 -0.9445661 -0.05620355 -0.3234748 3883075 male
1.657776 0.8761789 -0.6440447 -0.01645471 -0.8420563 0.5391386 14604529 male
1.405568 0.4877916 -0.6109043 -0.8498923 0.002565187 0.5269502 526600 male
1.498068 0.9863961 -0.5614876 -0.08011012 -0.733366 0.6750975 16179682 male
1.707239 0.8582978 -0.5729738 -0.9604341 -0.2782285 0.01245865 9205107 male
1.755962 0.8226435 -0.7701306 0.9342445 0.1352244 -0.3300023 5592155 male
1.334353 0.7544742 -0.7350385 -0.1506862 0.4342186 0.8881147 1512207 male
1.509249 1.039381 -0.6128237 0.1094141 0.3464448 -0.9316676 9141118 male
1.612696 0.6377193 -0.8787042 0.8365757 0.2406945 -0.4921455 591880 male
1.660842 0.9833453 -0.7956352 0.2528579 0.8511651 -0.4599791 12696529 male
1.594213 1.009102 -0.7715059 0.06717948 0.9480801 -0.3108553 10065577 male
1.753334 0.4992287 -0.7400499 0.9610256 -0.03335817 0.2744396 14527148 male
1.832528 0.9654415 -0.5859133 0.4177668 0.4545565 -0.7866698 10130330 male
1.360761 0.8384974 -0.9822258 -0.4398712 0.3833361 -0.8121371 10791100 male
1.778224 0.9189767 -0.4592979 -0.5091289 -0.07063539 0.857787 14207184 male
1.5939 0.6553742 -0.8438127 0.7692585 0.5434081 0.3360787 7961737 male
1.753313 0.777712 -0.7320182 0.8368468 -0.3743898 0.3993993 7169909 male
1.491008 0.7141231 -0.9799944 0.6107824 0.1725126 -0.772777 2698033 male
1.353121 0.8577062 -0.9653045 -0.5542375 0.5348172 -0.6378019 4541531 male
1.633058 0.8256229 -0.7781268 0.1541238 -0.7430109 -0.6512914 6643565 male
1.316027 0.8908507 -0.8915411 -0.5320263 0.6767586 -0.5088671 6578804 male
1.574738 0.6667291 -0.8432457 0.6601756 0.5337106 0.5285084 6580598 male
1.27782 0.8081892 -0.7746527 -0.7211305 0.1531805 0.6756526 6316648 male
1.46736 0.8242801 -0.8027631 0.1856787 -0.9106998 0.3689839 11973830 male
1.364391 1.054828 -0.610683 0.8704543 -0.4209858 -0.2551084 11966365 male
1.734403 0.9631748 -0.527613 -0.8776822 0.4113666 0.2458688 11971502 male
1.443656 0.5688913 -0.6856001 -0.3280313 -0.205189 -0.9221133 526600 male
1.670262 0.9550165 -0.5899231 -0.04256606 0.2820656 0.9584504 14790564 male
1.753054 0.9169549 -0.7276192 0.9958076 0.08998056 -0.01644796 7499642 male
1.355165 0.6851745 -0.9737587 -0.4199643 -0.8757573 -0.2380741 11976911 male
1.320654 0.8119229 -0.772861 0.1926128 0.3956108 0.8979935 11317693 male
1.60278 0.36788 -0.8764873 -0.6214672 -0.0346601 0.7826729 526600 male
1.686232 0.6000768 -0.8438724 0.04362717 0.4769259 -0.8778601 526600 male
1.450854 0.8729218 -0.9731205 0.3148019 0.3650741 -0.8761396 3749954 male
1.442225 0.5830948 -0.7450358 0.4675924 -0.2899726 -0.8350289 527376 male
1.582696 0.324742 -0.9445131 -0.2186739 -0.9358566 -0.2763226 526600 male
1.712148 0.797587 -0.7118528 -0.1465216 -0.6611108 0.7358424 7103089 male
1.403826 0.2621872 -0.7417322 0.00353447 -0.9912463 -0.1319787 526600 male
1.706258 0.50283 -0.7999313 0.5724087 -0.4948906 0.6537825 526600 male
1.614037 0.3582024 -0.9361997 0.2844606 0.2811953 -0.9165214 526600 male
1.392254 1.028415 -0.6100484 0.4453951 -0.8726997 -0.200046 12819360 male
1.290689 0.9756456 -0.6724901 -0.7489893 -0.04222279 -0.6612352 13613756 male
1.578813 1.00184 -0.53212 0.4057891 0.3745897 0.8336773 7368056 male
1.881067 0.9426394 -0.4896109 0.9107089 0.171102 0.3759432 526600 male
1.564544 0.8194421 -0.7447132 -0.08735838 -0.9576547 0.2743466 12429993 male
1.480264 0.9082847 -0.9309982 0.544283 0.3061484 -0.7810436 5789532 male
1.688979 0.5735137 -0.8555521 0.1953462 0.3262261 -0.9248872 526600 male
1.289131 0.8587302 -0.7730672 -0.7571182 0.1993822 0.6221085 4999252 male
1.515069 1.048821 -0.5542677 -0.4046847 0.7604156 0.5079353 6512235 male
1.856587 0.8780575 -0.4716395 0.5515242 -0.4019816 0.7309116 789516 male
1.411248 0.4004577 -0.6307151 -0.4665339 -0.3234978 0.8232225 526600 male
1.376269 0.9691476 -0.821534 -0.593948 0.6989326 -0.3983955 12235458 male
1.293881 1.072205 -0.6065514 -0.7900847 -0.0111423 0.6128963 12684936 male
1.559925 1.052984 -0.5781857 -0.2064234 0.9356399 -0.2862992 7040115 male
1.428481 0.4139714 -0.6172116 -0.1483104 -0.438179 0.8865681 526600 male
1.501558 0.6302624 -0.8326126 -0.4486162 -0.1508429 0.8809029 4079684 male
1.437682 0.5676823 -0.6037721 -0.6625651 0.08310045 0.7443801 526600 male
1.438371 0.5910313 -0.6373298 -0.2089621 0.1979064 0.9576888 6119014 male
1.86599 0.8589296 -0.5118983 0.7360523 -0.6705782 0.09247661 8750469 male
1.258217 0.8239064 -0.854311 -0.970621 0.2397204 0.02070844 5000279 male
1.669037 0.2940592 -0.8906162 0.2574666 -0.06390076 -0.9641719 526600 male
1.540055 0.9801195 -0.5526393 -0.1978873 -0.9427174 0.26856 14076110 male
1.504148 0.6704624 -0.833813 -0.1798253 0.1382816 0.9739307 6447468 male
1.738201 0.2973962 -0.7165032 0.2996698 0.1707646 0.9386359 16109273 male
1.467847 0.8608155 -0.9698316 0.5292587 0.2839654 -0.7995304 4867915 male
1.649492 0.4620389 -0.8051726 -0.01889431 -0.467059 0.8840243 526600 male
1.274351 0.6909373 -0.7814882 -0.8753825 -0.2877094 0.3884952 9278622 male
1.729359 0.5378854 -0.8131356 0.9614767 -0.2705259 -0.04876649 526600 male
1.818692 0.8716657 -0.4615868 -0.02238905 -0.4306609 0.9022361 9996677 male
1.419267 0.5752879 -0.6259323 -0.9030594 0.1073904 0.4158739 526600 male
1.445716 0.6494163 -0.8557678 -0.4091035 -0.3028578 0.8607622 1973278 male
1.597455 1.037213 -0.5960527 0.2935943 0.8667945 0.4030753 11380405 male
1.702885 0.5004717 -0.8513708 0.751203 -0.2063821 -0.6269772 526600 male
1.640905 0.3565843 -0.9195864 0.5719855 0.4542183 -0.6830214 526600 male
1.544493 1.050269 -0.541114 -0.2771639 0.7951219 0.5394083 7236726 male
1.485625 0.4758331 -0.6340858 0.9439005 -0.3294296 0.02297556 526600 male
1.730454 0.4913284 -0.722168 0.0005814731 0.07825065 0.9969335 14989243 male
1.582738 0.8332456 -0.8214542 0.4700394 -0.793007 -0.3875602 10262181 male
1.625907 0.3817095 -0.8570479 -0.2166651 0.09857453 0.9712566 526600 male
1.414798 0.9635804 -0.8521541 -0.3175431 0.8514389 -0.4173945 13024974 male
1.806257 1.007481 -0.5465403 0.01111342 0.9647778 -0.2628312 16709374 male
1.562143 1.018945 -0.5204272 -0.04789186 0.4591202 0.8870824 6973040 male
1.828923 0.98964 -0.5704145 0.3301562 0.6985253 -0.6348695 4341570 male
1.817238 0.8429833 -0.5450321 0.1441877 -0.6756674 -0.7229685 12689048 male
1.423865 0.5723503 -0.7129473 -0.3239202 -0.4428278 -0.8360498 6448492 male
1.430932 0.5322725 -0.5886766 -0.6744201 0.1594929 0.7209157 526600 male
1.408592 0.9497912 -0.6961284 -0.7902488 0.3235581 0.5204009 5657692 male
1.496332 1.001686 -0.786647 0.00463143 0.8436225 -0.5369169 10262180 male
1.333232 0.6280819 -0.7201986 -0.7762804 -0.2411576 0.582436 4672852 male
1.379931 0.6948172 -0.9974722 -0.1099335 -0.6451005 -0.7561481 6579828 male
1.812819 0.9840165 -0.4655215 -0.0711138 0.6428778 0.7626604 526344 male
1.796208 0.8570105 -0.6055232 0.3925993 -0.4625925 -0.7949049 15317941 male
1.465907 0.7537768 -0.8803368 0.2521847 0.6590757 0.7085352 7633551 male
-2.470575 0.3888368 -1.416566 0.8516283 -0.2607497 -0.4546858 4933187 male
-2.561507 -0.1201971 -1.352085 -0.9719175 -0.178921 0.152853 2039328 male
-2.660792 -0.04613839 -1.440423 0.8168761 -0.3300125 -0.473081 2631979 male
-2.4633 0.09276845 -1.347024 0.8547198 -0.1520549 0.4963203 2368036 male
-2.443104 0.4479446 -1.401392 0.9401151 -0.2423434 -0.2396948 4077621 male
-2.725916 -0.1399563 -1.337547 -0.1008491 0.2235151 0.9694693 3026739 male
-2.484238 0.5552207 -1.48407 0.2129762 0.0006388004 -0.9770573 9537149 male
-2.434792 0.671261 -1.423533 0.07346097 0.577109 -0.8133565 6841183 male
-2.532073 0.77326 -1.567231 -0.2505965 -0.3463929 -0.9039987 16376280 male
-2.607834 0.12532 -1.41981 0.9256235 -0.1655578 -0.3403119 2170913 male
-2.492222 -0.2389863 -1.300768 0.5320725 -0.2076486 0.8208418 2499878 male
-2.513545 0.8541211 -1.5919 -0.2893807 0.2651338 -0.9197626 6709083 male
-2.658911 0.4405932 -1.324293 -0.6205226 -0.09991235 0.7777977 4275257 male
-2.533371 0.3635959 -1.473351 0.4133283 -0.1326791 -0.9008641 7893100 male
-2.514892 0.386627 -1.307535 0.3033821 -0.04888325 0.9516144 8682875 male
-2.488477 0.004736676 -1.338348 0.7656704 -0.1616592 0.6225878 3025198 male
-2.693639 0.0847129 -1.33127 -0.2502082 -0.1081007 0.9621385 3093559 male
-2.36953 0.5729983 -1.307893 -0.4479059 -0.7645146 -0.4635707 16770788 male
-2.530007 -0.4721461 -1.466056 0.03971994 -0.9932902 -0.1086128 724235 male
-2.434016 0.5927629 -1.31758 0.5031531 -0.1971491 0.8414092 6972514 male
-2.498736 0.7067888 -1.492197 0.437124 -0.848701 0.2977069 11904668 male
-2.588295 0.1315784 -1.426774 -0.7653823 -0.2024639 -0.6108997 2499878 male
-2.717007 -0.4213316 -1.505552 0.9784252 0.1717274 -0.1148657 1776155 male
-2.773648 0.3699518 -1.350592 0.3760428 -0.4718113 0.7974874 7760746 male
-2.705528 -0.2943398 -1.391239 0.9192938 -0.2111109 -0.3321617 1776411 male
-2.583389 0.5542356 -1.308072 -0.1347706 0.0507852 0.9895746 7892584 male
-2.54876 0.5725764 -1.300708 -0.2941911 0.1378752 0.9457496 7957353 male
-2.547702 0.4661532 -1.483683 0.1762373 0.03736483 -0.9836385 9406855 male
-2.626569 0.04488746 -1.394055 0.9627567 -0.2695018 -0.02165264 3422012 male
-2.336881 0.6171901 -1.315977 0.8353669 0.3175529 -0.4486899 15848129 male
-2.56064 0.1992534 -1.270489 -0.08157679 -0.2276993 0.9703085 3419956 male
-2.596677 0.6231323 -1.494782 0.08461192 0.2011733 -0.9758946 8945270 male
-2.482414 -0.2430543 -1.37403 0.7418591 -0.1319593 -0.6574438 2368811 male
-2.364711 0.674363 -1.35929 0.8914372 0.4485846 0.06412351 9207669 male
-2.490134 0.6958888 -1.521643 0.7058929 -0.7029942 -0.08668756 12628650 male
-2.730877 0.6735893 -1.465415 -0.7907606 0.2070252 -0.5760542 5657422 male
-2.458467 0.1197763 -1.348142 0.8987068 -0.1102191 0.4244739 2170913 male
-2.480449 -0.1053374 -1.343768 0.9858444 0.05000897 0.1600319 2433573 male
-2.702358 -0.09952033 -1.446383 0.3291031 -0.5401372 -0.77456 2895409 male
-2.590127 0.5409931 -1.307241 -0.05814004 0.01237447 0.9982319 7827823 male
-2.623513 0.3817905 -1.312903 -0.1800212 0.003712579 0.9836559 5787723 male
-2.717894 0.4878931 -1.330795 0.6849234 -0.2754421 0.6745458 8286831 male
-2.551924 0.8609822 -1.565401 -0.6950678 0.2447014 -0.6760194 8090995 male
-2.699416 0.3824047 -1.40681 -0.9757313 0.00021813 -0.218972 3222569 male
-2.431295 0.8401816 -1.505126 0.9875185 -0.02612858 0.155322 5919050 male
-2.716165 -0.1531928 -1.430992 0.3393751 -0.1491328 -0.9287542 3224634 male
-2.73233 0.626479 -1.438023 -0.7732185 -0.02428084 -0.6336749 5197383 male
-2.711775 0.06840853 -1.474588 -0.3134671 -0.125433 -0.9412785 3750978 male
-2.719203 0.2580739 -1.329542 -0.8608373 0.1273165 0.4926966 6709083 male
-2.670281 0.5986288 -1.48002 -0.515606 -0.7106525 -0.4786687 5459531 male
-2.567425 0.2531312 -1.266437 -0.08496672 0.09292966 0.9920409 9670027 male
-2.667847 -0.08690059 -1.419948 0.7895269 -0.3525341 -0.5023615 2631464 male
-2.451705 0.2058519 -1.391793 0.9868394 0.06190738 -0.1493846 2434597 male
-2.708576 0.2685997 -1.44376 -0.4565077 0.2241849 -0.8610124 5854545 male
-2.32089 0.5167288 -1.179192 -0.9164881 -0.2535146 -0.3094838 16704995 male
-2.436482 0.8739434 -1.509717 0.933306 0.3589406 0.01009494 3354670 male
-2.539076 -0.01195483 -1.317783 -0.2051319 -0.0990499 0.9737095 3093047 male
-2.493708 0.6824194 -1.450115 0.9053323 -0.3272114 -0.2707517 5063740 male
-2.644527 0.6981517 -1.386166 -0.4042862 0.7866797 0.4665703 4934211 male
-2.629596 0.1857943 -1.30045 0.502175 -0.6750101 0.5405383 2894892 male
-2.460474 0.1829944 -1.343006 0.9171543 0.01384847 0.398292 2631465 male
-2.736084 -0.3934346 -1.418943 0.9777604 0.2096804 -0.004368722 2236708 male
-2.733437 -0.1817449 -1.334067 -0.2052693 -0.04819744 0.9775182 3355702 male
-2.494334 0.5197099 -1.480181 0.1316692 -0.3189813 -0.9385704 9536117 male
-2.578145 0.1320323 -1.312433 -0.5458925 -0.2702125 0.793087 2105893 male
-2.802994 -0.4281158 -1.405955 -0.9549947 -0.1188554 0.2717695 2237221 male
-2.67332 0.618579 -1.441732 0.8511018 -0.4837423 -0.2040086 6841184 male
-2.499316 -0.4739991 -1.439598 0.03959161 -0.9876844 -0.1513669 526600 male
-2.718986 -0.3238533 -1.398237 0.9673983 -0.02526399 -0.2519975 2170917 male
-2.78227 -0.4008669 -1.375155 -0.8989428 0.1364707 0.4162667 3028022 male
-2.329458 0.5314538 -1.159908 -0.9285852 -0.3530568 0.1143711 15718350 male
-2.263376 0.4915519 -1.163577 0.8350058 -0.1301759 0.5346214 16571867 male
-2.469596 0.4966239 -1.459421 0.6308839 -0.2649153 -0.7292498 6116943 male
-2.480252 0.8674184 -1.588536 0.2415817 0.450785 -0.8593202 10459279 male
-2.5699 0.5619936 -1.497433 0.3604585 -0.01813145 -0.9325993 14337448 male
-2.483595 0.5138959 -1.47524 0.3215185 -0.3475139 -0.8808293 7367272 male
-2.685417 -0.1620544 -1.348662 0.725922 0.06950454 0.6842563 2632238 male
-2.550235 0.2065555 -1.460616 0.3678523 -0.1052234 -0.9239117 2236713 male
-2.346129 0.580604 -1.319214 0.3607166 -0.4518806 -0.8158969 16773353 male
-2.454521 0.8751163 -1.564968 0.6766846 0.5115926 -0.5295008 6708568 male
-2.517845 -0.3095517 -1.376718 -0.2326176 -0.01964294 -0.9723701 2893868 male
-2.534152 0.3848606 -1.304341 0.1086834 -0.07960221 0.9908843 8420983 male
-2.287825 0.4877753 -1.212726 -0.2337515 0.2065209 -0.9501104 16374730 male
-2.401199 0.6166419 -1.415598 0.5395626 -0.6992603 -0.4689428 7169381 male
-2.511539 -0.3149649 -1.377447 0.02168339 -0.03274079 -0.9992288 2434085 male
-2.70001 0.125315 -1.479052 -0.2118314 0.01861891 -0.977129 4211529 male
-2.476138 -0.1875775 -1.309959 0.8535088 0.04341131 0.5192673 2565415 male
-2.559397 -0.0785578 -1.392946 -0.6985357 -0.2420811 -0.6733832 2301987 male
-2.508783 0.8351912 -1.596786 -0.2297378 0.05209322 -0.9718576 6510163 male
-2.486018 0.2289282 -1.307718 0.781431 0.06978679 0.6200772 9011578 male
-2.572139 0.7162578 -1.393634 -0.05011006 0.8432449 0.5351889 10920350 male
-2.368034 0.6826637 -1.377807 0.7951697 0.5969133 -0.1067695 7301734 male
-2.687684 0.09683123 -1.478963 0.03395659 -0.07146629 -0.996865 4278352 male
-2.809072 0.2988415 -1.42247 -0.61034 0.3011687 -0.7326547 16770006 male
-2.709945 0.323743 -1.426204 -0.6703003 0.4345663 -0.6015396 3222828 male
-2.660231 -0.06325805 -1.422837 0.8176265 -0.2990062 -0.4920188 2171431 male
-2.502852 -0.1893616 -1.384802 0.02744442 0.01110622 -0.9995618 2961461 male
-2.715518 -0.1454065 -1.335624 0.1289145 0.1799458 0.9751928 2960429 male
-2.436444 0.8707664 -1.526828 0.9208347 0.3510597 -0.1697667 3749169 male
-2.475876 -0.1354219 -1.35613 0.9810764 0.1047596 -0.1628341 2170146 male
-2.679938 -0.07855933 -1.365733 0.5093509 -0.06408489 0.8581696 2500140 male
-2.422265 0.5891168 -1.354708 0.5286514 -0.8427081 0.1018381 527368 male
-2.702638 -0.2167359 -1.344458 0.4354521 -0.2276124 0.8709618 2895404 male
-2.776447 -0.3743467 -1.410959 -0.9511658 0.1486039 -0.2705564 856084 male
-2.403019 0.6245764 -1.404 0.3270941 -0.8740162 -0.359312 4406586 male
-2.557442 -0.2561885 -1.348868 -0.9473695 -0.1372162 -0.2892458 1775899 male
-2.741776 0.4104935 -1.350142 0.8565655 -0.4614885 0.2309205 13744053 male
-2.616491 0.4784975 -1.485075 -0.2845072 -0.06533363 -0.9564453 7631211 male
-2.673787 -0.1789545 -1.37852 0.9973319 -0.03302604 -0.06510562 2170657 male
-2.696423 0.2990862 -1.305761 -0.635647 0.2452141 0.7319994 8485497 male
-2.560092 0.9029766 -1.5134 -0.7442041 0.6518726 -0.1456793 5327945 male
-2.420094 0.6280915 -1.363991 -0.6354925 -0.7720551 0.008958191 8354423 male
-2.548718 0.8962371 -1.544224 -0.5955918 0.6166896 -0.5147469 5196100 male
-2.535152 0.7855761 -1.570524 -0.4870972 -0.1728192 -0.8560783 11772825 male
-2.569783 -0.02606992 -1.338321 -0.750051 -0.08380461 0.6560491 2828845 male
-2.470472 -0.2152429 -1.328387 0.9767132 -0.09663998 0.1915525 2040353 male
-2.458991 0.4116548 -1.364325 0.9056712 -0.3005628 0.2990349 2697257 male
-2.583101 0.4407223 -1.311639 -0.2006341 -0.03013582 0.9792027 8551544 male
-2.485173 -0.06186495 -1.378795 0.9774755 -0.1066652 -0.182111 3289909 male
-2.644332 0.1872974 -1.289215 0.1818246 -0.6533639 0.7348847 2105893 male
-2.479484 0.9070108 -1.461491 0.3878976 0.7224604 0.5723519 4406587 male
-2.547547 0.7332162 -1.54182 -0.6800918 -0.4440266 -0.5833658 15718606 male
-2.737045 0.1751856 -1.446604 -0.8232425 0.1505092 -0.5473746 2303275 male
-2.578688 0.1987908 -1.472751 0.2023009 -0.6361258 -0.7445928 2632496 male
