# .PCD v0.7 - Point Cloud Data file format
VERSION 0.7
FIELDS x y z normal_x normal_y normal_z rgb label
SIZE 4 4 4 4 4 4 4 4
TYPE F F F F F F U U
COUNT 1 1 1 1 1 1 1 1
WIDTH 170
HEIGHT 1
VIEWPOINT 0 0 0 1 0 0 0
POINTS 170
DATA ascii
-3.023421 -0.1053162 -0.3807817 -0.8100545 -0.2200425 0.5435005 14146273 female
-3.137059 0.01564553 -0.45778 0.09829651 -0.5963464 -0.7966862 1579291 female
-2.916526 0.7821282 -0.2166183 0.7941492 -0.2954468 0.5310727 16773604 female
-3.033055 -0.1047738 -0.3977956 -0.8972733 -0.2435408 0.3682235 2696233 female
-3.216021 -0.004079732 -0.2901082 -0.7455013 -0.09488697 0.6597154 2040359 female
-2.946057 0.604005 -0.4871281 0.08926637 0.6629187 -0.7433507 13488604 female
-2.896921 0.4120809 -0.5145084 0.8264087 -0.2502779 0.5043903 15724543 female
-2.936586 0.438699 -0.2806009 0.5538904 0.06967815 0.8296688 14607085 female
-2.958703 0.5725818 -0.3220181 0.8013762 0.2638969 0.5368004 15922687 female
-3.178607 0.5804113 -0.3260292 -0.8451665 0.4246192 -0.3246414 15330815 female
-2.943446 0.6218008 -0.4623361 0.2755626 0.844836 -0.4586037 12632520 female
-2.881102 -0.0793889 -0.4566022 0.9171442 -0.1291046 -0.3770656 1776155 female
-3.154252 -0.349483 -0.4087244 0.9151377 -0.3968647 0.07086219 1710618 female
-2.881743 0.05766372 -0.4554735 0.9887449 0.1201107 -0.08920142 3026990 female
-3.206674 -0.1220607 -0.3025721 -0.7287729 -0.182907 0.659875 2104609 female
-3.155161 -0.1848861 -0.2916075 -0.04708049 -0.3388256 0.9396705 2434085 female
-3.204614 -0.4575784 -0.4196581 0.7182114 -0.4262949 0.5499501 2105377 female
-3.00008 -0.172584 -0.3701954 -0.7651924 -0.1257414 0.631403 2961461 female
-3.006585 0.1405424 -0.2697464 0.3648944 -0.338247 0.8674336 14212074 female
-2.906554 0.7402307 -0.2738571 0.9844997 -0.1234034 -0.1246269 16571342 female
-3.222941 0.2336172 -0.2014421 0.5605963 0.2348345 0.7940935 14542582 female
-2.958916 0.4652753 -0.4866854 -0.5625849 -0.4257775 0.708669 526344 female
-2.896956 0.07218367 -0.3944915 0.8423146 0.2781833 0.4616494 2763058 female
-3.150976 -0.2362628 -0.4421408 0.1870485 0.09573077 -0.977675 2630440 female
-3.223424 -0.3288169 -0.3570979 -0.4857445 -0.1303707 0.8643239 2236714 female
-2.939301 0.3470671 -0.5336649 -0.08831689 -0.3277978 0.9406108 3619128 female
-2.941279 -0.2397433 -0.4667367 -0.03827916 0.07919127 -0.9961242 2698289 female
-3.223863 -0.4929384 -0.4216336 0.585134 -0.4284718 0.6884985 2169889 female
-3.110255 0.6224461 -0.2498862 0.146065 0.6808012 0.7177567 11179654 female
-3.010546 -0.392045 -0.506635 -0.6795011 0.2466345 -0.6909773 2500137 female
-2.928441 -0.7267201 -0.4606237 -0.1125408 -0.9867555 -0.1168252 723723 female
-3.031894 0.2250802 -0.2537816 0.1877364 -0.001879042 0.9822177 15725567 female
-2.955384 -0.2408085 -0.4631433 -0.3786113 0.08327349 -0.921802 2632240 female
-2.996503 0.2495065 -0.5227105 0.1064671 0.5189953 -0.8481207 13555687 female
-3.016604 0.6547727 -0.2612063 -0.03755808 -0.2975093 0.9539798 16573400 female
-3.188676 -0.04079202 -0.1648649 -0.9626558 -0.2381758 0.1287098 3487539 female
-3.214806 -0.3193743 -0.4620158 -0.05724545 0.4968561 -0.8659429 2632239 female
-2.906288 0.4211522 -0.4980443 0.578867 -0.3783024 0.7223575 4211272 female
-3.166421 -0.06180777 -0.2618034 -0.3303752 -0.1658737 0.9291599 2367780 female
-3.102994 0.345251 -0.2513247 -0.291593 -0.1483463 0.9449692 2826803 female
-3.144704 0.2314392 -0.2646969 -0.3871019 0.2070089 0.8984985 15200255 female
-3.083572 0.242997 -0.2536707 -0.08320482 0.08224376 0.9931329 14738936 female
-2.920727 0.2346175 -0.370091 0.9678331 0.07031949 0.2415663 14805746 female
-3.006938 -0.4879508 -0.4522589 -0.3663078 -0.3105476 0.8771424 1907229 female
-2.979288 0.05282547 -0.3466423 -0.02018843 0.1071237 0.9940407 2960434 female
-2.970995 0.6371651 -0.3144646 0.9709592 -0.2235712 0.08517071 16773345 female
-2.908028 0.0677399 -0.5217515 0.7594537 0.06079225 -0.6477148 2697773 female
-2.875443 0.3165897 -0.5609301 0.7453216 0.2801448 0.6049914 15199223 female
-3.004805 -0.07833198 -0.5030205 -0.4581279 -0.2989391 -0.8371106 2368812 female
-2.99599 -0.3313729 -0.4853919 -0.6685619 0.4458546 -0.5951795 2500142 female
-3.179079 0.5897852 -0.2397662 -0.7095148 0.6548871 0.2602144 11778241 female
-2.925879 -0.188949 -0.3398653 0.1577521 -0.1220859 0.9799027 2235682 female
-3.205557 0.1967943 -0.2074014 0.9097237 0.2290223 0.3463401 6450035 female
-3.019518 -0.6456466 -0.555749 0.3977072 0.2123446 -0.8926023 5920082 female
-3.1161 0.1996493 -0.5046045 -0.5129806 0.4175138 -0.7500221 9541537 female
-2.9849 0.6336915 -0.4529592 -0.04785092 0.8010082 -0.596738 13948130 female
-2.954744 0.2934333 -0.5739776 -0.9266344 -0.3751211 0.02515835 8158856 female
-3.205404 0.4275252 -0.2061497 0.002731235 -0.2084595 0.9780272 14211294 female
-3.163968 0.02125436 -0.255192 -0.3191553 -0.03967381 0.9468716 2762539 female
-3.112556 0.5953484 -0.2243279 0.3866217 0.5921776 0.7070002 13158864 female
-2.906415 0.3909634 -0.5151327 0.5924989 -0.3790479 0.7108219 14804215 female
-2.914547 0.216599 -0.5605584 -0.8240685 -0.4192917 0.3809271 9605783 female
-2.879058 -0.1423719 -0.4325122 0.951904 -0.09474143 -0.2913809 1908000 female
-3.285318 -0.3955484 -0.4254271 -0.9588183 0.1002208 0.2657505 1579550 female
-3.306978 -0.6549395 -0.5421765 -0.6641403 0.4831339 -0.5705254 16634573 female
-2.912014 0.3839439 -0.5963436 0.3977114 0.3606417 -0.8436605 4606286 female
-2.924812 0.387796 -0.5979851 0.1764799 0.316765 -0.9319414 10593704 female
-3.059174 0.1443014 -0.5597538 -0.2632765 0.2025492 -0.9432175 9935534 female
-2.96663 0.8226023 -0.3546777 0.3923922 0.1493266 -0.9075958 2697257 female
-3.163745 0.2463916 -0.2801007 -0.5797747 0.2644482 0.7706676 15200511 female
-3.208214 0.05795715 -0.2064829 -0.04945233 -0.1278232 -0.9905633 12106691 female
-3.18986 0.07554213 -0.4819052 -0.579969 -0.1759622 -0.7954075 2699321 female
-3.002606 0.677553 -0.3616343 0.3620225 0.4966281 -0.7888601 14204849 female
-2.931415 0.6883363 -0.2907704 0.6560068 -0.5625587 -0.5031728 15718342 female
-3.119246 0.2831735 -0.4465398 -0.4998316 0.3943092 -0.7711606 7101550 female
-3.100406 -0.2142555 -0.3584693 0.948047 -0.3093229 0.07433812 1580065 female
-3.19171 -0.0415363 -0.2725108 -0.5594879 -0.1321338 0.8182384 2171945 female
-3.187401 0.3962287 -0.2803459 0.7991686 -0.3006953 -0.5204918 1051656 female
-3.081488 0.1273124 -0.5536005 -0.4331952 0.1288035 -0.8920491 15199231 female
-2.923764 0.2296276 -0.3580525 0.9556369 0.04851177 0.290525 15726591 female
-3.037747 0.6668606 -0.3731906 -0.287991 0.7856718 -0.5475227 16704212 female
-3.013445 -0.121819 -0.3730135 -0.7645964 -0.1945597 0.6144418 5724001 female
-3.287102 -0.7278646 -0.3677067 -0.4381779 -0.8856901 0.1534705 1051656 female
-3.111889 -0.2545803 -0.3742476 0.9350465 -0.3538198 -0.02235254 2039585 female
-3.154016 -0.0274423 -0.2533445 -0.217778 -0.1161098 0.9690673 3816509 female
-3.200442 -0.2566025 -0.3285486 -0.5400712 -0.2375784 0.8073906 2696233 female
-2.945071 0.573574 -0.5151501 -0.2131228 0.5267731 -0.8228541 14213352 female
-2.941487 -0.04895821 -0.5224001 0.25785 -0.3157724 -0.9131272 2433573 female
-3.095732 0.2792561 -0.2557003 -0.1231701 -0.01525595 0.9922683 6643562 female
-3.102643 0.6080702 -0.2400043 0.3522575 0.6179659 0.7028746 14211286 female
-3.181195 0.5722778 -0.3308017 -0.871034 0.3579699 -0.3363889 15067123 female
-3.182179 0.3982127 -0.2723427 0.8626656 -0.3218593 -0.390147 657930 female
-3 -0.2815072 -0.4067597 -0.9967629 -0.08029855 -0.003991442 2105120 female
-3.277161 -0.6578028 -0.4533571 -0.4793437 0.488034 0.7294192 2105377 female
-2.937849 0.443007 -0.4801809 -0.2364065 -0.4864809 0.8410995 1841956 female
-3.21573 0.1825569 -0.1881631 0.3793352 0.2947716 0.8770488 12501710 female
-2.885556 -0.2253789 -0.3654201 0.8513301 -0.1322007 0.5077007 2170145 female
-2.921422 0.2026315 -0.5039429 0.7768105 0.2767154 -0.5656801 3946813 female
-3.292084 -0.6965576 -0.5382471 -0.2525119 -0.9358254 -0.2459035 526344 female
-3.074956 0.3231738 -0.4807146 -0.6418952 0.0122105 -0.7666952 14607351 female
-3.143107 0.3830457 -0.2622799 -0.6575454 -0.41796 0.6268519 13883367 female
-3.074349 0.8358234 -0.2736065 -0.9436463 0.2518237 0.214748 3025958 female
-2.959607 0.6706052 -0.2263995 -0.08272252 -0.5965202 0.7983236 15323329 female
-3.228262 -0.01432394 -0.3993273 -0.8459272 -0.1865437 -0.4996086 2434085 female
-3.036018 0.04301381 -0.3295557 0.3950239 -0.7856296 0.4761746 2237475 female
-3.087315 -0.1650284 -0.3438079 0.9503061 -0.2789703 0.1381803 1645601 female
-3.068192 0.08855055 -0.2730636 0.3251336 -0.2087537 0.9223394 14738424 female
-3.019865 0.623432 -0.4538917 -0.3593702 0.6772175 -0.642051 15593725 female
-2.995918 -0.3281764 -0.4085258 -0.8312801 -0.06377995 0.5521826 1775899 female
-2.939753 0.4479929 -0.2802351 0.5727515 0.1762034 0.8005673 12896978 female
-3.171372 -0.09334921 -0.2696883 -0.3718835 -0.2140085 0.9032735 2170913 female
-3.255956 -0.5321486 -0.4294256 -0.06256094 -0.3560078 0.9323865 2565677 female
-2.914025 0.2436881 -0.4173696 0.9890975 0.1446186 0.0277779 14082031 female
-3.112097 -0.07050882 -0.2630319 0.3672627 -0.239593 0.8987287 2631464 female
-2.894633 0.141214 -0.458869 0.9865984 0.150642 -0.06269397 6842481 female
-3.214959 -0.3397724 -0.4730877 0.01941199 0.4323902 -0.9014776 2172201 female
-2.999777 0.6888613 -0.2259486 -0.5110266 -0.5990632 0.6164211 15193030 female
-3.038749 0.4547988 -0.5019621 -0.3429719 -0.05245237 -0.9378801 8422028 female
-2.913309 0.6120612 -0.4608722 0.4262821 0.8699952 -0.2477741 10790824 female
-3.039957 -0.04312275 -0.3803869 -0.8214213 -0.1490349 0.5505049 723723 female
-3.266751 -0.6565514 -0.448508 -0.3150133 0.5342474 0.7844401 2237224 female
-2.960918 0.8720752 -0.2184367 0.1978787 0.7625812 0.6158846 2696225 female
-2.977894 0.05953909 -0.347965 0.06331846 0.04812158 0.9968325 3092276 female
-3.197467 -0.4755636 -0.4507568 0.9009177 -0.3907003 0.1889459 1382427 female
-2.937007 0.3312507 -0.4636346 0.8179648 0.03642048 -0.5741142 11580347 female
-2.938033 0.3579097 -0.3196061 0.8457897 -0.09198347 0.5255272 11778760 female
-3.046043 0.7130534 -0.3400976 -0.7199505 0.1623062 -0.6747799 2893604 female
-3.210562 0.05494499 -0.2062289 -0.1858238 -0.1388101 -0.9727287 13093588 female
-3.119682 0.6445713 -0.2895909 -0.4882749 0.8571718 0.1638422 15718086 female
-2.993008 -0.5296968 -0.4655352 -0.04454371 -0.2891923 0.9562341 1907490 female
-2.993285 0.6711299 -0.2477823 -0.411501 -0.7753994 0.4789809 13022629 female
-3.078922 0.2899892 -0.2536618 -0.09947327 -0.06153092 0.993136 14806527 female
-3.197574 0.01578864 -0.2717403 -0.5841042 -0.05407379 0.8098754 1843236 female
-3.272966 -0.4808344 -0.4997411 -0.519832 0.1627124 -0.8386295 2631472 female
-3.013209 0.7512838 -0.2091609 -0.6014276 -0.1745574 0.7796246 12431521 female
-3.204097 0.3929897 -0.215034 0.3201449 -0.2344536 0.9178991 6514544 female
-3.019578 0.3923452 -0.2095437 0.4391641 -0.5568083 0.7050527 14408945 female
-3.04975 0.7628509 -0.3470536 -0.5970755 -0.3469382 -0.7232805 3486769 female
-3.070552 0.8173983 -0.255336 -0.9186956 0.06761082 0.3891364 2696225 female
-3.043261 -0.6400706 -0.5194679 -0.8869736 0.0741399 0.4558302 1842462 female
-3.068898 0.8480934 -0.3156218 -0.8178703 0.4446305 -0.3652286 5459531 female
-3.009239 0.3737366 -0.5042285 0.03460325 -0.03797363 -0.9986795 9013391 female
-2.978327 0.7329106 -0.3467045 0.3271549 -0.1292261 -0.9360931 1117449 female
-3.190181 0.04804863 -0.1935045 0.6479412 -0.3275745 -0.6876534 1052176 female
-2.982872 -0.6329948 -0.4837693 0.7387582 0.3763036 0.559135 2959662 female
-3.134131 -0.2882358 -0.4263774 0.7772959 -0.2459655 -0.5790614 1842209 female
-2.940073 -0.4041768 -0.5173796 0.5535218 0.03321535 -0.832172 1579808 female
-3.241435 0.06310724 -0.4056377 -0.961382 -0.05884974 -0.268852 2500395 female
-2.975206 0.5566834 -0.5114902 -0.407981 0.1254086 -0.9043364 10263979 female
-3.067176 0.3807564 -0.4864444 -0.539544 0.001879956 -0.8419552 14606837 female
-2.897005 0.05789971 -0.3870424 0.8259416 0.2601454 0.5001448 2763562 female
-3.082877 0.5727007 -0.2276106 0.5136951 0.3571974 0.7800817 14014685 female
-3.107867 0.1436877 -0.2529992 -0.002937488 -0.191143 0.9815578 11250622 female
-2.984941 -0.2072825 -0.4566107 -0.6122964 -0.1460775 -0.7770163 2106409 female
-3.217918 0.06692792 -0.4518652 -0.775784 -0.1150104 -0.6204287 3158840 female
-2.884253 -0.01356976 -0.4817015 0.902321 -0.07308307 -0.4248244 1710875 female
-3.006765 -0.6759118 -0.4688362 -0.6912771 0.06865349 0.7193209 16508899 female
-2.933914 -0.444574 -0.5078073 0.8131459 -0.1534547 -0.5614673 1841950 female
-3.227251 -0.1950185 -0.3862895 -0.9810624 0.01904239 -0.1927539 2170145 female
-2.836123 0.154185 -0.5789359 0.6716095 0.1415903 -0.7272502 6183777 female
-3.067603 0.1973586 -0.2488058 0.00537522 -0.01929668 0.9997994 6580334 female
-2.895439 -0.7268627 -0.4577782 0.07866342 -0.9254008 -0.3707364 526344 female
-2.942768 0.8111352 -0.3387429 0.6972287 -0.002955178 -0.7168427 2500646 female
-2.935651 0.3719251 -0.3172828 0.6793139 -0.5077177 0.5298635 15200255 female
-2.926358 -0.01143659 -0.3414301 0.3998252 0.0915801 0.9120048 2303014 female
-2.996679 0.6674236 -0.3670255 0.555392 0.6164483 -0.5581498 11245705 female
-3.126312 0.08709607 -0.2526739 0.1101224 0.1214423 0.9864708 13751010 female
-2.983365 0.07271999 -0.3414997 0.5066726 -0.4556412 0.7318975 11712714 female
-2.897035 0.4854051 -0.4048468 0.9656557 -0.06065856 -0.2526452 9079952 female
-3.031673 -0.08096565 -0.3825592 -0.8176045 -0.2226079 0.5310071 16186110 female
