# .PCD v0.7 - Point Cloud Data file format
VERSION 0.7
FIELDS x y z normal_x normal_y normal_z rgb label
SIZE 4 4 4 4 4 4 4 4
TYPE F F F F F F U U
COUNT 1 1 1 1 1 1 1 1
WIDTH 171
HEIGHT 1
VIEWPOINT 0 0 0 1 0 0 0
POINTS 171
DATA ascii
-0.7118421 -0.1317106 -1.638101 -0.7935159 -0.3976412 -0.4606669 1711651 female
-0.7863734 0.008818706 -1.793677 0.3174232 -0.6718572 -0.6692163 2302499 female
-0.8197227 0.7331153 -1.584495 -0.8446285 -0.1405733 0.5165675 15848904 female
-0.7092049 -0.1680141 -1.612187 -0.8887825 -0.2939192 -0.3516777 1907485 female
-0.8327791 0.04161428 -1.575201 0.00210904 0.01264054 0.9999179 12632790 female
-0.6182535 0.5901419 -1.713709 0.6314992 0.7610609 -0.1483072 12501703 female
-0.5808197 0.3903848 -1.718491 -0.1184433 -0.4707043 0.8743047 15724027 female
-0.7766287 0.4023094 -1.566446 -0.1134445 -0.2548991 0.9602899 4539215 female
-0.7811339 0.4922803 -1.591867 -0.005137146 0.5757143 0.8176348 4933971 female
-0.9178418 0.5355623 -1.780518 -0.3971552 -0.001345009 -0.9177505 5659748 female
-0.5981182 0.5513449 -1.744462 0.5978329 0.46963 -0.6496488 15066605 female
-0.5737465 -0.1549699 -1.591487 0.9937541 -0.08934686 -0.06685758 1973537 female
-0.8365253 -0.381615 -1.738106 0.07095181 -0.6739699 0.7353436 2630440 female
-0.5787414 0.02818995 -1.586172 0.809437 0.2002815 0.5519956 2169889 female
-0.9133565 -0.1277487 -1.665328 -0.9355251 -0.2910294 0.2002364 2170915 female
-0.8757677 -0.2991585 -1.765407 -0.8274959 0.4245099 -0.3674804 2499366 female
-0.856733 -0.5042911 -1.851417 -0.1040803 -0.6796007 0.7261613 2631470 female
-0.6215914 -0.1336261 -1.50712 0.4132044 0.09737296 0.9054173 1973536 female
-0.8101152 0.05826911 -1.575351 -0.1587315 -0.3335706 0.9292658 7566973 female
-0.7161773 0.7363729 -1.574297 0.6834719 -0.1434548 0.7157422 16571342 female
-1.004184 0.2934783 -1.631234 -0.6279919 -0.7204771 0.2941752 9473945 female
-0.6218522 0.4634896 -1.702032 -0.6504017 -0.7464535 0.1406587 526600 female
-0.6710719 0.1022397 -1.573765 0.009372672 0.3545687 0.934983 12830675 female
-0.7703054 -0.2183805 -1.74472 0.815563 0.1823328 -0.5491918 2499366 female
-0.821068 -0.2870152 -1.649681 0.008337999 -0.4540329 0.8909459 2697515 female
-0.5957705 0.3381772 -1.793851 -0.9504831 -0.2632829 -0.1651181 5393748 female
-0.6024411 -0.2065728 -1.622491 0.5869714 -0.2936123 -0.7544908 2303273 female
-0.8751431 -0.5353886 -1.891725 -0.6830478 -0.5293565 0.5032171 2170913 female
-0.8513988 0.6309557 -1.691358 -0.4474008 0.7363214 0.5076055 15979457 female
-0.6082905 -0.4095775 -1.60243 0.01060936 -0.1620476 -0.9867259 2500137 female
-0.5842315 -0.7038611 -1.354151 0.01137128 -0.982384 0.1865272 921102 female
-0.8347326 0.1463131 -1.553446 -0.449961 -0.2142436 0.8669687 13685481 female
-0.6137596 -0.2040609 -1.630038 0.407705 -0.3459443 -0.8450438 2500910 female
-0.620582 0.2203012 -1.733018 0.7044985 0.4694085 -0.5322946 8618902 female
-0.7945681 0.6529828 -1.632669 -0.7155391 -0.2969149 0.6323333 16178637 female
-0.8041595 0.5909502 -1.777811 0.1624678 0.40976 -0.8976085 15462395 female
-0.8904406 -0.3511918 -1.834421 -0.7826293 0.4616255 -0.4176043 2171169 female
-0.604159 0.3889256 -1.736377 -0.7431141 -0.471513 0.4748232 9738658 female
-0.9244909 -0.08747346 -1.668968 -0.9571522 -0.2602674 0.1269667 2171430 female
-0.8809952 0.3769713 -1.598026 -0.3903376 -0.703585 0.5938054 13554663 female
-0.9146166 0.2135212 -1.637596 -0.8768723 0.2438592 0.4142797 15200255 female
-0.8778511 0.2560777 -1.600576 -0.7270233 0.1485709 0.670346 9671840 female
-0.684698 0.2531056 -1.576452 0.5656652 0.246213 0.787021 14608375 female
-0.6309198 -0.5495315 -1.52123 -0.9707145 -0.238699 0.02713069 1579291 female
-0.6485054 0.06769045 -1.554331 0.1666999 0.4258814 0.8892897 2499885 female
-0.7225615 0.6284389 -1.651274 0.7414909 -0.1074258 0.6623074 16575710 female
-0.5684155 0.09034769 -1.69498 0.9616038 0.1798054 -0.207336 9738396 female
-0.5510309 0.3031011 -1.770924 -0.1856175 -0.276216 0.943001 10988735 female
-0.5692249 -0.01026434 -1.69106 0.8735426 -0.2434775 -0.4214759 2039331 female
-0.6044918 -0.4354429 -1.596869 0.04640215 -0.2533712 -0.9662556 2500137 female
-0.8986511 0.6278383 -1.710244 -0.3782839 0.9246154 0.04458249 9802635 female
-0.6515175 -0.1682134 -1.497849 -0.08877023 0.06614457 0.9938534 2040102 female
-0.8221846 0.3237495 -1.437928 -0.05773603 0.9946675 0.08545777 16767958 female
-0.561193 -0.7118086 -1.500264 0.9369012 -0.2083642 -0.2807145 13348773 female
-0.7287907 0.1419093 -1.80657 0.05821316 0.2178047 -0.9742547 15132414 female
-0.645279 0.5991486 -1.739677 0.499504 0.6862588 -0.5287197 13948130 female
-0.584954 0.3048706 -1.812618 -0.9339621 -0.167267 -0.3158107 10658474 female
-0.9795548 0.3974268 -1.68671 0.5810096 -0.2684492 0.7683507 7368057 female
-0.8649779 0.008018236 -1.573719 -0.2357519 0.01825067 0.9716419 3092791 female
-0.8151323 0.6270764 -1.757587 -0.04584409 0.647351 -0.760812 14267815 female
-0.5969244 0.3752192 -1.738032 -0.6558305 -0.4879255 0.5760338 14606319 female
-0.5368982 0.1906787 -1.82674 -0.4365747 -0.2417453 -0.8665805 13160155 female
-0.5759808 -0.2020772 -1.576408 0.990405 -0.06163739 -0.1236889 1973793 female
-0.7796321 -0.3084063 -1.769824 0.8232717 0.1465169 -0.5484127 2171170 female
-0.8429109 -0.7377177 -1.850378 -0.9501161 -0.2844293 -0.127982 3945009 female
-0.5244665 0.3273127 -1.825142 0.6657301 0.200728 -0.7186875 10001828 female
-0.529152 0.3415888 -1.823132 0.6266081 0.2676133 -0.7319463 12436430 female
-0.6983022 0.1957306 -1.785502 0.1416323 0.3670076 -0.9193725 10265261 female
-0.6896082 0.7794205 -1.706144 0.8607773 -0.1395405 -0.4894802 3223593 female
-0.9202089 0.2248755 -1.66462 -0.9465085 0.2693718 0.1776526 15200511 female
-0.8175182 0.2846372 -1.405106 -0.6649815 -0.4495984 0.5963731 2960685 female
-0.8390244 0.01188507 -1.803215 -0.1003852 -0.4289615 -0.8977275 2565672 female
-0.7566354 0.6792451 -1.723508 0.1479042 0.277287 -0.9493346 10916489 female
-0.7087505 0.7053702 -1.608199 0.9034017 -0.3530172 0.2434011 16311504 female
-0.8326248 0.3373223 -1.78772 -0.1433436 -0.2093444 -0.9672785 15199231 female
-0.7914547 -0.3898096 -1.841072 0.9744667 0.0975267 -0.202245 2105384 female
-0.9411672 0.4517682 -1.743419 0.8536758 -0.468912 -0.2266255 658186 female
-0.9251146 0.5127641 -1.692689 0.09525855 -0.9556056 0.2788255 592137 female
-0.6940389 0.1002506 -1.810785 0.126316 0.03174659 -0.9914819 15661822 female
-0.6976308 0.2192238 -1.558346 0.4686055 0.1862291 0.8635553 14805497 female
-0.7287667 0.6540569 -1.721294 0.4748204 0.6110216 -0.633402 15585732 female
-0.7246307 -0.1265641 -1.591772 -0.9640855 -0.2651294 0.01566814 3223607 female
-0.8849143 -0.6905122 -1.954583 -0.8023548 -0.4557681 -0.3853599 1380110 female
-0.7912022 -0.370214 -1.827232 0.9582244 0.1706267 -0.2295487 2170913 female
-0.7883896 0.003975451 -1.592611 0.5933905 0.1136359 0.796853 2368807 female
-0.8700489 -0.3028259 -1.784507 -0.6198243 0.6017444 -0.5037076 2696233 female
-0.5830972 0.503014 -1.766656 0.2416777 0.3929313 -0.8872412 11974848 female
-0.618195 -0.1495496 -1.657739 0.3741361 -0.3355964 -0.8645213 2303016 female
-0.8882102 0.2358906 -1.606156 -0.7465526 0.199574 0.6346884 14608375 female
-0.8330414 0.6399931 -1.741039 -0.2168354 0.8069522 -0.5493729 15782337 female
-0.9299978 0.5184271 -1.774505 -0.3676909 -0.233094 -0.9002614 13819632 female
-0.9601718 0.5699726 -1.661116 -0.317908 0.277974 0.9064574 13883620 female
-0.6561193 -0.2584363 -1.615711 -0.09118277 -0.3276668 -0.940383 2237736 female
-0.8612064 -0.6947341 -1.905495 -0.3654583 0.6773434 0.6384717 15715013 female
-0.6120545 -0.3212177 -1.498262 0.1247319 0.0468036 0.9910859 1580065 female
-0.7986817 0.3223646 -1.418367 0.02061178 0.9938211 0.1090633 3026226 female
-0.6497211 -0.1964544 -1.493559 -0.1077141 0.1091839 0.9881683 2565671 female
-0.6411313 0.2714203 -1.731997 0.8009481 0.1016713 -0.5900382 4867663 female
-0.8329684 -0.6235665 -2.024925 0.8739979 0.2539108 -0.4143152 13349289 female
-0.7532724 0.2253111 -1.779915 0.01557487 0.4018399 -0.9155775 10264494 female
-0.927449 0.4012538 -1.64318 -0.9181896 -0.3628222 0.1590216 10726065 female
-0.8084955 0.835793 -1.710769 -0.7424831 0.3500303 -0.5711372 3553333 female
-0.8153916 0.7659435 -1.582928 -0.7053051 0.2514659 0.6628043 14206903 female
-0.9336618 0.02425723 -1.733715 -0.9071465 -0.05980394 -0.4165439 2368295 female
-0.8459498 -0.7141518 -1.878034 -0.1843229 0.7729492 0.6071035 16572370 female
-0.8286949 -0.1736666 -1.611987 0.1017624 -0.3477502 0.9320484 2369065 female
-0.7847936 0.0207117 -1.595533 0.5689903 -0.1248106 0.8128176 3815743 female
-0.6913111 0.5820402 -1.774827 0.1350194 0.4976208 -0.8568217 15001852 female
-0.6655603 -0.3759952 -1.56013 -0.9921344 -0.08853205 -0.08849537 1644569 female
-0.7747583 0.4427582 -1.564636 -0.1556238 0.2113024 0.9649521 9869217 female
-0.9171126 -0.1170978 -1.685661 -0.9625019 -0.2712732 0.0009569715 1841948 female
-0.8500178 -0.511107 -1.860381 0.08356834 -0.6725016 0.7353625 2170146 female
-0.6714295 0.2315003 -1.578106 0.5835931 0.2253458 0.7801529 10658744 female
-0.7563389 -0.09884675 -1.652708 0.9414777 -0.1535576 0.3000663 1776416 female
-0.5772492 0.1336273 -1.662165 0.962678 0.2305929 0.1416965 460807 female
-0.8876016 -0.3650232 -1.85299 -0.7053363 0.4546304 -0.5438859 2105121 female
-0.8089058 0.6939312 -1.586561 -0.7349508 -0.3602232 0.5745317 16244942 female
-0.6538484 0.3969998 -1.768141 0.6662189 -0.3328812 -0.6673398 3946302 female
-0.6411676 0.5797878 -1.660593 0.1707828 0.6319925 0.7559224 14474983 female
-0.7298595 -0.1062049 -1.614972 -0.9407851 -0.3165859 -0.1212305 15397626 female
-0.8629468 -0.6738219 -1.924072 -0.5500989 0.5129502 0.6589941 15188926 female
-0.7725031 0.8761731 -1.599922 -0.2404701 0.868556 0.4333413 2696225 female
-0.6558156 0.07240416 -1.556022 0.08495146 0.4372526 0.8953175 3026230 female
-0.803714 -0.4430271 -1.834758 0.8182157 -0.4445421 0.3645618 1973534 female
-0.6338197 0.32828 -1.681394 0.996795 -0.03698656 0.07093424 11908540 female
-0.6960945 0.3282133 -1.588229 0.6064672 0.1198279 0.7860272 7632513 female
-0.7414386 0.6984355 -1.715999 0.4630691 -0.0239186 -0.8859993 3025446 female
-0.8108424 0.2834656 -1.39823 -0.6979272 -0.422069 0.5785805 3157808 female
-0.8987914 0.5376877 -1.638365 -0.3330839 0.2428075 0.9110981 8421001 female
-0.6115391 -0.5685233 -1.478121 -0.7703063 0.1293717 0.6244126 2171174 female
-0.7977292 0.665316 -1.629932 -0.8040844 -0.4230799 0.4176742 14600893 female
-0.9009481 0.2242616 -1.618525 -0.8081219 0.2048081 0.5522614 3816770 female
-0.907444 -0.005202565 -1.602383 -0.715145 -0.09347019 0.6926984 3551544 female
-0.8439909 -0.4351822 -1.91578 0.09496404 0.439914 -0.8930048 2369324 female
-0.8224722 0.7046143 -1.630372 -0.9128879 -0.3795345 -0.1502973 15194054 female
-1.018723 0.4287468 -1.68355 -0.5271168 0.2127535 0.8227295 9672868 female
-0.9296033 0.4457057 -1.639537 -0.9852313 0.04612648 0.1648984 8750989 female
-0.7298661 0.7420077 -1.728208 0.369076 -0.4616649 -0.8066278 1710362 female
-0.8235858 0.8231146 -1.691612 -0.889649 0.2221257 -0.3989798 2696998 female
-0.6080313 -0.6675626 -1.497332 -0.9276502 -0.05601452 -0.3692254 1842462 female
-0.7675053 0.8334574 -1.740499 -0.1520306 0.3641107 -0.9188635 5459531 female
-0.617259 0.1762323 -1.605677 0.6816295 0.2426644 0.6902864 3684928 female
-0.7112026 0.6890122 -1.673148 0.968316 -0.1390793 -0.2074154 7628130 female
-0.8318779 0.2601535 -1.417564 0.369444 -0.8019142 -0.4695155 1578000 female
-0.5946561 -0.6335476 -1.437204 0.08447786 0.7199666 0.6888481 2959662 female
-0.7616303 -0.2446173 -1.695465 0.9634883 -0.1364341 0.2303824 2236194 female
-0.5680543 -0.3829881 -1.588948 0.707732 0.01373542 -0.7063475 2697001 female
-0.9031671 0.08205117 -1.776085 -0.7161264 0.02217925 -0.6976181 13751777 female
-0.6300693 0.5688421 -1.758137 0.5159607 0.4803203 -0.7092792 15658750 female
-0.7480661 0.2672395 -1.77018 -0.1543853 0.02862109 -0.9875961 11184568 female
-0.6890723 0.08046786 -1.566243 -0.2007141 0.3575346 0.9120761 5461855 female
-0.7011389 0.6228517 -1.673003 0.6631058 0.4693857 0.5830675 15979973 female
-0.934879 0.1586379 -1.656851 -0.944059 0.1348205 0.3009585 5987429 female
-0.6752027 -0.3229356 -1.574358 -0.8772166 -0.3008853 -0.3741111 1644315 female
-0.9108306 0.03964842 -1.769997 -0.7424018 -0.04872186 -0.6681809 2697265 female
-0.5712303 -0.0711377 -1.580942 0.9500906 -0.0215773 0.3112271 1841948 female
-0.621378 -0.6742327 -1.448177 -0.992085 -0.005763636 -0.1254357 9077376 female
-0.549937 -0.4557592 -1.522324 0.973132 0.005190812 0.2301898 1841950 female
-0.8098189 -0.2554646 -1.769781 0.04755056 0.2930976 -0.9548994 2500142 female
-0.4859995 0.1078919 -1.765029 0.7375574 0.1531889 0.6576794 11383995 female
-0.8233081 0.2153347 -1.549644 -0.3735688 0.1323437 0.9181129 7829122 female
-0.5637712 -0.6898186 -1.320743 0.658468 -0.02311159 0.7522537 1578260 female
-0.6860171 0.8110863 -1.611822 0.9170507 0.009374786 0.3986605 2698281 female
-0.7217745 0.3862374 -1.568138 0.01451301 -0.6294522 0.7769037 12633303 female
-0.6568156 -0.03441288 -1.515727 0.001947228 0.1990985 0.9799775 2499881 female
-0.7606533 0.659962 -1.608946 0.2899969 -0.8951646 0.3384999 14864577 female
-0.9261878 0.02651102 -1.621349 -0.8550733 -0.04108452 0.5168769 1052944 female
-0.7565186 0.02429977 -1.616557 0.1189569 -0.8478096 0.5167863 2171174 female
-0.6433468 0.4805854 -1.625331 0.6242658 -0.09784473 0.7750604 13488342 female
-0.7266873 -0.08871408 -1.655793 -0.8291679 -0.3730418 -0.4163176 2039330 female
-0.760456 0.4985217 -1.797617 -0.02222742 0.3308575 -0.943419 4473164 female
