# .PCD v0.7 - Point Cloud Data file format
VERSION 0.7
FIELDS x y z normal_x normal_y normal_z rgb label
SIZE 4 4 4 4 4 4 4 4
TYPE F F F F F F U U
COUNT 1 1 1 1 1 1 1 1
WIDTH 172
HEIGHT 1
VIEWPOINT 0 0 0 1 0 0 0
POINTS 172
DATA ascii
0.3158613 -0.03899851 1.260106 0.9974836 -0.03597314 -0.06109383 2367780 female
0.388026 0.02769679 1.290748 0.3792244 -0.01721981 0.9251446 2698289 female
0.2149443 0.7065837 1.130071 -0.682025 -0.1406626 -0.717674 15193798 female
0.3112444 -0.0001975559 1.256916 0.9331062 0.1249753 -0.3371852 1644313 female
0.3608226 -0.0209608 1.116609 0.1749644 -0.393364 -0.9025809 3355187 female
0.09681711 0.4653388 1.254117 -0.9414677 -0.2961307 -0.1610752 789260 female
0.06731264 0.3591807 1.374614 0.7412482 -0.5047119 -0.4425121 12960982 female
0.1230557 0.4183302 1.158091 -0.6756394 -0.3285795 -0.6599597 12369868 female
0.2726978 0.4944846 1.137416 -0.1607858 0.5225325 -0.8373218 15002357 female
0.4131221 0.5925884 1.313464 0.2940767 0.5931527 0.749459 13291731 female
0.09657775 0.4660304 1.257738 -0.9329086 -0.3234938 -0.1582193 723211 female
0.1328254 -0.05573682 1.278294 -0.9430263 -0.2975102 0.1489597 2236194 female
0.3555351 -0.2678131 1.353727 -0.8889704 -0.4526122 0.06981264 1710874 female
0.131321 0.06566359 1.262794 -0.8858641 0.2537732 -0.3883863 14607351 female
0.3714029 -0.08900587 1.15989 0.239456 -0.5251587 -0.8166206 2235938 female
0.3596992 -0.1824195 1.233918 -0.09342309 -0.6837674 -0.7236948 2237218 female
0.4210758 -0.4132955 1.397432 -0.4208403 -0.5050327 -0.7535485 2171174 female
0.1771768 -0.1704793 1.150835 -0.8706799 -0.1393488 -0.4716975 2039072 female
0.1935153 0.0805581 1.187427 -0.688203 -0.5059096 -0.520031 12040902 female
0.2025874 0.7547216 1.127408 -0.4835314 0.1089777 -0.8685167 16242120 female
0.5609725 0.3236613 1.336579 0.5037004 0.06999001 0.8610385 13028051 female
-0.01729749 0.02400933 1.451447 -0.6076811 -0.4504252 0.6540954 12033182 female
0.1420812 0.03098962 1.218845 -0.7716345 0.2593879 -0.5807737 2499625 female
0.3986677 -0.1538362 1.382263 0.2571979 0.4582512 0.8507968 2500137 female
0.4595422 -0.2893948 1.352602 0.7019554 -0.1845015 -0.6879083 2236195 female
0.0416742 0.2890299 1.4167 0.7509099 -0.4688392 -0.4651066 5461854 female
0.1550808 -0.07961056 1.312868 -0.7286681 -0.4962939 0.4719484 1974051 female
0.4664283 -0.5531664 1.487505 0.8267811 -0.2316748 -0.5126011 1710362 female
0.3198553 0.6179201 1.2169 0.3412529 0.6309624 -0.6967301 13086630 female
0.3105386 -0.4949888 1.157838 0.6670809 -0.2868533 0.6875451 2369585 female
0.242629 -0.6988689 0.9768166 0.2025359 -0.9464201 -0.2515316 526600 female
0.1723015 0.1629836 1.151341 -0.7000421 -0.1986721 -0.6859086 7436161 female
0.1599951 -0.1009917 1.292141 -0.7338105 -0.5215067 0.4353767 1711395 female
0.2043297 0.2804579 1.373905 -0.1659823 0.04244728 0.9852148 13685728 female
0.2552924 0.6439115 1.186379 0.3383285 -0.3715414 -0.8645756 15652808 female
0.2751794 0.5979785 1.332258 -0.1264489 0.3403922 0.9317424 15462907 female
0.4441339 -0.2607398 1.425695 0.3458449 0.6505491 0.6761488 2566703 female
0.08906031 0.4153749 1.371567 0.9479608 -0.2719654 0.1655451 11974854 female
0.3944232 -0.07828365 1.162591 0.4450451 -0.4757743 -0.7586656 2697257 female
0.3156188 0.2395848 1.111182 0.1108494 0.2522316 -0.9612969 13291747 female
0.2345294 0.3569905 1.131351 -0.2832189 0.2142361 -0.9348208 10987700 female
0.2363927 0.3950292 1.135799 -0.2828054 -0.2923338 -0.9135437 10198954 female
0.1256559 0.2150479 1.260166 -0.9953892 0.04159568 -0.08643077 4475733 female
0.3099787 -0.3801719 1.10711 0.5683104 0.2172076 -0.7936271 1775131 female
0.1384369 0.01177689 1.217445 -0.838289 0.1714287 -0.5175748 2499881 female
0.1918905 0.6479838 1.222342 -0.8971509 0.04434991 -0.4394922 16047053 female
0.1259244 0.009151338 1.330181 -0.94643 -0.1700116 0.2745294 2566443 female
-0.03612516 0.1995225 1.442466 -0.7018894 -0.1384665 -0.6986976 10989499 female
0.2426145 -0.1281838 1.303367 0.2018517 -0.5028416 0.8404798 2303017 female
0.3057471 -0.4623076 1.176198 0.5435551 -0.2991908 0.7842402 2499627 female
0.3748611 0.6136945 1.238556 0.1540903 0.792129 -0.5905825 14541542 female
0.1939649 -0.2459023 1.17197 -0.9375732 -0.3224025 0.1304345 2170913 female
0.6418131 0.2580055 1.210711 -0.3922496 0.3157369 -0.8639736 6643045 female
0.2800125 -0.6894128 1.090735 -0.6819059 -0.1301776 0.7197627 13414827 female
0.3336766 0.1534802 1.383762 0.616452 0.3014047 0.7274216 6909570 female
0.1270271 0.6238593 1.296896 -0.4478459 0.7893114 0.4200257 13948130 female
0.02394343 0.2501187 1.471025 0.7765737 -0.1053337 0.6211587 11908030 female
0.4993616 0.4300855 1.278969 0.693724 0.2370736 -0.6801052 15198199 female
0.2568438 0.01969816 1.166151 -0.9471457 -0.154337 -0.2812385 2698031 female
0.3045023 0.6549755 1.291793 0.3130798 0.7856249 0.5336428 16572882 female
0.07526281 0.3701853 1.400835 0.9637644 -0.1638985 0.2104646 9209998 female
-0.00990015 0.1428924 1.481475 0.96771 -0.2274559 0.1086332 789516 female
0.164537 -0.1598121 1.200668 -0.9330705 -0.3531378 0.06836101 1973793 female
0.4940804 -0.3481472 1.433701 0.9884586 0.1236301 0.08755073 1973537 female
0.2854283 0.7000722 1.146154 0.7615997 -0.4785112 -0.4370274 15587788 female
0.0270771 0.4679866 1.368576 -0.7096775 0.4807048 0.5150542 12435142 female
0.01117123 0.4305681 1.343445 -0.9543475 0.02992378 -0.297196 13028560 female
0.2843338 0.1196106 1.418949 0.2395069 0.08535766 0.9671352 6711154 female
0.2059346 0.8880507 1.211325 -0.5594016 0.8267145 0.0601093 2434853 female
0.2354229 0.2784848 1.12099 -0.1613204 0.08168769 -0.9835156 15134462 female
0.7414257 0.1614946 1.161252 -0.549394 -0.7313598 -0.4040781 4867910 female
0.4484614 0.1376409 1.199165 0.9702261 0.1994288 -0.1374392 10396074 female
0.2298064 0.7026614 1.275269 -0.3057461 0.161523 0.9383121 6116434 female
0.2999382 -0.009816244 1.225047 0.8523854 0.2185038 -0.4750739 723723 female
0.3688641 0.297049 1.274615 0.7709289 0.03139848 0.6361468 8421000 female
0.3105294 -0.1647718 1.304618 -0.9476557 -0.2594768 0.1860661 1908257 female
0.3908843 0.5122275 1.320469 -0.103138 -0.342493 0.9338421 11579059 female
0.4328648 0.4454751 1.266464 -0.4573104 -0.4107957 -0.7887421 985871 female
0.3008031 0.06654585 1.413914 0.3992369 -0.09812872 0.9115814 2698289 female
0.1255462 0.207466 1.259758 -0.9954177 0.03073108 -0.09054926 14148591 female
0.2246674 0.6757359 1.283311 -0.2741185 0.5255587 0.8053863 16111304 female
0.295213 -0.1451503 1.155006 0.7725266 0.2695077 -0.5749506 1052946 female
0.4428225 -0.6092498 1.570052 -0.8509495 0.1400375 0.5062356 14072242 female
0.3235561 -0.1958546 1.318971 -0.9457772 -0.2976025 0.1301467 1973793 female
0.2664536 0.005035053 1.15177 -0.8511545 -0.2087959 -0.4816017 2697006 female
0.4490373 -0.2408319 1.320415 0.7875104 -0.2177327 -0.5765586 2171945 female
0.09769271 0.4990338 1.237661 -0.3767792 -0.8196691 -0.4314858 1052431 female
0.1688945 -0.04585148 1.358819 -0.5439504 -0.4768283 0.6904728 2171688 female
0.2395765 0.3783288 1.13704 -0.2491265 0.07384081 -0.9656519 15001851 female
0.3135013 0.6450483 1.241166 0.580654 0.6512903 -0.4885304 16439750 female
0.3846898 0.6089973 1.312676 0.3467458 0.6708075 0.6555796 14804718 female
0.4112281 0.5205899 1.225672 0.4305459 -0.6722091 -0.6022998 789516 female
0.3332429 -0.4345958 1.128903 0.9872827 -0.02595397 -0.1568414 1908257 female
0.4218239 -0.7448778 1.413902 0.9099863 0.2598135 -0.3231437 16242638 female
0.0892074 0.4130838 1.356253 0.920929 -0.3809594 -0.08221683 789261 female
0.6333094 0.2528164 1.214314 -0.5492613 0.02199984 -0.8353611 10264492 female
0.2230419 -0.2952943 1.194911 -0.6528468 -0.1888158 0.7335801 2236968 female
0.1985449 0.3027498 1.369647 -0.2493187 0.007945198 0.9683889 15199231 female
0.4205543 -0.6610219 1.484554 -0.8523788 0.3244035 -0.4101374 14993595 female
0.3159998 0.2267016 1.355724 0.5562835 0.4516899 0.6975133 15199231 female
0.2821419 0.3743857 1.131645 0.04353268 -0.09646846 -0.9943836 6578025 female
0.3158861 0.8488462 1.24281 0.8828175 0.3846174 0.2696344 2697766 female
0.2351113 0.7401931 1.102827 -0.3465284 -0.8956617 -0.2787617 15585735 female
0.3991753 0.1101475 1.106406 0.5685574 0.05361887 -0.8208944 920590 female
0.4332795 -0.6851871 1.515514 -0.3559954 -0.5658492 0.7436947 3025194 female
0.3204093 -0.1749419 1.25334 -0.7024367 -0.5915255 -0.3958286 2171945 female
0.2993948 0.1786245 1.096779 -0.08379757 0.01471329 -0.9963742 15331577 female
0.1391909 0.5099533 1.364496 -0.444093 0.02859539 0.8955243 14805239 female
0.2955263 -0.3071791 1.111743 0.5404789 0.1028282 -0.8350503 1579032 female
0.130512 0.4052005 1.160534 -0.5300208 -0.5747166 -0.6235213 5921119 female
0.3805617 -0.09355915 1.167097 0.3226059 -0.5246826 -0.787803 2565671 female
0.4070351 -0.4276488 1.422655 -0.7730918 -0.4052066 -0.4879925 2105377 female
0.1252463 0.1803235 1.257852 -0.9922248 -0.02091635 -0.1226885 12171211 female
0.2875028 -0.05759411 1.288535 -0.8184419 -0.01808684 0.5743046 1776161 female
0.1239598 0.1092964 1.345486 -0.9724023 0.01340154 0.232925 6842481 female
0.3902625 -0.2492291 1.421299 -0.2605461 0.2958886 0.9190026 2171425 female
0.2680533 0.7553248 1.119096 0.1958998 0.1537602 -0.9684942 15981008 female
0.2447117 0.4852097 1.370409 0.1785567 0.09429962 0.9794003 14605278 female
0.1327201 0.4876554 1.359735 -0.5047424 -0.09718654 0.8577819 15726591 female
0.3105978 -0.1249984 1.224375 0.9955362 -0.04761622 0.08148883 2171173 female
0.4732743 -0.5709246 1.513735 0.9708779 0.1987316 -0.1337973 1973534 female
0.2629854 0.8858596 1.155154 0.2574631 0.8462726 -0.4664067 2696225 female
0.1421266 0.005400139 1.209204 -0.8059003 0.1739891 -0.5659085 2434089 female
0.4253634 -0.4910131 1.44406 -0.5327922 -0.4536296 -0.7143897 2433830 female
0.1291078 0.2928497 1.252502 -0.9818993 0.05112161 -0.1823741 15199223 female
0.2805827 0.1875399 1.10038 -0.1186502 0.0285451 -0.9925258 6185577 female
0.2253243 0.7194591 1.27255 -0.4496059 -0.1088875 0.8865653 2433825 female
0.7460568 0.1576189 1.161369 -0.6277499 -0.7344123 -0.2580091 4209980 female
0.3568269 0.5539305 1.180989 0.2813191 0.4758373 -0.8333297 12961487 female
0.2765081 -0.4180487 1.091238 -0.02132999 0.1284045 -0.9914925 2170657 female
0.2629306 0.6550161 1.185424 0.5385782 -0.3771302 -0.7534629 16048083 female
0.2328852 0.3645518 1.133845 -0.3053806 0.2162015 -0.9273616 16251903 female
0.3588026 -0.03587125 1.123709 0.156614 -0.4279592 -0.8901253 9144715 female
0.4757542 -0.3999299 1.487149 0.6712058 0.2016944 0.7133037 2171945 female
0.2335977 0.6829631 1.122143 -0.2290253 -0.5160398 -0.8253789 16575716 female
0.5063402 0.4144977 1.282323 0.6861128 0.2402656 -0.6866744 14080486 female
0.388623 0.4612963 1.165488 0.9104944 0.09077663 -0.4034345 14146016 female
0.2345552 0.7766111 1.299143 -0.1838988 -0.2486876 0.9509656 4603448 female
0.3132516 0.7864957 1.256175 0.8823396 -0.2248021 0.4134499 2367775 female
0.3146377 -0.658621 1.063143 0.9133617 0.2271356 -0.3379051 3485484 female
0.2922162 0.8839784 1.196168 0.6139026 0.7838804 -0.09303322 2697767 female
0.1212302 0.1489825 1.320402 -0.9971047 0.01720131 0.07407005 11581890 female
0.1933295 0.682003 1.237842 -0.9813696 0.05264046 0.1847772 11443859 female
0.7138721 0.1757741 1.180188 -0.6403925 -0.4967237 -0.5858012 2959656 female
0.2450865 -0.6487167 1.012778 -0.5134489 0.8579947 -0.01467487 15193042 female
0.3362953 -0.2079804 1.35844 -0.9278561 -0.1720135 0.3308995 2105377 female
0.2769807 -0.1945533 1.245457 0.5302415 -0.4056208 0.7445238 2171945 female
0.4260135 0.1799342 1.155258 0.8735802 0.2006311 -0.4434013 14277865 female
0.09978217 0.4289428 1.2938 -0.9543045 -0.2297407 0.1911076 526600 female
0.2986077 0.250333 1.3531 0.562724 0.3930276 0.7272352 15200255 female
0.2175397 0.04780772 1.195627 0.05038306 0.4794277 -0.8761339 2236706 female
0.1936678 0.6165491 1.213485 -0.5300452 0.2155443 -0.8201175 16112332 female
0.4115851 0.2258583 1.159923 0.7859972 0.450718 -0.4231569 7435129 female
0.3227463 -0.3770474 1.173784 0.8689253 0.05057519 0.4923524 2172201 female
0.4202403 0.149509 1.135409 0.7998181 0.1399014 -0.5837111 9342874 female
0.1447169 -0.1016783 1.235382 -0.9340287 -0.3500371 0.07116386 1908253 female
0.3074355 -0.6616624 1.041649 0.8620571 0.2387763 -0.4470384 7695470 female
0.2647431 -0.1981935 1.24965 0.355007 -0.4648355 0.8111091 2565935 female
0.417895 -0.2067369 1.399215 0.468561 0.3646541 0.8046601 2565676 female
-0.006211977 0.2476487 1.484661 -0.06839278 0.2694349 0.960587 9669275 female
0.1773801 0.1753086 1.14415 -0.6669235 -0.1190701 -0.735551 14277354 female
0.2032182 -0.7082718 0.9873849 -0.1763309 -0.9731243 -0.1481103 10388093 female
0.1716086 0.7964967 1.206365 -0.9808978 -0.1271335 -0.1472295 2894635 female
0.1064766 0.4208587 1.182194 -0.8987693 -0.2699157 -0.3454841 11053232 female
0.1993899 -0.01774417 1.162291 -0.1947274 0.2902191 -0.9369387 2171174 female
0.2296063 0.6607463 1.296583 -0.1011409 0.6845095 0.7219538 16773601 female
0.392687 0.0206178 1.111022 0.4128744 -0.2533981 -0.874828 2303530 female
0.431778 -0.7413294 1.429734 0.4072509 -0.8366194 0.3663533 855044 female
0.1051003 0.6185809 1.26659 -0.5676243 0.8220596 -0.04495272 14541029 female
0.3123933 -0.08419582 1.227544 0.9916488 -0.007501777 -0.1287493 2040103 female
0.1852415 0.5902752 1.346054 0.04440163 0.5097943 0.8591498 15726334 female
0.09429044 0.5065191 1.352962 0.4716526 0.2533129 0.8446161 12368325 female
