# .PCD v0.7 - Point Cloud Data file format
VERSION 0.7
FIELDS x y z normal_x normal_y normal_z rgb label
SIZE 4 4 4 4 4 4 4 4
TYPE F F F F F F U U
COUNT 1 1 1 1 1 1 1 1
WIDTH 170
HEIGHT 1
VIEWPOINT 0 0 0 1 0 0 0
POINTS 170
DATA ascii
-2.942367 -0.05397323 -0.4619671 -0.2753178 -0.2264067 -0.9343127 1709850 female
-2.8356 0.03286288 -0.547282 0.6178143 -0.7703162 0.1578558 2302499 female
-3.114059 0.8131754 -0.4524325 -0.9791735 -0.02873976 0.2009808 15916753 female
-2.950518 -0.06599464 -0.4552488 -0.3242688 -0.2344794 -0.9164438 1579290 female
-2.996818 -0.005745639 -0.6550831 -0.4343667 -0.1528371 -0.8876747 2040359 female
-2.931781 0.6327846 -0.3865096 -0.5611967 0.6830009 0.4675126 10791083 female
-2.840942 0.3899747 -0.3066269 -0.8422233 -0.3126536 0.4392124 10857403 female
-3.043349 0.4797483 -0.404728 -0.8815172 0.3873631 0.2699577 15002615 female
-3.000388 0.586251 -0.4272552 -0.777594 0.321401 0.5404155 15922687 female
-2.891075 0.5671026 -0.6125473 0.7777779 0.2998055 -0.5524294 15726076 female
-2.914975 0.6360707 -0.3722949 -0.3912627 0.8036922 0.4483218 12765130 female
-2.900389 -0.09191238 -0.2967034 0.4281346 -0.178828 0.885845 2170913 female
-2.938195 -0.3518214 -0.5405954 -0.7272915 -0.3369696 0.597912 2171937 female
-2.894158 0.06864801 -0.2952412 0.01947246 0.152141 0.9881669 3026990 female
-3.003466 -0.1238673 -0.6225058 -0.5508805 -0.2519341 -0.7956507 1973536 female
-2.986864 -0.2338231 -0.6025915 -0.6806692 -0.2856492 -0.6746066 2038818 female
-2.903696 -0.4834135 -0.5725492 -0.9346513 -0.3545025 0.02747747 2499366 female
-2.995681 -0.154225 -0.4101925 -0.6224257 -0.07071236 -0.779478 2961461 female
-3.05744 0.1487609 -0.464435 -0.945744 -0.2884519 0.1495454 13753068 female
-3.05323 0.7571309 -0.3986526 -0.2349271 -0.08936808 0.9678959 16571342 female
-2.895601 0.3144814 -0.7599632 0.4428412 0.2156532 -0.8702789 9540510 female
-2.861554 0.4896353 -0.3673711 -0.5224292 -0.4943224 -0.6947756 526600 female
-2.951973 0.08879656 -0.3161476 -0.4935535 0.3590065 0.7921612 2763058 female
-2.876189 -0.2172536 -0.5391867 0.9625593 0.100729 0.2516612 2434089 female
-2.999074 -0.2477388 -0.5378468 -0.844775 -0.2867612 0.4517999 1974566 female
-2.800716 0.3377151 -0.3522175 -0.4200677 -0.2919045 -0.8592641 10592681 female
-2.903319 -0.2140631 -0.3549264 0.9675728 -0.2311347 -0.1018808 2631208 female
-2.842794 -0.5823345 -0.5913925 -0.1364773 -0.275081 -0.951685 2236194 female
-2.944736 0.6434119 -0.5958322 0.4378701 0.7417966 -0.5079445 13555683 female
-2.932509 -0.3730358 -0.4180849 0.577294 0.1110882 -0.8089444 2500137 female
-3.035161 -0.7162735 -0.3027169 -0.1101109 -0.9898399 -0.08995917 921102 female
-3.061072 0.2497959 -0.491074 -0.9984076 0.05640953 0.000528366 8224389 female
-2.904667 -0.2096583 -0.3663671 0.9141365 -0.2568795 -0.3136358 2565677 female
-2.823055 0.2190122 -0.3468952 0.6203157 0.3324164 0.7104279 6315103 female
-3.030291 0.6681826 -0.5042815 -0.8924946 -0.259884 -0.3686647 16573400 female
-2.955243 0.009335673 -0.7717907 -0.01609988 -0.1472631 -0.9889663 13875378 female
-2.834221 -0.3493104 -0.5846813 0.9049261 0.3961007 -0.1556054 2499878 female
-2.87043 0.4473909 -0.3192832 -0.8644385 -0.3797859 0.3294068 6119009 female
-2.984065 -0.09297909 -0.6407526 -0.3371293 -0.2459843 -0.908755 2170914 female
-3.064606 0.3842326 -0.539598 -0.6078992 -0.7879239 -0.0981557 13554663 female
-3.031877 0.2661994 -0.5841857 -0.8497878 0.1271787 -0.5115529 9934749 female
-3.049075 0.3216638 -0.5399006 -0.9263192 -0.06245016 -0.3715277 15067901 female
-2.979872 0.2620174 -0.366975 -0.4662861 0.1316238 0.8747871 14608375 female
-3.012777 -0.4743916 -0.382282 -0.9871562 -0.06594621 0.1455125 2368036 female
-2.995423 0.07092723 -0.4030348 -0.9708453 0.2030283 -0.1274316 2960434 female
-3.007452 0.6430802 -0.4505512 -0.611914 -0.2204671 0.7595758 16773346 female
-2.830124 0.1227146 -0.3214133 0.5197211 0.1566272 0.8398558 10724528 female
-2.810089 0.3157623 -0.2654099 -0.7838224 0.2463613 0.5700251 15199223 female
-2.852852 -0.07652585 -0.410169 0.8256084 -0.4062999 -0.3915242 2368812 female
-2.933539 -0.3993592 -0.4217462 0.5880337 0.01469526 -0.8087029 2500137 female
-3.00672 0.6006157 -0.6620875 -0.1546678 0.7664499 -0.623404 11121588 female
-3.029524 -0.163307 -0.3359154 -0.9896398 0.01904228 0.1423042 2235682 female
-2.967278 0.145744 -0.7622737 -0.8250195 0.1469934 -0.5456517 4868434 female
-2.963675 -0.6899521 -0.4421153 0.9009517 -0.2726552 -0.3375576 15781830 female
-2.79298 0.1705111 -0.5156434 0.8933964 0.2519695 -0.37196 15132414 female
-2.865736 0.6397426 -0.4041047 0.6172352 0.7699989 0.1616244 13948130 female
-2.77134 0.2898224 -0.334932 0.4130434 -0.3458767 -0.8424752 7566205 female
-2.992907 0.4410503 -0.707794 -0.8188564 -0.233812 -0.5242196 14211294 female
-3.061535 0.04633365 -0.5649307 -0.995536 0.09034512 0.02730989 3092791 female
-3.051672 0.5461887 -0.5954977 -0.9930376 0.07797153 0.0882999 15396344 female
-2.85689 0.4216267 -0.3112459 -0.8518927 -0.3033282 0.426932 13291489 female
-2.786186 0.2062058 -0.2982169 0.2277363 -0.4625449 -0.8568479 14277354 female
-2.916348 -0.1440032 -0.2969013 0.4435994 -0.1363512 0.8857923 1776929 female
-2.855725 -0.3411484 -0.5310527 0.6265672 0.3189996 0.7110927 2434860 female
-2.765711 -0.6820341 -0.5677683 0.8081566 0.2151875 -0.5482492 16242638 female
-2.767397 0.3849314 -0.2917646 0.702584 0.3354964 0.6275492 4606286 female
-2.761713 0.3885981 -0.3034717 0.8497212 0.2838246 0.4443169 10593704 female
-2.798136 0.2228356 -0.4758491 0.8770103 0.4034152 -0.2609771 10265261 female
-2.95283 0.8343688 -0.4283223 0.7177212 0.1345201 0.6832135 2697257 female
-3.016475 0.24906 -0.6104175 -0.69458 0.2627388 -0.6697215 6052962 female
-2.942511 0.05766451 -0.7428207 0.3530917 -0.3519127 0.8668816 986127 female
-2.809915 0.07417204 -0.5654756 0.9387049 -0.2683795 -0.2163457 3421501 female
-2.940401 0.6874492 -0.4558266 0.6318014 0.4771997 0.6108253 14204849 female
-3.027826 0.6939124 -0.4259306 0.2452981 -0.6920137 0.6789299 14468531 female
-2.847964 0.2817544 -0.5300828 0.8621058 0.3555405 -0.3610602 8946066 female
-2.972963 -0.2038796 -0.5059323 -0.3672116 -0.1988244 0.9086388 1580065 female
-2.97157 -0.0278843 -0.6606107 -0.1957218 -0.2044081 -0.9591196 2302499 female
-2.937717 0.4103011 -0.6550344 0.04013419 -0.3497531 0.9359819 1051656 female
-2.773845 0.1275036 -0.4893194 0.9403642 0.06383498 -0.3341261 15661822 female
-2.999823 0.2308006 -0.3732808 -0.570488 0.09083264 0.8162676 14805497 female
-2.917656 0.6748134 -0.4840347 0.6563893 0.7494523 -0.08645442 16704212 female
-2.986557 -0.1051725 -0.4255514 -0.6003081 -0.1479578 -0.7859635 5724001 female
-2.9361 -0.7424126 -0.6009251 -0.01090652 -0.9789444 -0.2038352 1576716 female
-2.957707 -0.2446851 -0.5088874 -0.2939712 -0.2326726 0.9270622 2039585 female
-3.049354 -0.02241896 -0.6037804 -0.8737935 -0.119795 -0.4713111 3816509 female
-2.922943 -0.2886178 -0.6246205 -0.09440169 -0.02529561 -0.9952128 2170405 female
-2.831095 0.5837466 -0.3375816 0.7935814 0.5806969 0.1817135 5790046 female
-2.843129 -0.06341116 -0.3457277 0.8695015 -0.3880046 0.3056461 2106152 female
-3.046028 0.2882236 -0.5445469 -0.9397278 0.02575014 -0.3409524 14082023 female
-2.998279 0.6356359 -0.6117712 -0.4315262 0.8371136 -0.3361935 12432303 female
-2.916868 0.5765693 -0.6364591 0.6528634 0.277714 -0.70473 15067382 female
-2.947342 0.4116543 -0.6547205 -0.1019453 -0.3789587 0.9197812 657930 female
-2.984238 -0.2679223 -0.4055474 -0.1228218 -0.124703 -0.9845628 2105120 female
-2.906955 -0.6988473 -0.5646049 -0.4635679 0.8188646 -0.3384754 14924723 female
-2.856487 0.4284961 -0.3487896 -0.7705079 -0.4254224 -0.4746929 5593181 female
-2.965388 0.1903397 -0.750812 -0.9915514 0.09702612 -0.08609129 15659774 female
-3.031301 -0.1852124 -0.3334415 -0.9929718 0.02265932 0.1161613 2170403 female
-2.815635 0.2111895 -0.3512263 0.6872841 0.2909819 0.6655599 13225951 female
-2.788285 -0.7129226 -0.5508765 0.2367679 -0.9714918 -0.01202834 526344 female
-2.822232 0.3359789 -0.4801531 0.9291586 -0.08299018 -0.3602455 14606327 female
-3.025077 0.4024823 -0.6101496 -0.4576773 -0.4364518 -0.7746233 16120574 female
-2.990212 0.8460398 -0.5579798 0.1412989 0.2214491 -0.9648808 3025958 female
-3.092988 0.7797853 -0.5071849 -0.7797856 0.01207848 -0.6259301 15324355 female
-2.917961 0.01025588 -0.6630938 0.2945402 -0.2044982 -0.9335024 2235940 female
-3.013898 0.0696484 -0.4567727 -0.6418586 -0.7378702 0.2087229 1581097 female
-3.01789 -0.1375379 -0.5172186 -0.7130992 -0.217894 0.666342 2170148 female
-3.047987 0.1022238 -0.5221308 -0.984536 -0.1413329 0.1035081 14738424 female
-2.869962 0.6416378 -0.4563914 0.7518693 0.6308753 -0.1915438 15001333 female
-3.009512 -0.3419238 -0.3950839 -0.8703083 0.1016633 -0.4819004 2170913 female
-3.050551 0.4172665 -0.4205143 -0.8965969 -0.3638055 0.2525063 13949670 female
-3.019407 -0.09714084 -0.6196458 -0.6566545 -0.2436287 -0.7137576 2236194 female
-2.888643 -0.4981173 -0.5477857 -0.8122311 -0.2719838 0.5160478 2170913 female
-2.972044 0.2272396 -0.355508 -0.4618227 0.121231 0.8786483 13028575 female
-3.053748 -0.0612376 -0.5567774 -0.9759874 -0.1843635 0.1160116 2631464 female
-2.8843 0.1540546 -0.3123324 -0.0148779 0.1824 0.9831118 12830932 female
-2.831051 -0.3553389 -0.5737419 0.9224722 0.3859129 0.010782 2500142 female
-3.067125 0.7209923 -0.5130963 -0.4812333 -0.3664645 -0.7963155 16180949 female
-2.809704 0.4560793 -0.43677 0.9931676 -0.1166945 -0.0006625978 8422028 female
-2.862418 0.6087362 -0.3317449 0.5044094 0.7582124 0.4131407 12764101 female
-2.962871 -0.008498625 -0.4601851 -0.479061 -0.07231168 -0.874798 723211 female
-2.893555 -0.6909234 -0.5661587 -0.4584736 0.7445065 -0.4852958 16441044 female
-3.080023 0.8885102 -0.4722188 -0.6112955 0.789759 -0.0509756 2696225 female
-2.993694 0.07728226 -0.4024439 -0.9879743 0.1464144 -0.04969411 3092276 female
-2.878327 -0.4759524 -0.5272751 -0.5473481 -0.2252728 0.8060163 1382427 female
-2.890996 0.3330896 -0.3525974 0.2024474 0.07340562 0.9765381 7039859 female
-3.013531 0.3551858 -0.3897954 -0.6602825 0.1106503 0.7428213 7961735 female
-2.943406 0.7222176 -0.5051615 0.890591 0.1103751 -0.4412087 2893604 female
-2.935016 0.0877105 -0.7728096 0.613836 -0.03362649 -0.7887171 10133667 female
-2.997043 0.6429971 -0.5891125 -0.5890905 0.7277368 -0.351243 14467246 female
-3.011069 -0.5469438 -0.389265 -0.9965066 0.08180315 0.01681913 2171173 female
-3.040132 0.6818138 -0.4911748 -0.6522211 -0.5915536 -0.4739957 13943475 female
-3.045566 0.3022636 -0.5462575 -0.9332052 -0.008352969 -0.3592469 14609407 female
-3.046452 0.03157737 -0.6117755 -0.8606113 -0.02566142 -0.5086155 3551544 female
-2.813491 -0.477503 -0.5421763 0.8567761 0.04520507 0.5137035 2302505 female
-3.061977 0.7605786 -0.5276451 -0.4575571 -0.1967227 -0.8671457 14600893 female
-2.983829 0.4066971 -0.7040071 -0.9317552 -0.285149 -0.2247716 6514544 female
-3.095005 0.4099244 -0.5172795 -0.847925 -0.4953052 0.1889335 14408945 female
-2.933409 0.7716501 -0.5072587 0.8695707 -0.3950311 -0.296306 3486769 female
-3.009471 0.8284131 -0.5604039 -0.03815184 0.04462145 -0.9982752 2696225 female
-3.005968 -0.6545244 -0.4331916 -0.7279451 0.1977957 -0.6564852 2631207 female
-2.952205 0.8571094 -0.5384223 0.6495506 0.4006755 -0.6461757 5459531 female
-2.967896 0.1948067 -0.3491916 -0.5140073 0.05003167 0.8563254 13554657 female
-2.955394 0.7213936 -0.4483749 0.8103586 0.04743148 0.5840112 6313302 female
-2.945806 0.08912125 -0.735377 0.5698178 0.07899395 0.8179655 657931 female
-3.014086 -0.647398 -0.3494657 0.2657263 0.6265007 0.7327253 3421488 female
-2.905016 -0.2813072 -0.5085138 0.264539 -0.1450483 0.9534045 1842209 female
-2.906537 -0.3611924 -0.3768535 0.986954 0.04017277 -0.15591 2697001 female
-2.87271 0.07654955 -0.6522715 0.5263578 -0.01005698 -0.8502037 2895925 female
-2.839497 0.6088348 -0.3825734 0.798308 0.5718692 0.1888646 14803698 female
-2.815495 0.3948549 -0.4621478 0.9832846 -0.04376438 -0.1767374 7894139 female
-2.97846 0.09262235 -0.3492845 -0.7948086 0.3990182 0.457235 2698289 female
-3.032322 0.6016247 -0.5367476 -0.8960654 0.4436525 0.01546495 13947094 female
-3.053564 0.1558266 -0.5671209 -0.9653719 -0.1367962 -0.2221349 11250622 female
-2.914507 -0.2003813 -0.3927617 0.7460803 -0.2837471 -0.6023717 2106409 female
-2.842207 0.07101049 -0.6261221 0.7440416 -0.1459732 -0.6519923 2699320 female
-2.879313 -0.02209456 -0.293761 0.3586807 -0.1183845 0.9259229 1843237 female
-3.036656 -0.6611313 -0.3942661 -0.8650157 0.1467357 -0.4798088 9077376 female
-2.932551 -0.4509989 -0.3436043 0.6637108 -0.2817072 0.6929135 1841950 female
-2.903936 -0.1999098 -0.6177879 0.5369893 -0.08408175 -0.8393883 2104610 female
-2.794081 0.15355 -0.2235765 0.5336253 0.1643432 0.8295995 6183777 female
-3.06306 0.1948622 -0.5309455 -0.9782058 -0.02932396 -0.2055565 9541031 female
-3.018831 -0.7143639 -0.2687419 0.4155497 -0.8710715 0.261826 6377806 female
-2.97531 0.8140731 -0.412483 0.426113 -0.03340435 0.904053 2828585 female
-3.025307 0.4086137 -0.365002 -0.589107 -0.6581097 0.4688758 5723487 female
-3.010093 0.01079454 -0.344149 -0.9140635 0.2084633 0.3478951 2303014 female
-2.938137 0.677268 -0.4480499 0.3534944 0.6125037 0.7070226 11245705 female
-3.031705 0.06283104 -0.6327705 -0.7382543 0.01937792 -0.6742441 1052944 female
-2.998849 0.1826173 -0.3712796 -0.6094953 -0.122301 0.7832993 15199231 female
-2.926253 0.4999267 -0.3402894 0.02576039 -0.3178676 0.9477851 9737885 female
-2.952516 -0.02119316 -0.4638843 -0.4079514 -0.1122586 -0.906076 855309 female
