# .PCD v0.7 - Point Cloud Data file format
VERSION 0.7
FIELDS x y z normal_x normal_y normal_z rgb label
SIZE 4 4 4 4 4 4 4 4
TYPE F F F F F F U U
COUNT 1 1 1 1 1 1 1 1
WIDTH 170
HEIGHT 1
VIEWPOINT 0 0 0 1 0 0 0
POINTS 170
DATA ascii
-0.7746211 -0.05735607 1.658381 -0.4871234 -0.2407881 0.8394831 1709850 female
-0.9076767 0.005433863 1.654511 -0.305211 -0.7167293 -0.627013 1579291 female
-0.6913483 0.8137895 1.630381 0.8253462 0.1270855 0.550139 14994368 female
-0.7227527 -0.1043513 1.666604 -0.3504824 -0.1789727 0.91931 7894910 female
-0.7563877 0.08201881 1.761079 0.925311 0.1026672 0.3650465 12632790 female
-0.8414404 0.6069914 1.456874 0.04591381 0.8237867 -0.5650374 12370118 female
-0.8752947 0.4257974 1.425889 0.7926677 -0.6045043 -0.07907353 8553095 female
-0.7056475 0.4286373 1.622035 0.9382842 -0.1665797 0.3031072 11580608 female
-0.7512108 0.5455396 1.573736 0.8895443 0.4476975 -0.09098274 8156541 female
-0.9438046 0.5515166 1.713547 -0.9345123 0.1365672 0.3286886 4936022 female
-0.8691359 0.5858784 1.44063 -0.478834 0.6223183 -0.6192236 12763340 female
-0.6651651 -0.1907744 1.554025 -0.2090534 -0.3382652 -0.9175366 2170403 female
-0.8900633 -0.3477406 1.769218 0.8097451 -0.5677221 -0.1483393 2171937 female
-0.6868618 0.03364288 1.504839 0.6913403 0.1360935 -0.7095965 2169889 female
-0.8910828 -0.1008573 1.82959 -0.3719115 -0.0527227 0.9267697 2170657 female
-0.8257938 -0.184082 1.823344 0.520076 -0.2236608 0.8243159 2237222 female
-0.9526891 -0.4426611 1.775181 0.851078 -0.5223984 -0.0525949 2105377 female
-0.5990019 -0.1044306 1.591482 0.9547155 0.1540646 -0.2545239 1973536 female
-0.7033365 0.1977788 1.699073 0.9153357 0.005386134 0.4026558 15725051 female
-0.7068036 0.7443811 1.551631 0.7075866 -0.2142022 -0.6733785 16571342 female
-0.7825983 0.3122047 1.898895 -0.1686185 -0.8944545 0.4141484 5526365 female
-0.8487027 0.4822356 1.463695 0.1735668 -0.7647671 0.6204885 526600 female
-0.7047593 0.119678 1.58495 0.8785579 0.4550084 0.1452698 12830675 female
-0.9333611 -0.195915 1.745887 -0.937855 0.03992128 -0.3447235 2368297 female
-0.9108557 -0.3149288 1.82853 0.1905982 -0.09381437 0.9771751 2236714 female
-0.966563 0.3607434 1.448893 0.01442223 -0.28534 0.9583178 12763078 female
-0.7070978 -0.190907 1.584762 -0.8001875 -0.4712131 -0.3710232 2303531 female
-0.9890025 -0.5039263 1.785064 0.8640566 -0.4874478 0.125701 2301989 female
-0.8960106 0.6471733 1.654056 -0.7447555 0.6671051 0.01760873 14991538 female
-0.6946868 -0.2865545 1.625986 -0.9374853 0.3316924 0.105364 2172458 female
-0.5589484 -0.695899 1.638424 -0.05562234 -0.9937413 0.09687278 658186 female
-0.763714 0.1998443 1.767887 0.5658259 0.06793738 0.8217211 15200255 female
-0.7113907 -0.1917356 1.601013 -0.8692924 -0.4522585 -0.1994819 2106409 female
-0.8089498 0.1936356 1.465432 0.02242694 0.225359 -0.9740176 6315103 female
-0.7755921 0.6773686 1.642721 0.5587947 -0.1840072 0.8086346 16375760 female
-0.9308951 0.5533284 1.617238 -0.9355265 0.2730165 -0.2241697 14610431 female
-0.9724535 -0.3044018 1.7438 -0.5681919 0.5176989 -0.639645 2632239 female
-0.9017659 0.4062297 1.447219 0.5574061 -0.5651608 0.6081872 9409180 female
-0.8577087 -0.06659708 1.840666 -0.0791252 -0.06345404 0.9948431 2170913 female
-0.8272173 0.373255 1.760755 0.1722232 0.02487853 0.9847438 10330022 female
-0.802807 0.3152904 1.757825 0.4277667 0.1685202 0.8880409 15199231 female
-0.7932469 0.2765666 1.760545 0.4564715 0.2563604 0.8520053 13884644 female
-0.7151121 0.2583113 1.574531 0.9120839 0.1627139 -0.3763339 14608375 female
-0.6796103 -0.4942381 1.676078 0.190263 -0.07381944 0.9789539 1644825 female
-0.6788591 0.08771978 1.570613 0.8505268 0.5224475 -0.06043873 2499885 female
-0.7681353 0.6376098 1.599672 0.9256753 -0.3107785 -0.2157355 16376792 female
-0.7985955 0.0764755 1.460777 -0.02532048 -0.006489284 -0.9996583 12435400 female
-0.9528725 0.2968373 1.371039 0.9956596 -0.09039135 -0.02216699 9670558 female
-0.7977387 0.03065588 1.464543 -0.08989415 -0.1983 -0.9760104 2499879 female
-0.7072157 -0.4489422 1.670568 -0.6632089 -0.006066769 0.7484097 1973534 female
-0.8540021 0.6277617 1.774953 -0.09386277 0.8937972 0.4385388 12172992 female
-0.5895488 -0.1331461 1.628646 0.9481446 0.1949313 0.2510451 2040102 female
-0.5905266 0.3574856 1.897792 0.1259862 0.9145122 0.384441 7895427 female
-0.7201401 -0.6618722 1.636394 -0.2982793 -0.02489331 -0.954154 12363420 female
-0.9412513 0.1741512 1.5784 -0.8956791 0.2313425 -0.3797887 9541537 female
-0.7138519 0.7376872 1.547921 0.559184 -0.3150685 -0.766841 16768206 female
-1.001749 0.3261123 1.435264 -0.4498665 -0.1345144 0.8829077 7039606 female
-0.7954144 0.4580338 1.837912 0.9830623 0.1751068 0.05409332 14672114 female
-0.769597 0.05685613 1.800161 0.7945487 0.1645207 0.5844872 3092791 female
-0.7939733 0.5947564 1.730006 0.8772609 0.4616677 0.1314387 15659772 female
-0.8694156 0.433391 1.440184 0.7184101 -0.660951 0.2168659 14144226 female
-0.9816734 0.257026 1.408233 0.4010274 -0.3710146 0.837571 3553605 female
-0.6449681 -0.1028117 1.537298 0.5403717 -0.09606473 -0.8359247 1579550 female
-1.00917 -0.3723008 1.821861 -0.5197862 0.1931486 0.8321754 1579550 female
-1.137758 -0.630044 1.764778 -0.8809175 0.4418509 0.1695644 16242638 female
-1.004252 0.3708884 1.384242 -0.7507715 0.328723 -0.5729601 13488346 female
-0.963762 0.3727806 1.365122 0.2428558 0.2547866 -0.9360047 13225946 female
-0.9160014 0.1111016 1.508959 -0.7602158 -0.01043669 -0.6495868 9935534 female
-0.8100613 0.8113133 1.509868 -0.260088 -0.07363841 -0.9627728 2697257 female
-0.8748433 0.2616447 1.780312 -0.181888 0.4099777 0.8937758 14476275 female
-0.5509382 0.2963235 1.904542 -0.2549403 -0.9060158 0.3378472 10528686 female
-0.9657327 0.04888226 1.650823 -0.8494681 -0.4095291 -0.3327009 2501428 female
-0.8439694 0.6856581 1.566356 -0.5774364 0.3041036 -0.757686 13810610 female
-0.715233 0.6980484 1.572754 0.6694392 -0.5079067 -0.5421088 16640468 female
-0.9460055 0.4021799 1.682989 -0.9641795 -0.1746633 0.1996263 14934259 female
-0.814177 -0.2080961 1.741451 0.814742 -0.3415732 -0.4685329 1580065 female
-0.8889612 0.01045423 1.834366 -0.3251248 -0.0008343403 0.9456707 2236706 female
-0.8489702 0.4749106 1.779455 0.2694786 -0.4999491 -0.8230627 789516 female
-0.9281037 0.09460562 1.528903 -0.8610162 -0.08223618 -0.5018849 15199231 female
-0.701132 0.2301659 1.59931 0.9616138 0.139461 -0.2363253 14805497 female
-0.8488761 0.6668935 1.556545 -0.3500625 0.6869696 -0.6368116 14205106 female
-0.7052189 -0.09257389 1.673107 -0.1562373 -0.09082919 0.9835344 3223607 female
-0.9869227 -0.7184814 1.876565 -0.1054602 -0.7487026 0.6544636 1249043 female
-0.8321966 -0.2500457 1.739576 0.7243928 -0.4083164 -0.5554572 2039585 female
-0.7520126 0.03549808 1.723078 0.9638512 0.06395601 -0.2586512 2368807 female
-0.8999138 -0.2564206 1.830746 -0.1093725 -0.03516581 0.9933786 2368554 female
-0.915095 0.5291633 1.433898 -0.8657276 0.4887632 -0.107825 11974848 female
-0.7567796 -0.1381254 1.58186 -0.8258556 -0.5215687 -0.2143096 2303273 female
-0.815124 0.272058 1.772009 0.3181442 0.2758197 0.9070324 15200247 female
-0.8876961 0.6471321 1.70341 -0.5273415 0.803643 0.2758058 14345199 female
-0.9285743 0.5652313 1.74193 -0.8963389 0.122535 0.4261005 4541272 female
-0.8301216 0.4984009 1.777287 0.4447616 -0.5262177 -0.7247633 526601 female
-0.743385 0.006071217 1.472797 0.2250014 -0.1758134 -0.9583652 1908773 female
-1.013142 -0.6738394 1.81785 0.4663594 0.7735147 0.4291665 14924723 female
-0.5895426 -0.3091717 1.610438 0.961849 -0.2068154 -0.1790916 2237222 female
-0.5772848 0.3552764 1.898273 0.2068051 0.8614215 0.46388 15264232 female
-0.583028 -0.1834835 1.587224 0.8412073 -0.003652239 -0.5407004 1973536 female
-0.8163258 0.185094 1.464352 -0.05166534 0.1763169 -0.9829767 13225951 female
-1.12778 -0.6617585 1.757639 -0.4850689 -0.8732502 -0.04628331 526344 female
-0.8986651 0.3962225 1.494373 -0.6161581 -0.30637 -0.7255939 14606319 female
-0.8423944 0.3858374 1.761751 0.01973379 -0.06854086 0.9974532 14343914 female
-0.8479038 0.837928 1.637779 -0.6355692 0.2483496 0.7310092 3354154 female
-0.7269214 0.6864942 1.637017 0.199945 -0.6537941 0.7297776 14206385 female
-0.9438831 0.02281735 1.791138 -0.8232388 -0.1066516 0.5575871 2235940 female
-0.7396367 0.07162037 1.691406 0.6414987 -0.6572147 0.3956619 1581097 female
-0.7975394 -0.1571139 1.739838 0.8636647 -0.2951068 -0.4086505 1645601 female
-0.7900557 0.1478628 1.790877 0.6118162 0.07314142 0.7876111 13356768 female
-0.9245035 0.5781981 1.540504 -0.8998704 0.4342277 -0.04098324 15725559 female
-0.6314263 -0.3633607 1.667748 0.6041263 -0.08838835 0.7919715 2105377 female
-0.717892 0.4072682 1.644461 0.939395 -0.2763813 0.202856 15001341 female
-0.809094 -0.05022086 1.835046 0.390079 -0.05847885 0.9189225 2697001 female
-1.005188 -0.5107639 1.80554 0.5386836 -0.3855959 0.74909 2565677 female
-0.708828 0.2224078 1.569631 0.924613 0.153984 -0.348396 13028575 female
-0.7753133 -0.05164139 1.807143 0.8305233 -0.1344938 0.5405021 2631464 female
-0.7190488 0.14172 1.514163 0.8472413 0.2397332 -0.4740361 11514556 female
-0.9823415 -0.3235954 1.736921 -0.5406533 0.4527186 -0.7090415 2172201 female
-0.7625551 0.716795 1.657854 -0.1808235 -0.39696 0.8998475 14208190 female
-0.9417138 0.4756756 1.53175 -0.9666508 -0.07775795 -0.2440078 15068661 female
-0.7857761 0.5788199 1.491742 0.8548658 0.4726709 -0.2139782 15461627 female
-0.7774383 0.002979142 1.665932 -0.3512203 -0.02150618 0.9360458 789260 female
-1.023983 -0.6633493 1.81388 0.3961101 0.7198964 0.5699525 16441044 female
-0.7260907 0.8883548 1.599581 0.4708305 0.8619837 0.1878904 2696225 female
-0.6728388 0.07767226 1.561482 0.8642859 0.4652394 -0.1912123 2763562 female
-0.9702481 -0.4600729 1.74811 0.7479094 -0.4929564 -0.444551 1382427 female
-0.8069197 0.3466304 1.484287 0.2725384 -0.1279633 -0.9535975 14606571 female
-0.919621 0.4731814 1.489018 -0.7735624 -0.1516126 -0.6153168 15460080 female
-0.8537582 0.6977521 1.581109 -0.8734832 0.2071227 -0.4405988 11575446 female
-0.5487829 0.2951045 1.898283 -0.1682135 -0.9621753 -0.2142962 14014173 female
-0.8247525 0.6596327 1.66722 0.3050237 0.5892481 0.7481627 16176836 female
-0.6761273 -0.559103 1.673567 0.1693866 0.1842035 0.9681824 2105123 female
-0.8115661 0.8344209 1.658853 -0.2913761 0.1895946 0.9376321 2894635 female
-0.8156348 0.2607158 1.776418 0.3060627 0.3083377 0.9006961 5461597 female
-0.8120207 0.04863845 1.829567 0.348655 0.1171802 0.929897 3551544 female
-1.05922 -0.4550649 1.76256 -0.9259261 0.2522232 -0.2811483 2631472 female
-0.7775345 0.7698761 1.662586 -0.02276927 0.01263694 0.9996608 16245206 female
-0.7984204 0.4209881 1.828619 0.8535661 -0.1126543 -0.5086589 9606049 female
-0.7150744 0.4246449 1.683355 0.9367629 -0.3498293 0.009730204 14410225 female
-0.8659843 0.7607636 1.580167 -0.8835598 -0.4537595 -0.1158643 3486769 female
-0.8145646 0.8528754 1.651985 -0.3146296 0.4111685 0.8555399 2433825 female
-0.7022229 -0.5941449 1.676199 -0.3144455 0.176402 0.9327413 1448220 female
-0.8684514 0.851373 1.597121 -0.9022655 0.4098418 0.1339651 5459531 female
-0.8762605 0.3460151 1.491825 -0.4574405 -0.2478949 -0.8539885 12829389 female
-0.8158917 0.7068996 1.552274 -0.407505 -0.1177685 -0.9055773 6313302 female
-0.5469951 0.2975815 1.893502 -0.03480312 -0.8283913 -0.5590676 10855336 female
-0.5850459 -0.6686687 1.626437 0.34795 0.8051302 -0.4803083 14401462 female
-0.8482631 -0.2471617 1.718825 0.6091934 -0.3213379 -0.7250003 2499878 female
-0.6888453 -0.4026125 1.577191 -0.3868825 -0.1519689 -0.9095204 2170401 female
-0.9645132 0.07553887 1.763438 -0.8836457 0.02254364 0.4676132 2697264 female
-0.8412986 0.6244689 1.480425 0.1040969 0.8301647 -0.5477138 12106685 female
-0.9242765 0.2521505 1.598329 -0.8884773 0.3607745 -0.2836369 9013138 female
-0.7065254 0.1002502 1.619396 0.7840871 0.4234035 0.4538027 5395037 female
-0.7802227 0.5410972 1.746183 0.8559937 0.1907028 0.4805281 11513268 female
-0.7552728 0.1639822 1.763247 0.6265092 -0.1265667 0.769069 15264505 female
-0.7043772 -0.202116 1.633255 -0.9396198 -0.298029 0.1682065 2171430 female
-0.9796401 0.08811156 1.716807 -0.9812083 -0.04422241 0.1878157 8224913 female
-0.6715868 -0.1226974 1.528378 0.2321754 -0.2409112 -0.9423674 2170657 female
-0.6608897 -0.640833 1.688368 0.006670802 0.1081378 0.9941135 9077376 female
-0.6588818 -0.5020846 1.604877 0.4595797 -0.3259514 -0.8261611 2171945 female
-0.9453484 -0.2945728 1.735041 -0.4643967 0.3876441 -0.7962837 2368295 female
-0.9977216 0.1108028 1.308398 -0.02129466 0.06314302 -0.9977773 4539469 female
-0.7572523 0.2327941 1.753811 0.5738099 0.1938041 0.7957276 13358313 female
-0.573571 -0.6968003 1.61646 -0.008200484 -0.9884802 -0.1511286 4276543 female
-0.7806318 0.8019944 1.509709 0.1100354 -0.2044386 -0.9726753 2500646 female
-0.7085363 0.3936448 1.580523 0.7405675 -0.660681 0.1227203 12633303 female
-0.620477 -0.02313185 1.593044 0.9544189 0.2965048 -0.03419764 2237224 female
-0.7583516 0.6625063 1.597389 0.7239569 -0.5706115 -0.387671 16706523 female
-0.8360367 0.08047032 1.831922 0.1416952 0.1714041 0.974958 1052944 female
-0.6978088 0.182714 1.607929 0.9904932 -0.05467749 -0.1262283 15199231 female
-0.7791924 0.45776 1.475091 0.3350497 -0.1413286 -0.9315406 2697265 female
-0.7762349 -0.02360298 1.664277 -0.3988573 -0.09745146 0.9118202 855309 female
