# .PCD v0.7 - Point Cloud Data file format
VERSION 0.7
FIELDS x y z normal_x normal_y normal_z rgb label
SIZE 4 4 4 4 4 4 4 4
TYPE F F F F F F U U
COUNT 1 1 1 1 1 1 1 1
WIDTH 171
HEIGHT 1
VIEWPOINT 0 0 0 1 0 0 0
POINTS 171
DATA ascii
-3.068743 -0.09851471 -0.4616921 -0.915147 -0.233993 -0.3282578 1711651 female
-3.141821 0.0281892 -0.5350489 0.3799829 -0.6943095 -0.6111851 1579291 female
-3.102933 0.75811 -0.3103317 -0.6808435 -0.2397769 0.6920687 16243918 female
-3.062978 -0.1719763 -0.4283143 -0.996574 -0.07562169 -0.03349024 1973534 female
-3.27402 0.05556258 -0.3911826 -0.8774087 0.05624784 0.4764349 1907997 female
-2.975708 0.6522744 -0.4380113 0.4325463 0.6938643 0.5757221 15593975 female
-2.89585 0.4333218 -0.4242741 0.1029854 -0.03977077 0.9938874 6776946 female
-3.00929 0.4986253 -0.3252917 0.1373255 0.4690745 0.8724166 14740727 female
-3.007992 0.608837 -0.3871013 0.3535766 0.4136178 0.8389898 15659771 female
-3.192676 0.5711921 -0.5265064 -0.4447678 0.1778463 -0.8778111 4934735 female
-2.953168 0.6458598 -0.4451739 0.3876227 0.8387406 0.3824431 13290451 female
-2.945144 -0.2145202 -0.4537574 0.8050881 -0.07535101 -0.5883497 1842463 female
-3.215104 -0.3309658 -0.4150103 0.5835557 -0.4184242 0.695977 2171937 female
-2.945141 0.1165216 -0.3894231 0.5859827 0.2586375 0.7679394 12567760 female
-3.263801 -0.08581065 -0.3769922 -0.8580199 -0.07835224 0.507605 1973536 female
-3.25468 -0.1988544 -0.3763394 -0.7323779 -0.1031517 0.6730397 2038818 female
-3.251278 -0.4349823 -0.4420105 0.5251278 -0.3509179 0.7753047 2105377 female
-3.038557 -0.1151166 -0.3594238 -0.6470183 -0.08426973 0.7578033 2170914 female
-3.108729 0.09724376 -0.3522059 -0.1458873 -0.5222497 0.8402215 12829649 female
-3.005561 0.7746162 -0.3208585 0.7740907 -0.05747048 0.6304607 16309454 female
-3.306912 0.2149523 -0.4552222 0.7553745 0.02445587 0.6548368 12435150 female
-2.917808 0.5307503 -0.5187653 0.02933837 -0.1859183 -0.9821271 6645869 female
-2.948318 0.07876301 -0.3730295 0.5662766 0.2304758 0.7913355 2763056 female
-3.169409 -0.2130919 -0.4756063 0.6241307 -0.07618954 -0.7775963 2171687 female
-3.290896 -0.2929743 -0.4300305 -0.8864068 0.1693846 0.4308036 2565415 female
-2.898664 0.3552109 -0.4391354 -0.3141814 0.02069041 0.9491374 9013399 female
-2.963145 -0.1538329 -0.4890222 0.4392287 -0.2298923 -0.8684628 2171945 female
-3.271692 -0.4697904 -0.4436925 0.36171 -0.3288124 0.8723808 2169889 female
-3.17827 0.667765 -0.4640668 -0.4110674 0.7948326 -0.4463907 12888217 female
-3.000334 -0.4488512 -0.4957384 -0.3918929 -0.1425042 -0.9089072 2499879 female
-2.956662 -0.7176469 -0.323637 -0.03839706 -0.9976696 0.05640016 723723 female
-3.111361 0.2664354 -0.3174196 -0.1201492 0.06738748 0.9904661 7895940 female
-2.94724 -0.1520297 -0.4782155 0.6756271 -0.2169469 -0.7046008 2171430 female
-2.967788 0.2485419 -0.5479132 0.5189551 0.4324875 -0.7373196 9738925 female
-3.103359 0.6790092 -0.3704458 -0.4822831 -0.128111 0.8665971 16771805 female
-3.333417 -0.03560592 -0.4373232 -0.7856759 -0.1727869 -0.5940186 3684152 female
-3.227833 -0.2947084 -0.4961513 0.3408249 0.3211904 -0.8835582 2632239 female
-2.91406 0.4035046 -0.431679 -0.4757293 -0.119158 0.8714832 8552842 female
-3.267761 -0.04660913 -0.3780189 -0.8663722 -0.06483731 0.495172 2170913 female
-3.220484 0.3366473 -0.4090016 -0.9375367 0.1145064 0.3285013 11187130 female
-3.192267 0.3088472 -0.3646133 -0.6318982 0.09986864 0.7685902 14410222 female
-3.16357 0.30611 -0.3442045 -0.5580946 0.07907381 0.826001 13819633 female
-2.980701 0.2201577 -0.3626207 0.6953779 0.02792764 0.7181014 14610423 female
-3.017725 -0.4827611 -0.4343519 -0.8611819 -0.1868321 0.4727149 2104352 female
-2.964577 0.05002637 -0.3570999 0.4123943 0.1838572 0.8922598 2434605 female
-3.034978 0.6648548 -0.3883855 0.7769237 -0.1845089 0.6019518 16773603 female
-2.903877 0.1135417 -0.4867135 0.9856651 0.1290922 -0.1086256 11645625 female
-2.85782 0.3253125 -0.4208977 0.535149 0.4487324 0.7157198 7106162 female
-2.9487 -0.03356689 -0.5203192 0.4682675 -0.3549826 -0.8091434 2434086 female
-2.989492 -0.3187803 -0.4901512 -0.1841858 0.2537944 -0.9495599 2172201 female
-3.257034 0.6261041 -0.4206933 -0.6104702 0.7920371 0.001849648 11121588 female
-2.942852 -0.1938818 -0.3765462 0.8364387 -0.1068951 0.537535 1908257 female
-3.340653 0.1510351 -0.4342281 -0.573107 0.2145538 0.7908951 11713221 female
-2.958855 -0.675885 -0.4786659 0.8560414 0.1642264 -0.4901253 16308176 female
-3.089677 0.2131025 -0.5809099 -0.1041651 0.3638378 -0.9256197 9541537 female
-2.963305 0.6436571 -0.4966188 0.4325506 0.7142615 -0.5502095 13948130 female
-2.911096 0.2632568 -0.4598114 -0.3557654 -0.5757001 -0.7362068 5921121 female
-3.246206 0.4597044 -0.4357285 0.6971577 -0.4738024 0.5380356 13028310 female
-3.273415 0.05945089 -0.3906908 -0.8720915 0.06371499 0.485177 1907997 female
-3.198806 0.5911788 -0.3676864 -0.02969141 0.2980866 0.9540769 15988223 female
-2.910592 0.4475779 -0.4232705 -0.1903012 -0.111084 0.9754208 11448251 female
-2.920985 0.185031 -0.3792441 -0.1085162 -0.7552393 -0.6464038 11381682 female
-2.904381 -0.002845301 -0.4288028 0.9738926 -0.07785333 0.2132419 2171945 female
-3.323575 -0.372798 -0.477962 -0.9865903 0.1626185 -0.01395899 1579550 female
-3.310573 -0.7133895 -0.3380681 0.07000444 -0.9782366 0.1953269 723470 female
-2.848126 0.371349 -0.4601782 0.9617274 0.1788214 0.2076135 4736840 female
-2.864854 0.4056157 -0.4987235 0.7846242 0.03533129 -0.6189641 12304072 female
-3.038147 0.1964808 -0.5907606 0.01604595 0.3480265 -0.9373474 10988476 female
-3.016774 0.8212138 -0.4605044 0.6789623 -0.09369241 -0.7281703 3223593 female
-3.221747 0.2654229 -0.3830691 -0.7518781 0.2688039 0.6020164 12173258 female
-3.350441 0.1082861 -0.4438508 -0.9700744 -0.1015113 0.2205699 11119794 female
-3.16599 0.0834318 -0.58418 -0.1323303 -0.3041158 -0.9433993 2501428 female
-3.075219 0.7130691 -0.4617824 -0.01497607 0.3408812 -0.9399871 16177615 female
-3.001115 0.7514389 -0.3518832 0.9571851 -0.2808622 0.07009312 16770773 female
-3.176548 0.4266598 -0.5265362 -0.4941364 -0.1345567 -0.8589084 14934259 female
-3.155213 -0.184293 -0.3884247 0.8536608 -0.2749916 0.4423154 1580065 female
-3.285977 0.007695268 -0.4259943 -0.9911492 -0.06810229 0.113953 2302499 female
-3.255622 0.3910436 -0.488949 0.9466856 -0.318976 0.04517423 9933977 female
-3.039651 0.1375371 -0.6042213 0.01819551 0.0672475 -0.9975705 15199231 female
-2.980316 0.2449454 -0.3657466 0.7196851 0.06740137 0.6910212 8750989 female
-3.061501 0.6851604 -0.4758757 0.1021286 0.6920359 -0.7146021 16772573 female
-3.001871 -0.09646384 -0.3411609 -0.1184345 -0.05854792 0.9912343 2171687 female
-3.346819 -0.6999829 -0.4545731 -0.3329234 -0.9117934 -0.2404056 526600 female
-3.162055 -0.2276348 -0.4005645 0.876399 -0.3455308 0.3354596 2039585 female
-3.261754 0.007983607 -0.3674646 -0.7898491 0.01369887 0.6131483 2697001 female
-3.284029 -0.2535211 -0.4302658 -0.9750379 0.1755858 0.1359073 2170405 female
-2.905921 0.5500985 -0.5174723 0.2868323 -0.04667149 -0.9568432 12829393 female
-2.981138 -0.1466506 -0.4968389 0.1762926 -0.2332993 -0.956291 2237225 female
-3.171221 0.274738 -0.3434291 -0.5344332 0.1660308 0.828743 14672368 female
-3.208165 0.6600795 -0.4334912 -0.4567255 0.8846451 0.09383442 11512739 female
-3.210365 0.567762 -0.515721 -0.5904053 0.08095777 -0.8030364 4343890 female
-3.235209 0.4740584 -0.4476041 0.8745314 -0.4139538 0.2526602 526600 female
-3.032138 -0.3196104 -0.4567554 -0.8997993 0.05269013 -0.4331108 1907229 female
-3.337352 -0.633865 -0.4885499 -0.87494 0.3292649 0.3550559 1316376 female
-2.936251 0.4609892 -0.4373275 -0.7958466 -0.2328429 0.5589386 14407909 female
-3.331471 0.1954199 -0.4402774 -0.1359062 0.2090577 0.9684134 12962007 female
-2.94258 -0.2360589 -0.4484201 0.8420842 0.01343443 -0.5391787 2171171 female
-2.916326 0.2155915 -0.4912842 0.9593549 0.2298078 -0.1637884 3946813 female
-3.306143 -0.6520728 -0.554879 0.7081066 0.1118639 -0.6971883 15781063 female
-3.093381 0.2540978 -0.5637209 -0.09526545 0.4377046 -0.8940577 15001844 female
-3.223153 0.3705749 -0.4237343 -0.9856876 -0.01410242 0.1679917 10199209 female
-3.132198 0.8665617 -0.4351738 -0.8810582 0.2660879 -0.3910675 3025958 female
-3.102604 0.7787429 -0.3044655 -0.6114413 -0.0836477 0.7868561 15716803 female
-3.274327 0.09151711 -0.5013621 -0.9203387 0.03329619 -0.3897025 2631209 female
-3.302807 -0.6996073 -0.357051 0.1258024 0.9609155 0.2466069 15190975 female
-3.146493 -0.1325447 -0.3783982 0.8318715 -0.230156 0.504993 1645601 female
-3.149607 0.1234161 -0.3470286 -0.07927146 -0.09265988 0.9925373 14738424 female
-3.015664 0.5709358 -0.5551462 -0.01218932 0.2954302 -0.9552866 15396603 female
-3.034148 -0.3599287 -0.4329368 -0.963314 -0.0510955 0.2634682 2105120 female
-3.034638 0.4891485 -0.3190741 0.01650529 0.3496545 0.9367333 10527402 female
-3.236536 -0.02665532 -0.3423045 -0.5410839 -0.02472971 0.840605 2697001 female
-3.303247 -0.5090448 -0.4536956 -0.3185421 -0.2061567 0.9252191 2565677 female
-2.946088 0.2472329 -0.4086815 0.8352799 0.1776959 0.5203188 11054772 female
-3.194279 -0.02578124 -0.3293946 0.02017979 -0.06851627 0.9974459 2631464 female
-2.916616 0.157367 -0.4342249 0.9057957 0.1369594 0.4009691 6842481 female
-3.260029 -0.3326936 -0.5184135 -0.005781877 0.3237199 -0.9461353 2500142 female
-3.115459 0.7916471 -0.3181255 -0.8490175 0.0001308053 0.5283647 16047051 female
-3.023634 0.4885845 -0.5621157 0.03358505 -0.06090323 -0.9975785 4737363 female
-2.907464 0.6173196 -0.4716853 0.6511769 0.6826195 -0.3316613 12896716 female
-3.088001 -0.02714773 -0.4553345 -0.9857236 -0.1402539 -0.09315468 1118484 female
-3.321452 -0.6806772 -0.4057114 -0.1756684 0.9022126 0.3938948 14531764 female
-3.066909 0.912293 -0.3308773 -0.1253012 0.8492092 0.512975 2696225 female
-2.953822 0.03732942 -0.3590693 0.5320843 0.1448702 0.8342055 2303015 female
-3.237634 -0.45777 -0.4671552 0.7971711 -0.3767373 0.4717915 1382427 female
-2.946805 0.3824509 -0.4923717 0.9348645 -0.07292772 -0.3474331 10528424 female
-3.001202 0.3498296 -0.3517705 0.6718829 0.01817611 0.7404343 6512230 female
-3.059425 0.7276899 -0.4572614 0.3018406 0.1075684 -0.9472705 6575699 female
-3.335623 0.08634824 -0.4725544 -0.2596485 0.006908054 -0.9656785 15725559 female
-3.180461 0.666055 -0.4215324 -0.424926 0.7794608 0.4603028 14467246 female
-2.998847 -0.5250857 -0.4239609 -0.6887774 -0.125272 0.7140676 1908004 female
-3.092232 0.7086533 -0.347205 -0.6660328 -0.7030656 0.2491968 13022629 female
-3.170767 0.2885167 -0.3465354 -0.5555767 0.1443144 0.8188455 9738916 female
-3.265201 0.0617536 -0.3804134 -0.8177988 0.07942076 0.5699978 2040615 female
-3.260307 -0.4590068 -0.5299397 0.4040792 -0.1139935 -0.9075932 2302505 female
-3.118868 0.7469487 -0.3427462 -0.9274716 -0.2759591 0.2522755 15984082 female
-3.281493 0.4260138 -0.4350252 0.05935766 -0.3534658 0.9335623 9342363 female
-3.182357 0.4304778 -0.3112662 -0.4740672 -0.517319 0.7124895 9935267 female
-3.083881 0.8025373 -0.4779323 -0.205876 -0.2831297 -0.9367245 6840927 female
-3.140621 0.8511242 -0.415718 -0.9709925 0.1119029 -0.2113087 2696225 female
-2.995883 -0.6473225 -0.465443 -0.9606342 0.04492998 -0.2741591 2169889 female
-3.103207 0.8726175 -0.4680817 -0.4371039 0.3737868 -0.8180609 5459531 female
-3.001259 0.3518019 -0.5418931 0.4173422 -0.05561137 -0.9070462 8223112 female
-3.022498 0.7279686 -0.4239512 0.8758371 -0.1159391 -0.4684737 7628130 female
-3.317508 0.07511131 -0.4553978 0.946211 -0.2893346 -0.1448115 1776670 female
-2.971074 -0.6326033 -0.4009808 0.377466 0.4706974 0.7974731 2303531 female
-3.153698 -0.2270782 -0.4257701 0.9502521 -0.2788087 0.1388769 2499878 female
-2.924085 -0.4492141 -0.4415801 0.9843394 -0.11395 0.1345042 1973791 female
-3.259699 0.07705688 -0.5270726 -0.7954359 -0.1152941 -0.5949697 2698289 female
-2.937992 0.5937234 -0.5212405 0.4668203 0.3228367 -0.8233197 15395577 female
-3.072862 0.3202567 -0.5440133 -0.3172737 0.05831555 -0.9465393 7960197 female
-2.967811 0.0599976 -0.3582383 0.3724267 0.2150043 0.9028131 2500391 female
-3.140321 0.6248413 -0.3732202 -0.1623057 0.4987874 0.8513918 13947094 female
-3.160127 0.1729177 -0.335782 -0.3501726 -0.2101784 0.9128002 15264505 female
-3.032336 -0.3663767 -0.4663874 -0.9425853 0.05841512 -0.3288171 2170913 female
-3.212972 0.09331828 -0.5699745 -0.473901 -0.1125638 -0.873354 2699320 female
-2.927183 -0.1465531 -0.4420097 0.9674298 -0.1592118 -0.1968024 1908257 female
-3.003736 -0.6704395 -0.3870421 -0.938673 0.3194411 0.1298095 14205376 female
-2.937546 -0.4917374 -0.4207157 0.7960603 -0.1397553 0.5888603 2105120 female
-3.208009 -0.2786911 -0.4828233 0.2896807 0.07558669 -0.954134 2500142 female
-2.908521 0.165597 -0.3436617 0.6814875 -0.6559025 -0.3246024 12764114 female
-3.142639 0.2354533 -0.3220649 -0.357467 0.04876252 0.9326519 12962525 female
-2.945348 -0.7139687 -0.2900039 0.05992256 -0.9952004 -0.07736506 1841433 female
-2.985859 0.8511274 -0.3706952 0.9943434 0.04013702 0.09833758 2698281 female
-2.973526 0.4519052 -0.3199016 0.4727874 -0.06097111 0.8790646 13159905 female
-2.996208 -0.0178887 -0.3402323 0.01194447 0.03598273 0.999281 2499878 female
-3.065439 0.6964218 -0.3417009 -0.05272022 -0.9596463 0.2762238 15325640 female
-3.273804 0.1009946 -0.4068415 -0.9088884 0.154332 0.387432 11776955 female
-3.330957 -0.6970158 -0.3600245 -0.3205955 0.9310895 0.1740431 4932158 female
-2.947922 0.5527442 -0.3905931 0.4122404 0.07439277 0.9080328 7105397 female
-3.081072 -0.0523006 -0.468147 -0.9370445 -0.2165369 -0.2739698 2039330 female
-3.058818 0.6173484 -0.5248771 -0.2168825 0.4052986 -0.8880851 15857148 female
