# .PCD v0.7 - Point Cloud Data file format
VERSION 0.7
FIELDS x y z normal_x normal_y normal_z rgb label
SIZE 4 4 4 4 4 4 4 4
TYPE F F F F F F U U
COUNT 1 1 1 1 1 1 1 1
WIDTH 169
HEIGHT 1
VIEWPOINT 0 0 0 1 0 0 0
POINTS 169
DATA ascii
-2.261403 -0.2149635 0.5046575 -0.9187885 -0.06905597 0.3886631 14079966 female
-2.299562 -0.1688125 0.485812 0.4751842 -0.2556398 -0.8419313 2171174 female
-2.186408 0.563897 0.7867365 -0.5708835 -0.4614679 0.6790725 15848904 female
-2.272125 -0.1853978 0.4804637 -0.9794776 -0.1244128 0.1585719 1908773 female
-2.356345 0.04642424 0.6117258 0.02667554 0.3280461 0.944285 8620186 female
-2.049422 0.4661887 0.5862286 0.4796494 0.4367195 0.7610601 10923184 female
-2.096829 0.2444338 0.4502032 -0.7745868 -0.22626 0.5906112 8290185 female
-2.226782 0.2683086 0.6472971 0.3163894 -0.7304969 0.6052041 3287603 female
-2.14985 0.4574446 0.6469932 0.5234935 0.02622191 0.8516261 13620447 female
-2.302294 0.5194883 0.5458813 -0.2286575 0.77349 -0.5911252 15857149 female
-2.047069 0.4603176 0.5885175 0.455967 0.3744292 0.8074013 15067377 female
-2.126885 -0.2586108 0.4633936 0.9208829 -0.215456 -0.32489 1382685 female
-2.322179 -0.4342335 0.5619833 0.6832446 -0.5976435 0.4195223 2170402 female
-2.131162 0.008313065 0.5131007 0.6765525 0.2347532 0.697974 8159631 female
-2.341269 -0.1931051 0.6500289 -0.329358 -0.07608574 0.9411346 2039071 female
-2.345073 -0.3454556 0.6349916 -0.5601726 -0.2547015 0.7882473 2631725 female
-2.327933 -0.4700302 0.499178 0.8919956 -0.4482993 0.05806454 1973534 female
-2.147229 -0.2294022 0.5494698 0.5447111 -0.1601077 0.8231983 2171431 female
-2.247756 0.06933889 0.6035683 0.1761692 -0.2982326 0.9380947 13753068 female
-2.115958 0.5738848 0.788996 0.9389435 -0.05002053 0.3404159 15519171 female
-2.422666 0.1913498 0.5262621 0.7594745 0.1168214 0.6399618 14608375 female
-2.096059 0.387741 0.4750647 -0.937208 -0.2499231 -0.2432686 921102 female
-2.114594 -0.04728906 0.515823 0.8258043 0.1336492 0.5478916 2565927 female
-2.372432 -0.2736653 0.5669367 -0.9321114 -0.1802329 -0.3141406 2171945 female
-2.33286 -0.3823931 0.6242048 -0.2566113 -0.4710712 0.8439447 1710627 female
-2.103301 0.1567119 0.4435708 -0.9505836 0.08721236 0.297968 9407889 female
-2.164487 -0.2348403 0.4110307 0.3947292 -0.2206169 -0.8919176 2171430 female
-2.404439 -0.5977398 0.4477531 0.08697789 -0.5528716 0.8287145 2235939 female
-2.322803 0.4089119 0.6761702 0.03773016 -0.3958642 0.9175336 10723499 female
-2.277485 -0.3481281 0.3490375 -0.164893 0.8678864 -0.4685973 2500137 female
-2.41884 -0.5716335 0.2087619 -0.941322 -0.1957427 0.2749502 10194568 female
-2.277734 0.1511389 0.608793 -0.07149857 -0.09455697 0.9929486 11776957 female
-2.151254 -0.2694442 0.4319081 0.603875 -0.2124322 -0.7682496 1908000 female
-2.104467 0.1082712 0.4400137 0.9909545 0.1320168 0.02410021 11713472 female
-2.185587 0.5245202 0.7205307 -0.6659188 -0.729647 0.1554588 13680298 female
-2.380934 0.01850188 0.5338084 0.6049335 0.7808028 -0.1562128 2236963 female
-2.427156 -0.4267671 0.5035307 -0.9679436 0.2452686 -0.05411559 2105120 female
-2.10382 0.2687773 0.4511319 -0.94921 -0.1454211 0.2790215 5525591 female
-2.393555 -0.1705861 0.6105013 -0.7826031 -0.1923774 0.5920501 2039329 female
-2.378996 0.3218592 0.5425676 -0.9999678 -0.004803079 0.006437816 1118737 female
-2.372923 0.239362 0.5708637 -0.7895184 0.01483745 0.6135474 13751777 female
-2.3032 0.2368069 0.6198861 -0.3740882 -0.2595928 0.8903199 9474977 female
-2.122074 0.1446905 0.4804128 0.9592383 0.06230508 0.2756445 10725294 female
-2.330472 -0.4176269 0.3729318 -0.7889354 -0.2837829 0.5450212 1579291 female
-2.232148 -0.03707621 0.5367247 -0.4791827 0.2099447 0.8522366 2565419 female
-2.16297 0.4962438 0.6747448 0.601311 -0.6234667 0.4997143 16312535 female
-2.097561 0.01519321 0.4234701 0.984902 0.08878753 -0.1486095 2500654 female
-2.050446 0.05192589 0.4993562 0.9123259 0.04100655 0.4074064 9539734 female
-2.136152 -0.06997702 0.3647088 0.6061553 -0.215065 -0.7657172 2170406 female
-2.29815 -0.3616368 0.3335062 -0.3092581 0.8394462 -0.4468661 2302505 female
-2.349373 0.5247591 0.6212458 -0.5796977 0.8147948 0.007750022 14672103 female
-2.130678 -0.3153154 0.5073026 0.9574683 -0.2769082 0.08109418 1908257 female
-2.438962 0.03383903 0.5348932 -0.8161953 -0.1350954 0.5617602 10264484 female
-2.383731 -0.4701808 0.1925364 0.4397057 0.6029926 -0.6656266 2498854 female
-2.232909 0.01695377 0.3165836 0.01438368 -0.03701045 -0.9992114 14804471 female
-2.085227 0.5812712 0.738991 0.9458705 -0.3034143 -0.1151903 16310736 female
-2.083542 0.07934047 0.4383008 -0.3365872 -0.4605394 -0.821348 15001844 female
-2.43799 0.3654171 0.6060485 -0.8321887 -0.2037982 0.5156822 13225687 female
-2.379888 0.008657155 0.6191746 -0.3056523 0.2246285 0.9252669 5790046 female
-2.351275 0.5190838 0.6409554 -0.571269 0.77267 0.2768263 13883611 female
-2.104114 0.2557296 0.4406233 -0.9679502 -0.1067433 0.2273286 6315619 female
-2.098182 0.01650979 0.5143428 -0.9736112 0.196725 0.1156741 920844 female
-2.111209 -0.1970274 0.472553 0.9672405 -0.2284182 -0.1107745 1776669 female
-2.334264 -0.388364 0.483103 0.4286131 0.4416404 -0.7881907 2368808 female
-2.389355 -0.7555397 0.5204535 -0.9722877 -0.1396021 0.1875314 3945009 female
-2.046617 0.3244748 0.4215231 0.4883834 0.3252119 -0.8097647 11251385 female
-2.023971 0.2930438 0.4627535 0.9635205 -0.158767 0.2154562 13028560 female
-2.256657 0.1237959 0.3413933 -0.2332049 0.4202519 -0.8769286 14608383 female
-2.082793 0.7051534 0.7141075 0.858632 0.4288657 -0.2807585 2566439 female
-2.355188 0.2679054 0.593672 -0.7251216 -0.1752734 0.6659415 11383226 female
-2.380948 -0.1230474 0.5405919 -0.06574789 -0.1449746 -0.9872485 1051664 female
-2.372485 0.1483332 0.3993943 -0.422298 0.4577724 -0.7823739 7038840 female
-2.148115 0.558874 0.6227246 0.7627496 0.4960698 -0.414883 14204849 female
-2.109407 0.5930563 0.6817809 0.6803442 -0.1943678 -0.7066491 13415851 female
-2.284353 0.2922671 0.4260455 -0.2688477 0.172796 -0.9475561 14080753 female
-2.276396 -0.3581879 0.5513711 0.8690356 -0.1885366 -0.4574179 1907998 female
-2.40686 -0.1521727 0.5993179 -0.8344403 -0.2189406 0.5057414 1841949 female
-2.4091 0.2847028 0.4811346 0.7693273 0.05323057 -0.6366334 13223634 female
-2.28157 0.09095582 0.3364096 -0.3168007 0.3109595 -0.89607 15461371 female
-2.125992 0.1395055 0.4921209 0.940479 0.03223556 0.3383195 7499893 female
-2.156354 0.5573823 0.5992636 0.4095994 0.8929542 -0.1867112 15192000 female
-2.123771 -0.2416567 0.5190835 0.915826 -0.2025899 0.3467277 1973536 female
-2.448158 -0.7235562 0.4253426 -0.4362515 -0.8370295 -0.3302519 526600 female
-2.309363 -0.1459775 0.651001 0.2131355 0.02137698 0.9767888 2499883 female
-2.357995 -0.01892943 0.6307306 -0.1587982 0.2049386 0.9658071 3026225 female
-2.29958 -0.2857709 0.654497 0.0796858 -0.1544975 0.9847744 2697257 female
-2.064899 0.3910057 0.5736489 0.2592418 -0.7052854 0.6598228 10593713 female
-2.158919 -0.1722364 0.3912486 0.3673412 -0.2838698 -0.8857079 2171174 female
-2.336628 0.2435809 0.6028874 -0.547295 -0.2280027 0.8052844 14081260 female
-2.340668 0.3998691 0.6673459 0.02510587 -0.6803488 0.7324584 9672097 female
-2.300181 0.5434433 0.5898436 -0.3299993 0.8812485 -0.3383808 13620703 female
-2.418526 0.2273448 0.5066152 0.8746538 0.02791996 0.4839434 10067626 female
-2.229017 -0.3273866 0.4752128 -0.6023643 0.4923569 -0.628285 2500396 female
-2.412043 -0.7226991 0.4729134 0.02502688 0.8220397 0.5688799 15123645 female
-2.101984 0.3027454 0.4710499 -0.9325337 -0.1825374 0.3115459 657416 female
-2.444012 0.03788032 0.5284218 -0.9211685 -0.1432848 0.3618261 13555933 female
-2.136871 -0.3434081 0.4690589 0.8582149 -0.1252461 -0.4977756 2039327 female
-2.109922 0.1037796 0.4718809 0.9547019 0.07844605 0.2870373 13689064 female
-2.427734 -0.6722685 0.3349809 0.7017195 -0.00247403 -0.7124491 13020845 female
-2.219301 0.2858182 0.3917457 -0.1104814 0.1629234 -0.9804335 7631999 female
-2.393466 0.2504537 0.5110682 -0.9591546 0.2789539 0.04698059 12236218 female
-2.222692 0.7030956 0.7165015 -0.9174752 0.3781358 -0.1235012 3354154 female
-2.180795 0.5878628 0.8000834 -0.3676041 -0.2004051 0.9081327 14929338 female
-2.44539 -0.05485919 0.4767262 -0.8592855 -0.3783366 -0.3442236 2368549 female
-2.376522 -0.7443391 0.5011797 -0.1850564 0.9342669 0.3047941 15190975 female
-2.34369 -0.488071 0.4505207 0.8564768 -0.1528174 -0.493046 1972766 female
-2.43537 0.1182859 0.4413323 -0.8553869 0.2806635 -0.4353634 15199223 female
-2.121078 0.4824449 0.4730235 0.2771617 0.4733779 -0.8361189 10394018 female
-2.256502 -0.4039995 0.4634196 -0.5511298 -0.5832173 0.5967525 2236195 female
-2.242124 0.2502065 0.6271278 0.1716635 -0.5202214 0.8366011 15594239 female
-2.354334 -0.1725087 0.64451 -0.4362619 -0.08253174 0.8960268 1973278 female
-2.391873 -0.5781683 0.4565911 0.4721531 -0.5859255 0.6586066 2827819 female
-2.119227 0.1393413 0.4764258 0.9573365 0.1010888 0.2707171 13949666 female
-2.259598 -0.06995071 0.5913997 0.8835313 0.112218 0.4547303 1908257 female
-2.197359 0.001025729 0.5444852 0.319692 -0.1991449 0.9263576 10659770 female
-2.358582 -0.3867898 0.4770313 0.04945789 0.5783677 -0.8142756 2303273 female
-2.185669 0.535843 0.7632761 -0.559646 -0.6087184 0.5623685 16244942 female
-2.190392 0.3738023 0.4140395 -0.05390597 0.2234594 -0.9732215 11579585 female
-2.042389 0.4432979 0.5921911 0.436784 0.09406871 0.8946344 15396346 female
-2.273159 -0.1444963 0.4975833 -0.9157984 -0.08944365 0.3915522 15395821 female
-2.423057 -0.7002455 0.4460465 -0.2383272 0.667425 0.7055098 15188926 female
-2.1362 0.7020707 0.8234751 0.05033784 0.5340867 0.8439298 2696225 female
-2.218083 -0.02913219 0.5422447 -0.3072556 0.1498247 0.9397588 3486781 female
-2.355561 -0.5222557 0.4727907 0.8492926 -0.5012639 0.1656401 2039329 female
-2.124665 0.2669708 0.434303 0.8364254 -0.08094794 -0.5420702 9869215 female
-2.11417 0.322796 0.4441647 0.7123026 -0.1774283 -0.679076 526600 female
-2.186639 0.593311 0.6275737 -0.1718665 0.596457 -0.7840286 5458249 female
-2.370079 -0.1378928 0.5466846 0.9502942 -0.01326601 -0.3110707 1907997 female
-2.308326 0.5415893 0.640686 -0.4093664 0.8425 0.3501613 13941678 female
-2.340338 -0.4418415 0.3418671 -0.6577564 -0.5023069 0.561288 1775899 female
-2.225385 0.6901851 0.751965 -0.9420698 0.2635581 0.2074648 2303267 female
-2.353335 0.2400097 0.5896969 -0.6308247 -0.1351361 0.7640671 12435658 female
-2.394391 -0.01972754 0.6183423 -0.4765782 0.1108038 0.8721214 2237738 female
-2.406329 -0.5910518 0.3771504 0.6129982 0.1205967 -0.7808263 1842462 female
-2.210683 0.5610796 0.7379671 -0.9313905 -0.3523203 0.09155431 15194054 female
-2.362152 0.3610012 0.6017974 0.7843132 -0.6087412 0.119528 14078943 female
-2.15749 0.3641286 0.6480908 0.2754564 0.07992058 0.9579856 14079715 female
-2.163644 0.6376089 0.6407524 0.009260219 -0.07996102 -0.996755 3486510 female
-2.221316 0.6996072 0.7552636 -0.8981762 0.3536789 0.2611338 2433825 female
-2.425146 -0.4674398 0.1926884 -0.8085021 0.5010797 0.3086153 1711650 female
-2.193288 0.7308719 0.6909398 -0.4906672 0.7245663 -0.4839932 5459531 female
-2.15194 0.03643116 0.5250305 0.6739588 -0.1066426 0.7310314 14738419 female
-2.116635 0.621591 0.6631729 0.5923209 -0.1707978 -0.7873906 2235682 female
-2.393128 -0.08926629 0.5365395 -0.1775529 -0.1847727 -0.9666096 1249555 female
-2.36761 -0.5473546 0.2022349 0.9908808 0.09715208 0.09336232 3157292 female
-2.267594 -0.1351525 0.6222844 0.8037453 0.0597087 0.5919698 2171432 female
-2.217709 -0.3350501 0.3924598 0.2785526 0.8212827 -0.4978987 2368805 female
-2.421263 0.0385116 0.3971087 -0.7308457 0.03645064 -0.6815687 13224412 female
-2.082165 0.4784184 0.6011196 0.42202 0.277536 0.8630602 12830157 female
-2.215523 0.3054208 0.3961845 -0.1113278 0.1887662 -0.9756913 7629936 female
-2.107006 -0.129999 0.5072682 0.9383161 -0.07649253 0.3372118 2499624 female
-2.302363 0.5468879 0.6343243 -0.4097416 0.8876578 0.2101794 15586242 female
-2.434997 0.1479123 0.4637339 -0.8642947 0.4164303 -0.2821001 11317691 female
-2.289931 -0.3572827 0.4299479 -0.8078834 0.4112154 0.4221687 2170913 female
-2.419214 0.1229324 0.4208354 -0.7112207 0.3530065 -0.6079075 14278896 female
-2.122725 -0.2641281 0.4836565 0.966726 -0.2163287 -0.1365384 1776155 female
-2.4338 -0.5088345 0.1942297 -0.8602779 0.07370178 0.5044701 11640472 female
-2.218222 -0.328918 0.4102481 0.1301041 0.9068319 -0.4009101 2698281 female
-2.367281 -0.302913 0.5913153 -0.9979836 0.02021132 -0.06016781 2170146 female
-2.042039 0.09833218 0.4421435 0.7533851 -0.4015733 -0.5207204 6842991 female
-2.224663 0.174284 0.6053596 0.2960343 -0.2813857 0.9127901 8158345 female
-2.353257 -0.6764634 0.2116159 -0.4940221 -0.5823357 -0.6456216 1051664 female
-2.081146 0.7033362 0.7176982 0.8761322 0.4133937 -0.247988 2763305 female
-2.124218 0.2983287 0.639238 0.3933726 -0.1232877 0.9110753 15724535 female
-2.21489 -0.09472258 0.5564733 -0.2632778 0.02703215 0.9643412 2170403 female
-2.160928 0.5139439 0.7050794 0.3272049 -0.9397239 0.09927657 16773086 female
-2.444744 -0.06902434 0.5593085 -0.9396609 -0.1781767 0.2920453 2170406 female
-2.396396 -0.7495129 0.5228451 0.07244862 0.6171861 0.7834747 1052688 female
-2.082041 0.2892321 0.5854471 0.913653 -0.3597532 0.1892509 10987951 female
