# .PCD v0.7 - Point Cloud Data file format
VERSION 0.7
FIELDS x y z normal_x normal_y normal_z rgb label
SIZE 4 4 4 4 4 4 4 4
TYPE F F F F F F U U
COUNT 1 1 1 1 1 1 1 1
WIDTH 171
HEIGHT 1
VIEWPOINT 0 0 0 1 0 0 0
POINTS 171
DATA ascii
0.2878715 -0.04250408 1.160269 0.9928986 -0.03276781 -0.1143615 2302243 female
0.3477357 -0.02482256 1.2144 -0.06716517 0.1203314 0.990459 1842718 female
0.1814188 0.7445054 1.038068 -0.8587743 -0.2328994 -0.4563601 13740447 female
0.2872595 -0.02808343 1.155322 0.9709607 0.04083366 -0.2357285 2039329 female
0.3676592 0.007715864 1.013021 0.3270315 -0.2193201 -0.9192111 3355187 female
0.08106324 0.4531309 1.209084 -0.9624853 -0.2624416 0.06889579 526600 female
0.07794394 0.3264754 1.352988 0.9510766 -0.06332418 0.3023959 7434621 female
0.09856275 0.4378347 1.082758 -0.7527983 -0.02372428 -0.6578237 14078950 female
0.2430961 0.4992422 1.055972 -0.2473837 0.5022355 -0.8285897 15002357 female
0.3854487 0.6095871 1.213901 0.4680614 0.6156357 0.6339647 13357015 female
0.08085664 0.4518262 1.20547 -0.9698384 -0.2372116 0.05607169 526600 female
0.1149272 -0.09716716 1.151073 -0.9470668 -0.3093242 0.08592363 2040351 female
0.3867772 -0.2916431 1.205688 -0.653239 -0.7231786 -0.2242578 2104864 female
0.1025915 -0.02198197 1.140454 -0.9692641 -0.04909241 -0.2410745 2565671 female
0.3871637 -0.07036913 1.049504 0.4273392 -0.3501334 -0.8335394 2433829 female
0.45528 -0.2408234 1.281052 0.4188345 0.7352189 0.5329454 2632496 female
0.4575391 -0.4264611 1.322846 0.3829484 -0.6450234 -0.6612831 1777188 female
0.2196836 -0.154131 1.043639 0.2943422 0.1539609 -0.9432172 2171172 female
0.1467842 0.1347679 1.095581 -0.789434 -0.3111343 -0.5291402 12041933 female
0.1555717 0.7546446 1.055104 -0.766875 -0.03403213 -0.6408936 16309454 female
0.5356174 0.3299268 1.248948 0.7166964 0.2703381 0.6428558 10592936 female
0.03598668 0.03988514 1.361109 0.9288154 -0.0640315 0.3649683 526344 female
0.1058824 -0.01189291 1.124321 -0.9198322 0.02952777 -0.3911993 2500135 female
0.3649178 -0.1446143 1.2403 -0.398307 0.2590871 0.8799008 2302243 female
0.4830552 -0.2672718 1.246504 0.9676716 0.1248059 -0.2191695 1776675 female
0.04877283 0.2263419 1.389966 0.8451746 -0.1077236 0.5235223 10921901 female
0.1915803 -0.2117406 1.166014 -0.3097773 -0.4633176 0.830286 2170913 female
0.4174651 -0.3785465 1.28259 -0.5076202 -0.6112934 -0.607159 2170403 female
0.2958058 0.6240548 1.126492 0.2587196 0.6004018 -0.7566914 13086630 female
0.2732265 -0.4607806 1.137818 0.4343021 -0.1840622 0.8817611 2499627 female
0.2036507 -0.7165809 0.9305881 0.0505331 -0.9659006 -0.2539338 658186 female
0.2228588 0.1159194 1.033151 -0.2232 -0.3902174 -0.8932592 10660019 female
0.1533488 -0.1730872 1.163809 -0.748543 -0.4224703 0.5110795 2170145 female
0.1823643 0.2731098 1.290765 -0.1565115 0.001015518 0.9876756 5394007 female
0.2302374 0.6634598 1.098491 0.4532272 -0.4513518 -0.7686785 16772830 female
0.2717341 0.5418691 1.269495 -0.06118242 0.2664649 0.9619008 8883616 female
0.4517382 -0.2517224 1.300331 0.2988451 0.7499515 0.5901393 2500910 female
0.08164933 0.3498602 1.342379 0.9489031 0.01885321 0.3150038 13092816 female
0.4031605 -0.02961001 1.042321 0.5822653 -0.2501951 -0.7735435 2565159 female
0.3036329 0.2710518 1.036654 0.2183709 0.3074802 -0.9261588 15462138 female
0.2059843 0.319708 1.044746 -0.2691576 0.1293148 -0.9543752 13095380 female
0.2195981 0.4123178 1.051291 -0.3383503 -0.3377256 -0.8783283 14017005 female
0.1040664 0.2007142 1.159094 -0.9842279 0.01951476 -0.1758256 6908784 female
0.2833056 -0.3597554 1.065438 0.7586679 0.1870584 -0.6240448 1907741 female
0.1384801 0.02022175 1.096085 -0.5595459 0.2578368 -0.7876729 2171688 female
0.1838169 0.6563855 1.120179 -0.7179595 -0.2242592 -0.6589704 16707037 female
0.09657724 -0.01199227 1.181176 -0.9921359 -0.1244 0.01381394 2829099 female
-0.01497002 0.236975 1.365378 -0.99961 0.003256223 -0.02773656 12436430 female
0.236107 -0.1711147 1.186829 0.4231955 -0.3705484 0.8268007 2171433 female
0.2654225 -0.4284158 1.145864 0.3400008 -0.1183156 0.9329528 2499883 female
0.3676947 0.5558395 1.105983 0.3247736 0.1474141 -0.934233 14078942 female
0.2086978 -0.2866023 1.141825 -0.2474608 -0.07859443 0.965705 1710882 female
0.5965595 0.1899395 1.130592 -0.8381329 -0.199746 -0.5075774 527376 female
0.2697102 -0.6987444 1.076173 -0.721571 -0.0866279 0.6868995 13151655 female
0.3024299 0.1515283 1.296508 0.5547263 0.2475459 0.7943549 6909570 female
0.1098842 0.6264592 1.230629 -0.4314792 0.7618905 0.4830616 13948130 female
0.05102398 0.2212082 1.367338 0.9250121 -0.322721 -0.2005087 6184806 female
0.448826 0.4141306 1.183318 0.04077639 -0.2475998 -0.968004 13684960 female
0.2518458 0.02884741 1.056824 -0.8882004 -0.1928445 -0.4170265 2698031 female
0.2970452 0.6571165 1.208536 0.3056573 0.7851602 0.5386066 15979201 female
0.07526533 0.3358456 1.315717 0.7689705 -0.4196584 -0.4822563 6776949 female
0.01997554 0.1296627 1.369869 0.7027922 -0.2067016 -0.6807038 11449283 female
0.1200379 -0.003277204 1.263867 -0.7473354 -0.2874593 0.5990467 2171687 female
0.4953241 -0.331879 1.311141 0.9993942 0.005932278 -0.03429525 1776155 female
0.2568156 0.7349797 1.050685 0.7529504 -0.2753325 -0.5977103 16244433 female
0.01124034 0.4156491 1.278654 -0.9567897 -0.06674322 -0.2830175 11581376 female
0.04750199 0.4637283 1.316658 -0.2674167 0.4768272 0.8373315 15198199 female
0.2505884 0.1159037 1.325273 0.1613419 0.02010978 0.9866937 6711154 female
0.1624789 0.8764622 1.153705 -0.6868135 0.6638824 0.2958841 2170913 female
0.2184744 0.2920721 1.037721 -0.1325413 0.1285788 -0.9828023 15134462 female
0.6894633 0.06588316 1.07454 -0.87476 -0.3830561 -0.296754 593161 female
0.4326244 0.1330812 1.098044 0.9490139 0.2676854 -0.1664844 12041157 female
0.2134885 0.6982219 1.198359 -0.09766959 0.3323871 0.9380722 15126213 female
0.2798197 -0.003168734 1.145573 0.9063223 0.151604 -0.3944567 789516 female
0.3465819 0.2448578 1.217068 0.5985987 0.4181736 0.6832353 13752302 female
0.3877908 -0.3515024 1.351846 -0.9310458 0.09192021 0.3531352 1776161 female
0.3893631 0.4467901 1.209043 -0.7926364 -0.5001296 -0.348709 526600 female
0.3864613 0.5176038 1.152015 -0.1789511 -0.8628643 -0.4726963 526344 female
0.2673128 0.06399576 1.318383 0.3218418 -0.1520762 0.9345003 2698289 female
0.1029696 0.2234967 1.171374 -0.9912289 0.06188247 -0.1167724 4014924 female
0.220681 0.6686056 1.216271 0.01238121 0.677326 0.7355789 16772576 female
0.1950242 -0.1076539 1.048009 0.04049863 0.182863 -0.9823039 2170401 female
0.425485 -0.5498185 1.503877 -0.9188966 0.2403828 0.312802 14072242 female
0.3827004 -0.3132321 1.312968 -0.9733675 0.09766662 0.2074057 1973793 female
0.265527 0.01784517 1.041084 -0.7583054 -0.2113453 -0.6166896 2697006 female
0.4699024 -0.2285527 1.2333 0.9050427 0.4028505 0.1364154 2236706 female
0.09174513 0.4863296 1.236993 0.8342857 -0.5074628 -0.2155199 526600 female
0.2833501 -0.2218203 1.110053 0.9630996 0.02470496 0.268009 2170657 female
0.2028876 0.3537141 1.053428 -0.3792389 0.1809772 -0.9074278 15858175 female
0.2910837 0.6525412 1.151383 0.5095097 0.6463826 -0.5679696 16439750 female
0.3620293 0.6252102 1.21368 0.4294774 0.718843 0.5466387 13949924 female
0.4156471 0.5666592 1.132328 0.4197799 0.08723658 -0.9034238 9408407 female
0.3062849 -0.4509855 1.086887 0.9975123 -0.01053761 -0.0697007 1841951 female
0.4665456 -0.5329198 1.467532 0.9322748 0.3600364 0.03518058 1645081 female
0.07864048 0.3642812 1.29538 0.7766532 -0.4068012 -0.4809601 3487546 female
0.6768636 0.1296566 1.063055 0.812909 -0.170046 0.5570128 4471867 female
0.2239414 -0.3617896 1.151551 -0.2055981 0.004268712 0.9786272 2172969 female
0.1767196 0.2920558 1.288707 -0.2390047 0.03550846 0.9703689 8683658 female
0.4134283 -0.5921726 1.429402 -0.8401818 0.06892506 -0.5379069 15388108 female
0.113491 0.3820683 1.248592 -0.8487142 -0.1476472 0.5078232 723726 female
0.3443508 0.3200566 1.077799 0.7096518 0.2020776 -0.674951 13619415 female
0.2853536 0.8579159 1.155521 0.8670647 0.4251174 0.2597575 3420204 female
0.1897456 0.7621507 1.018935 -0.708424 0.4296814 -0.5599189 14728888 female
0.4094042 0.1435347 1.045203 0.8005071 0.2183414 -0.5581356 9080725 female
0.4206737 -0.6355339 1.462304 -0.5041562 -0.4152033 0.7572534 3025194 female
0.3627726 -0.1695805 1.097776 -0.1240434 -0.6043496 -0.7870038 2565929 female
0.2670576 0.1713438 1.009152 -0.09758608 -0.1413372 -0.9851399 13554406 female
0.1507585 0.4970308 1.302037 -0.2133919 -0.03252767 0.976425 6974067 female
0.2794147 -0.2714142 1.066146 0.8707637 -0.0104971 -0.4915897 1644827 female
0.1031702 0.4330622 1.078145 -0.6850101 -0.1212706 -0.7183694 9672361 female
0.4046224 -0.055232 1.05472 0.593132 -0.2890309 -0.7514356 2565415 female
0.4188641 -0.4118094 1.314906 -0.5451998 -0.5977132 -0.5877891 2039073 female
0.104578 0.1878091 1.156392 -0.9798003 -0.01096787 -0.1996773 11644610 female
0.2776187 -0.06783864 1.156679 -0.8971028 -0.2735264 0.3469724 1776416 female
0.0970213 0.1151455 1.236957 -0.9869593 0.02362676 0.1592269 6842481 female
0.4274899 -0.2531057 1.304928 -0.1038196 0.7503217 0.6528696 2632239 female
0.1849915 0.7183742 1.040877 -0.6789558 0.1452784 -0.7196619 11371140 female
0.255987 0.4563859 1.286759 0.2964448 -0.05639207 0.9533837 13951735 female
0.09038876 0.4767884 1.256179 -0.6967392 -0.3704824 0.6142453 1381653 female
0.2779825 -0.1484488 1.143003 0.9734644 -0.08095966 0.2140388 2301475 female
0.4584997 -0.5139409 1.456813 0.8720262 0.3980227 0.2848653 2171172 female
0.2242908 0.8887203 1.062416 0.1831816 0.8262821 -0.5326372 2696225 female
0.1342292 0.02845325 1.102251 -0.5969051 0.2698517 -0.7555689 2171945 female
0.4468086 -0.4865893 1.373554 0.2579211 -0.6497929 -0.7150146 2434597 female
0.1474634 0.3195626 1.275224 -0.5444982 -0.1462874 0.8259066 10657960 female
0.2464519 0.1860014 1.01364 -0.125006 -0.07583086 -0.9892538 8159889 female
0.1851378 0.6929919 1.18503 -0.6975126 0.3389257 0.6313522 12495262 female
0.690753 0.0640635 1.079301 -0.6659932 -0.6534674 0.3597687 2632494 female
0.3291004 0.5579986 1.089705 0.1887434 0.4298654 -0.8829449 12961487 female
0.2968006 -0.4099379 1.068763 0.820078 0.1371992 -0.5555615 1644571 female
0.2519292 0.6632727 1.111616 0.5741306 -0.1614208 -0.8026938 16772829 female
0.1913821 0.3657365 1.063303 -0.4351819 0.2358915 -0.8688912 14278118 female
0.3672461 -0.008352261 1.016926 0.3145665 -0.2545097 -0.9144795 9144715 female
0.4637445 -0.3589196 1.385535 0.4671392 0.4085011 0.7841606 2171945 female
0.207325 0.6845128 1.040721 0.14818 -0.5359494 -0.8311444 16441813 female
0.461969 0.3684058 1.202553 0.0001512911 -0.1907142 -0.9816456 12765651 female
0.3716176 0.4982685 1.10368 0.8573137 -0.2037649 -0.4727505 5066319 female
0.2255015 0.7836543 1.213257 0.06612053 -0.2280854 0.9713933 3683376 female
0.2940989 0.8201784 1.147536 0.9793209 0.02103591 0.2012161 2761762 female
0.3078287 -0.6709178 1.057586 0.9221497 0.2755284 -0.2715217 2631207 female
0.2562703 0.8508929 1.201186 0.4449477 0.373322 0.8140345 5459531 female
0.09645485 0.1539161 1.21534 -0.9997454 0.0224708 -0.002007808 11581890 female
0.1709267 0.687699 1.166873 -0.9211853 0.1088379 0.3735934 12297627 female
0.6730731 0.1139821 1.091461 -0.02860565 0.4556491 -0.8896997 526344 female
0.2390232 -0.6613098 1.009117 -0.7880862 0.6129217 -0.05698385 3421488 female
0.3457045 -0.2164135 1.207912 -0.9362748 -0.311121 0.1630742 2105377 female
0.2340704 -0.2359996 1.15341 0.3701392 -0.2446582 0.8961803 2565929 female
0.4131888 0.2171763 1.110038 0.9305745 0.35095 -0.1042364 13554913 female
0.08517437 0.4329311 1.223809 -0.9410284 -0.2339922 0.244363 526600 female
0.282125 0.2485164 1.265402 0.5329227 0.3870405 0.752458 13818859 female
0.1578192 0.04513916 1.097224 -0.3471349 0.3607192 -0.8656668 2303017 female
0.1688533 0.6213421 1.138533 -0.621132 0.1911863 -0.7600282 16112332 female
0.2451814 0.1768879 1.013303 -0.1401275 -0.1413361 -0.9799941 13027036 female
0.3046466 -0.4414332 1.102154 0.9712147 -0.03416703 0.2357429 2170660 female
0.4141646 0.1731661 1.071976 0.8924136 0.2158721 -0.3962288 14278378 female
0.1227828 -0.1248939 1.13009 -0.9539056 -0.2985667 0.03036467 1841948 female
0.2903349 -0.6727313 1.010851 0.8528515 0.251566 -0.4575575 9077376 female
0.2246228 -0.2631061 1.147711 0.1278797 -0.1684379 0.9773819 2434858 female
0.3832577 -0.2158771 1.264663 -0.3749523 0.2395868 0.8955495 2170403 female
-0.01393344 0.2579684 1.367435 -0.9721997 0.110316 0.2065386 8553352 female
0.192537 0.1399568 1.038514 -0.3864165 -0.3100616 -0.868645 11120317 female
0.1892347 -0.7226434 0.9523301 -0.1837541 -0.9617749 -0.2030357 4276543 female
0.1388793 0.8264645 1.130803 -0.9963113 0.01895783 0.08369225 2302499 female
0.0804162 0.4264071 1.152344 -0.9688347 -0.2476857 0.00333701 15855864 female
0.2093956 -0.01816164 1.070307 0.2026362 0.1980518 -0.9590172 2170401 female
0.1882532 0.668851 1.210649 -0.2457753 0.7779545 0.5782571 16243917 female
0.3721845 0.05763896 1.004638 0.3826074 -0.08206084 -0.9202595 855821 female
0.4170265 -0.7185143 1.380178 0.2643515 -0.9517073 0.1561139 9401711 female
0.07297525 0.6016772 1.23084 -0.5921078 0.6727281 0.4436725 15461621 female
0.2810438 -0.1069302 1.154359 0.9833732 -0.1207622 0.1356234 2171174 female
0.1785534 0.5551386 1.292052 0.160284 0.3371615 0.9277021 14870515 female
