# .PCD v0.7 - Point Cloud Data file format
VERSION 0.7
FIELDS x y z normal_x normal_y normal_z rgb label
SIZE 4 4 4 4 4 4 4 4
TYPE F F F F F F U U
COUNT 1 1 1 1 1 1 1 1
WIDTH 170
HEIGHT 1
VIEWPOINT 0 0 0 1 0 0 0
POINTS 170
DATA ascii
-1.470098 -0.1683896 1.28222 -0.847739 0.05234285 0.5278245 2170660 female
-1.432906 -0.133748 1.334745 0.1748781 -0.3174981 -0.9319939 2105635 female
-1.269884 0.6895643 1.30492 0.5047617 -0.2873828 0.8140189 14730687 female
-1.46715 -0.1792033 1.287091 -0.8192621 0.08100065 0.5676693 2171172 female
-1.420711 0.1032853 1.434129 0.5655566 0.4174841 0.7112332 15198199 female
-1.352961 0.5837277 1.106539 0.3538461 0.7432182 -0.5678202 12632772 female
-1.388969 0.3888189 1.114891 -0.3058368 -0.124634 0.943891 526346 female
-1.307626 0.4000095 1.290473 0.7625582 -0.1720395 0.6236245 11975877 female
-1.345348 0.5256249 1.285883 0.8659618 0.2857784 0.4104155 16249855 female
-1.556495 0.524963 1.269061 -0.9385827 0.2194924 -0.2662436 6710640 female
-1.363863 0.5726735 1.09092 0.09909509 0.6868482 -0.7200137 11909572 female
-1.340681 -0.05555134 1.143422 0.6376494 -0.2629598 -0.7240549 2171688 female
-1.467669 -0.3411336 1.40077 0.6082424 -0.7132359 -0.3483327 2039585 female
-1.302771 0.03044512 1.197081 0.9872031 0.09704197 -0.1265422 2697265 female
-1.426721 -0.02947078 1.481062 0.1663008 0.1335047 0.9769956 2235938 female
-1.420493 -0.2386166 1.497742 -0.1025464 -0.0761138 0.991812 2301475 female
-1.591836 -0.418722 1.397253 0.3880403 -0.8348647 0.3904174 2303014 female
-1.341216 -0.2119973 1.225324 0.8229179 -0.3230571 -0.4673758 1908257 female
-1.363043 0.1111554 1.355775 0.6398774 -0.2197912 0.7363753 14739189 female
-1.25718 0.7117366 1.234529 0.8660023 -0.2664061 -0.4231641 16571342 female
-1.674491 0.2553082 1.375554 -0.8932432 -0.1561739 -0.4215759 6446955 female
-1.41256 0.4537429 1.070876 -0.91495 0.1145379 -0.3869722 12040130 female
-1.298962 -0.00162615 1.21711 0.9985699 0.04176676 -0.03337186 2565927 female
-1.439391 -0.1766858 1.35164 -0.05278905 -0.2596786 -0.9642512 1974566 female
-1.388615 -0.2994144 1.467244 0.509347 -0.7462887 0.4285077 2171689 female
-1.39598 0.2099716 1.095781 -0.8525643 -0.4411249 0.2802551 12894925 female
-1.369877 -0.1461504 1.164793 0.4049293 -0.3921494 -0.8259849 2171172 female
-1.692959 -0.4499888 1.369734 -0.4707681 -0.0585979 0.8803089 1775899 female
-1.450055 0.6422693 1.232658 -0.6156867 0.7081093 -0.3457038 16374217 female
-1.57515 -0.5596424 1.240491 -0.967741 0.2518425 0.007255513 2170913 female
-1.530242 -0.7296215 1.284021 -0.4974755 -0.7592523 0.4195878 8550516 female
-1.349666 0.2231084 1.345252 0.7765771 0.1518551 0.6114475 15068153 female
-1.392247 -0.164221 1.166663 0.1781332 -0.3577465 -0.9166711 2170658 female
-1.390223 0.1610981 1.095164 0.3130045 0.1303477 -0.9407644 14408171 female
-1.346796 0.6613096 1.29857 -0.0936178 -0.4798284 0.8723534 12101271 female
-1.488726 0.582812 1.217256 -0.7037957 0.4301084 -0.565401 15527675 female
-1.55863 -0.2735908 1.419814 -0.629271 0.7716148 0.0928899 2171171 female
-1.376777 0.3274133 1.108308 0.1687494 -0.1598595 0.9726092 6053732 female
-1.453173 -0.03151238 1.481649 -0.04734515 0.07889438 0.9957581 2697257 female
-1.498354 0.3396005 1.379499 -0.3374814 0.03801974 0.9405641 14212329 female
-1.463495 0.2729808 1.392416 0.1025915 0.1944448 0.9755338 15462911 female
-1.435103 0.2560081 1.389216 0.2910925 0.2193847 0.9312011 13884644 female
-1.320425 0.1922161 1.20185 0.9664512 0.0961026 -0.238194 6316395 female
-1.473124 -0.4546984 1.286318 0.3619837 -0.2771657 0.8900264 2170657 female
-1.354035 0.02562489 1.29513 0.3859903 0.2990662 0.8726802 3092020 female
-1.334579 0.641925 1.286325 0.2684103 -0.627113 0.7312217 16379867 female
-1.328785 0.03922889 1.13667 0.7888654 -0.03189074 -0.6137379 592911 female
-1.331206 0.2394603 1.054066 0.7287467 -0.007184777 -0.6847456 6382956 female
-1.415975 -0.08466244 1.13217 -0.1853017 -0.4156162 -0.8904642 2039589 female
-1.568513 -0.5381085 1.238853 -0.9704176 0.2366481 -0.04782568 2171171 female
-1.473958 0.554077 1.426991 0.5681756 0.110851 0.8154069 13159897 female
-1.347446 -0.2654395 1.248547 0.8882203 -0.3505256 -0.2969791 1973536 female
-1.604785 0.1171073 1.445481 0.8426427 0.223741 0.4897889 14017262 female
-1.574093 -0.6578214 1.213339 -0.1196608 0.04275395 -0.9918938 1906973 female
-1.544869 0.1208575 1.158781 -0.8355008 0.1621859 -0.5250087 6909570 female
-1.263209 0.7057834 1.228503 0.7472907 -0.3527845 -0.563116 16768206 female
-1.387592 0.2273419 1.111777 -0.5081583 0.02809013 0.8608055 6316392 female
-1.570096 0.4183852 1.413485 0.3794234 -0.3003826 0.8751047 13027537 female
-1.439304 0.05478204 1.460473 0.2589777 0.2723457 0.9266922 2499625 female
-1.492874 0.6244564 1.343465 -0.3508376 0.8901559 0.2907498 12502215 female
-1.387416 0.3794636 1.114308 -0.2668398 -0.1284842 0.9551379 592909 female
-1.324629 0.1284839 1.148041 -0.7496356 -0.3609659 0.5547523 13028310 female
-1.337074 -0.1670644 1.205517 0.7721481 -0.3400224 -0.5368166 1973537 female
-1.57412 -0.2938678 1.435622 -0.6899773 0.5230545 0.5003451 1973537 female
-1.370148 0.7754308 1.320928 -0.875574 -0.4716906 0.1042983 10653062 female
-1.369391 0.3375205 1.030962 0.3275922 0.0422039 -0.9438761 11251891 female
-1.365784 0.3528588 1.033448 0.3626482 0.03141638 -0.9313964 4145736 female
-1.505713 0.08877447 1.112899 -0.5296611 -0.03638157 -0.8474288 6711154 female
-1.325117 0.8001423 1.166158 0.1647288 0.08096011 -0.9830106 2565671 female
-1.500137 0.2720504 1.389077 -0.2673469 0.2527058 0.9298739 15133945 female
-1.655296 0.05209605 1.429083 -0.9947686 -0.01579582 -0.1009255 14600904 female
-1.597171 0.04225278 1.272533 -0.8703569 -0.3546459 -0.3416213 2699321 female
-1.426473 0.6610413 1.221875 -0.6769577 0.5532787 -0.4853976 16243662 female
-1.278885 0.7092167 1.213959 0.517457 -0.3334958 -0.7880474 16575448 female
-1.560892 0.3905983 1.298661 -0.9903631 -0.06307478 0.1232982 4278354 female
-1.413275 -0.3022598 1.402898 0.5602861 -0.5369582 -0.6306785 1841948 female
-1.567828 0.4887485 1.32927 -0.3347479 0.07489514 -0.9393266 13289169 female
-1.5341 0.451864 1.353852 0.6677799 -0.5193816 -0.5332097 526600 female
-1.51451 0.03781251 1.127429 -0.648621 -0.2109142 -0.7313043 2698289 female
-1.318555 0.1854676 1.204436 0.971411 0.08594464 -0.2213009 12633300 female
-1.383254 0.6402064 1.190927 0.3220341 0.5209712 -0.7904955 11706257 female
-1.427024 -0.1851308 1.317563 -0.3162765 0.06647841 0.9463349 2236707 female
-1.765394 -0.5313482 1.338734 -0.8134906 -0.5681294 -0.1243466 591625 female
-1.418505 -0.2880307 1.386546 0.3781794 -0.2867123 -0.8802139 2170913 female
-1.420168 0.03933028 1.458725 0.3847666 0.2788483 0.8798854 3946557 female
-1.483402 -0.2545234 1.468573 -0.5646188 0.6037589 0.5627439 2368037 female
-1.31173 0.5134588 1.063101 0.6219236 0.3879555 -0.6802216 7237234 female
-1.37872 -0.08134735 1.131971 0.2475573 -0.3797132 -0.8913659 2105377 female
-1.456998 0.2539545 1.395827 0.1559437 0.243327 0.9573263 15200247 female
-1.493276 0.6249301 1.275588 -0.6581143 0.7082946 -0.2553515 13358051 female
-1.55074 0.5676715 1.325547 -0.9365566 0.3488637 -0.03399785 15331579 female
-1.460298 0.5061332 1.400444 0.5131651 -0.5480173 0.6605594 11251644 female
-1.500219 -0.3398601 1.253118 -0.8425561 0.5374807 0.03483921 2303273 female
-1.718419 -0.5802754 1.396462 0.4079286 0.6435753 0.647615 16375253 female
-1.344576 0.3994804 1.117279 0.501942 -0.3071129 0.8085393 14474993 female
-1.609955 0.1675342 1.421499 0.9885004 0.05816423 -0.139585 6842480 female
-1.348053 -0.2828737 1.278031 0.9447016 -0.3214453 0.06489923 2169889 female
-1.35804 0.1574049 1.112974 0.6300567 0.1254569 -0.7663479 11448508 female
-1.71305 -0.5423264 1.308952 0.2578293 -0.3850878 -0.8861328 986895 female
-1.504845 0.281968 1.159106 -0.8438096 -0.08407366 -0.5300159 15197175 female
-1.514907 0.3531889 1.372185 -0.4963067 0.04422679 0.86702 8357257 female
-1.415589 0.8050763 1.272512 -0.8558792 0.1878407 0.4818574 3090983 female
-1.286088 0.6605182 1.305918 0.4279369 -0.2960575 0.8539438 15257536 female
-1.57708 0.006417221 1.386288 -0.902301 -0.3409317 0.2638532 2368549 female
-1.678887 -0.5915231 1.370155 0.7673959 0.5048959 0.3952009 15716299 female
-1.509893 -0.3402146 1.356042 0.504789 -0.2775209 -0.8174168 1842464 female
-1.458014 0.1500675 1.43254 0.3301473 0.2358993 0.9139772 14739704 female
-1.41804 0.5822661 1.111853 -0.3968853 0.599437 -0.6950952 16119551 female
-1.455387 -0.3979513 1.297239 0.2078616 -0.2019837 0.9570768 2170913 female
-1.31146 0.3891173 1.291744 0.7310941 -0.329526 0.597423 14674167 female
-1.434461 -0.03913297 1.482365 0.08768779 0.101298 0.9909841 2565671 female
-1.552214 -0.3871403 1.359509 0.5670573 -0.656616 -0.4972942 1382427 female
-1.32959 0.1868186 1.164523 0.9132923 0.1721362 -0.3691426 5594984 female
-1.365532 -0.04298935 1.370615 0.9665794 -0.06067897 -0.2490831 1973279 female
-1.316025 0.1018433 1.16554 0.9638761 0.05394367 -0.2608313 15133437 female
-1.515421 -0.2732804 1.376766 -0.1438456 0.6908315 -0.7085621 2303529 female
-1.250877 0.7740079 1.304975 0.8025694 -0.1689663 0.5721301 16246750 female
-1.496736 0.4195239 1.134064 -0.7787845 -0.07275403 -0.6230582 15593469 female
-1.330877 0.5765197 1.124185 0.6534736 0.7534192 -0.07301989 14212066 female
-1.448511 -0.1371891 1.302049 -0.5623881 0.03065603 0.8263049 7170929 female
-1.712696 -0.5970113 1.411083 0.4418739 0.7070292 0.5521385 15188661 female
-1.278948 0.8563478 1.28015 0.4561606 0.8125126 0.362961 2696225 female
-1.363516 0.02838271 1.297314 0.3000667 0.2416819 0.9227946 3486781 female
-1.6173 -0.4388495 1.370211 0.5945303 -0.8021955 0.05491814 2104608 female
-1.373219 0.2644393 1.128736 0.5684769 0.05699493 -0.8207226 13487821 female
-1.322098 0.3021891 1.275557 0.9811137 0.04296644 0.1885998 7697536 female
-1.407298 0.6694181 1.207606 -0.5257052 0.3064141 -0.7935643 16772062 female
-1.65071 0.0555081 1.420167 -0.5679595 -0.1398592 -0.8110865 11708844 female
-1.423593 0.6082602 1.333516 0.5127146 0.5412436 0.6664676 16044739 female
-1.505319 -0.5139433 1.278945 0.2436209 -0.2562345 0.9354104 2367780 female
-1.388507 0.7991168 1.304768 -0.603469 0.09073149 0.7922077 2762533 female
-1.456071 0.2438641 1.399394 0.162878 0.2781185 0.9466366 5461597 female
-1.40213 0.08465825 1.425561 0.7037394 0.4154876 0.5762993 11646913 female
-1.63238 -0.4015335 1.325769 0.1870655 0.02424171 -0.9820483 1776669 female
-1.311308 0.6985185 1.326769 0.04984746 -0.2166183 0.9749829 16244686 female
-1.587788 0.4053653 1.415256 0.2565666 -0.1799832 0.9496208 12435143 female
-1.409725 0.4021378 1.413666 0.01044069 -0.2912982 0.9565753 14607343 female
-1.400957 0.7201726 1.203022 -0.6555454 -0.3715968 -0.657401 1776411 female
-1.38915 0.8240914 1.296556 -0.6128599 0.3659241 0.7003586 2893604 female
-1.586896 -0.6327747 1.250597 -0.6383817 0.1690002 0.7509379 1841951 female
-1.416048 0.8330608 1.230582 -0.8578635 0.4915065 -0.1499716 5459531 female
-1.312855 0.1393073 1.225053 0.9895867 -0.1416293 -0.02567937 5857641 female
-1.359744 0.7085379 1.192187 -0.190258 -0.3341502 -0.9231173 2894631 female
-1.646757 0.07932755 1.446658 -0.6592624 -0.02813134 0.7513866 5265247 female
-1.499598 -0.6967797 1.256945 0.7127296 0.5804022 -0.3938905 11903642 female
-1.397788 -0.163911 1.357667 0.5063087 -0.2186127 -0.8341822 2566186 female
-1.458068 -0.2859164 1.228936 -0.8038644 0.2272926 -0.5496727 2303531 female
-1.601598 0.03350995 1.353094 -0.955085 -0.261442 0.1395016 2697257 female
-1.414431 0.5065876 1.074877 -0.6418094 -0.0001268315 -0.7668642 14278889 female
-1.503143 0.3253519 1.151668 -0.8067134 -0.1209391 -0.5784351 14607351 female
-1.307592 -0.08488002 1.212829 0.9520469 -0.1875955 -0.2416912 2499624 female
-1.467706 0.4941992 1.390905 0.06193548 -0.6481853 0.7589597 527376 female
-1.391757 0.1120983 1.384498 0.7347067 -0.002401726 0.6783806 11448254 female
-1.53866 -0.460465 1.278073 -0.6859869 0.07225997 0.7240169 1710362 female
-1.598637 0.02111436 1.325456 -0.8936273 -0.4432689 -0.07030502 2499878 female
-1.323097 -0.08013184 1.175404 0.8063464 -0.2498677 -0.5360706 2367780 female
-1.532987 -0.6947768 1.291945 -0.1946826 0.3452605 0.9180925 14205376 female
-1.461636 -0.2319719 1.225351 -0.8510838 -0.08023126 -0.5188635 2172201 female
-1.468207 -0.2176393 1.424944 -0.9599479 0.03098781 -0.2784598 2499881 female
-1.304135 0.1530847 1.096183 0.4632719 -0.3625411 -0.8086675 12040376 female
-1.354357 0.251445 1.343773 0.7765085 0.04268392 0.6286594 5724001 female
-1.431288 -0.760834 1.267508 0.05622575 -0.8867092 -0.458896 2368034 female
-1.29418 0.8156712 1.180925 0.482769 0.2691547 -0.8333606 2039327 female
-1.30615 0.3559335 1.242309 0.5681273 -0.7897801 0.2312547 11843786 female
-1.36257 -0.03808635 1.312972 0.3424498 0.06065945 0.9375759 2170403 female
-1.32999 0.6330612 1.269701 0.7125713 -0.6866356 0.1441307 16774115 female
-1.516569 0.02274176 1.464443 -0.4481614 0.04022421 0.8930473 2106152 female
-1.663413 -0.6182578 1.371874 0.8601439 0.4687104 0.2011541 15650752 female
-1.301968 0.4716174 1.170627 0.9955123 -0.04608785 -0.08265106 4474188 female
-1.472197 -0.113944 1.280177 -0.8124753 -0.02018638 0.582646 1776675 female
