# .PCD v0.7 - Point Cloud Data file format
VERSION 0.7
FIELDS x y z normal_x normal_y normal_z rgb label
SIZE 4 4 4 4 4 4 4 4
TYPE F F F F F F U U
COUNT 1 1 1 1 1 1 1 1
WIDTH 170
HEIGHT 1
VIEWPOINT 0 0 0 1 0 0 0
POINTS 170
DATA ascii
0.2060746 -0.1738131 0.9358531 0.9676703 0.06935813 -0.2424947 2171429 female
0.2327823 -0.06715028 0.8593982 -0.06538203 -0.4042977 0.9122875 1974048 female
0.08737742 0.6757687 0.8044779 -0.2172744 -0.9738996 -0.06566115 14075575 female
0.2056974 -0.1847298 0.9330789 0.9536749 0.09158867 -0.2865586 2039331 female
0.2026135 0.107406 0.7185597 -0.2887018 0.3537982 -0.8896505 6710897 female
0.05089586 0.5792313 1.025571 -0.2063797 0.3070597 0.9290435 10394275 female
-0.01561304 0.3370281 0.9415637 0.312122 0.06767613 -0.9476286 16119294 female
0.074744 0.3747768 0.8230164 -0.6628788 0.1352437 -0.7364109 15002619 female
0.172108 0.5258811 0.7860757 -0.2539855 0.5046539 -0.8251157 15331059 female
0.244878 0.6324975 0.9410484 0.3466639 0.6250317 0.6993994 15528953 female
0.03904266 0.5567277 1.029399 -0.1408285 0.1232951 0.9823267 8158084 female
0.04607544 -0.09820155 0.9796981 -0.8619157 -0.2689754 0.4298298 2040351 female
0.2299427 -0.3229711 0.7175403 -0.9185433 -0.2935612 -0.2647643 1973534 female
0.0226845 -0.03244375 0.9421726 -0.98858 -0.145942 0.03755592 2565671 female
0.2200513 -0.03541331 0.6826072 -0.07641751 0.08996486 -0.993009 2169889 female
0.3225601 -0.2794161 0.748908 0.8135403 0.3629254 0.4543538 2565417 female
0.3455227 -0.5491305 0.7133589 0.9081214 -0.04688655 -0.4160735 1579808 female
0.06857011 -0.202503 0.9291879 -0.9165146 -0.3482815 -0.1967258 2039072 female
0.09425868 0.1033449 0.803606 -0.6260279 -0.4133213 -0.6612523 13488603 female
0.0380274 0.7521452 0.8147892 -0.9664934 -0.1612743 -0.199703 16571342 female
0.3868363 0.2647507 0.954067 -0.4419483 -0.1353832 -0.8867655 14607351 female
-0.06407371 0.1473216 0.6856472 -0.003332025 -0.9979417 -0.06404048 1512982 female
0.03233478 0.03402557 0.8897551 -0.8271264 0.07585493 -0.5568734 2697265 female
0.2182748 -0.217856 0.7915125 -0.4926356 -0.2424491 0.8357802 2171945 female
0.236441 -0.2488947 0.6681752 -0.1279143 -0.1291941 -0.9833345 2106152 female
-0.01875169 0.2645954 0.9099169 0.8609509 0.1292203 -0.4920018 9671837 female
0.1584659 -0.2615937 1.017495 0.07906198 0.1662866 0.9829028 2566702 female
0.307164 -0.5268198 0.6878057 -0.2101446 -0.06414503 -0.9755638 2499623 female
0.2535779 0.6550537 0.9044809 0.4890644 0.8200039 0.2973374 11837851 female
0.2618195 -0.5116231 1.039645 0.8218666 0.1367242 0.5530295 2697775 female
0.2260901 -0.7285193 0.9574202 0.3973656 -0.9149659 -0.07027103 591624 female
0.1205342 0.1625418 0.7709971 -0.3819788 -0.2120447 -0.8995162 10462391 female
0.1236221 -0.2067867 1.014719 -0.2443867 -0.1404182 0.9594571 1973793 female
0.04571853 0.1980126 1.017681 -0.7775658 0.1868274 0.6004056 13555678 female
0.1285248 0.6830698 0.8161648 0.4980323 -0.7299011 -0.4681967 13680298 female
0.4166733 0.07416514 0.9031608 -0.2116465 0.6110206 -0.7627971 15387339 female
0.2508398 -0.2897228 0.7772468 -0.1871141 -0.1492377 0.9709359 2170913 female
0.0101304 0.3441145 0.9631249 0.944563 -0.1571779 -0.2882636 7894136 female
0.2202353 -0.01333086 0.6851743 -0.06676525 0.1285774 -0.9894495 2433829 female
0.1904324 0.3780591 0.7828988 0.1315929 -0.1432377 -0.9809007 13687019 female
0.1884085 0.3354402 0.7813117 0.149659 0.04392185 -0.9877617 14014692 female
0.1486446 0.2761836 0.7690404 -0.11468 0.1909794 -0.974872 14608116 female
0.02644021 0.228024 0.9089941 -0.9970437 0.05736458 -0.05112021 10725042 female
0.2349503 -0.381077 0.96484 0.6925415 0.1136007 -0.7123771 1709850 female
0.04339137 0.008223227 0.8770134 -0.7358252 -0.005908579 -0.6771457 2171432 female
0.1015041 0.6430428 0.8553165 -0.741081 -0.2528721 -0.6219764 16773346 female
0.02620817 -0.04212269 0.9649573 -0.953784 -0.1755509 0.2438809 3946300 female
-0.1001235 0.1809106 0.7953991 -0.7831023 0.5378116 -0.3122652 8357519 female
0.1536393 -0.09606571 1.024922 0.3741432 -0.07162088 0.9246012 2303017 female
0.2388999 -0.4451835 1.052578 0.5820308 0.1014971 0.8068076 2433577 female
0.3067908 0.6245118 0.8775233 0.5639317 0.8249617 0.03767369 12961741 female
0.09292084 -0.26202 0.9797086 -0.8674929 -0.2823448 0.4095577 2170913 female
0.4537562 0.1530723 0.9608334 0.9186567 0.2510769 -0.3050086 12170156 female
0.2713471 -0.6756092 1.061028 -0.417495 0.08682946 0.9045212 16308176 female
0.2540256 0.1680448 0.9995869 0.7020295 0.2465043 0.6681244 15132414 female
0.03828809 0.7464457 0.8234716 -0.9706449 -0.2401379 -0.01350309 16768206 female
-0.05556952 0.1863616 0.8786805 0.3804193 -0.8129619 0.4408789 14211304 female
0.3137805 0.4814058 0.8681768 -0.2729177 -0.6257265 -0.7307408 9868961 female
0.2722495 0.07213639 0.7138264 0.3640343 0.2105281 -0.90728 2303531 female
0.2692856 0.5591376 0.8084039 0.04405285 0.08020839 -0.9958042 14473961 female
0.006987492 0.3236894 0.9626685 0.9439313 -0.08976488 -0.3177041 3947332 female
-0.06036639 0.1855453 0.8094879 0.8828176 0.2100538 -0.4201314 12898258 female
0.06021492 0.02041094 1.038368 -0.5921499 -0.1362876 0.7942192 2171687 female
0.3536842 -0.3662336 0.7433801 0.9812908 0.1285231 0.1433532 1973537 female
0.177957 0.7806516 0.8158261 0.7298594 -0.1448521 -0.6680742 13086376 female
-0.05638701 0.4030215 0.9486773 -0.8404479 0.1044846 -0.5317239 14475507 female
-0.02045166 0.4216716 1.017867 -0.1774625 -0.03820484 0.9833857 15198199 female
0.2104413 0.1282202 1.048244 0.4825753 0.07918944 0.8722672 9935534 female
0.06505477 0.8304536 0.9154711 -0.6622685 0.06687252 0.7462764 2697257 female
0.1908132 0.2982419 0.7736701 0.04592808 0.1856825 -0.9815358 15265018 female
0.4416716 0.0597027 0.9576002 -0.9212947 -0.2938028 0.2547465 2697257 female
0.3407889 0.1432641 0.8921841 0.9662488 0.1244083 0.2255789 15068922 female
0.1039096 0.685083 0.9243478 -0.6479496 0.3926311 0.6526884 14204849 female
0.02948064 0.4348666 0.987933 0.9667063 -0.2405075 0.08737877 1711642 female
0.2752651 0.4252312 0.9483413 0.7726166 -0.1869138 0.6067346 6381157 female
0.249008 -0.3566808 0.7703938 -0.7658461 -0.1175527 0.6321875 1973793 female
0.3003085 0.004262294 0.7186782 0.6638005 0.04049835 -0.7468124 1711391 female
0.307826 0.4088157 0.9667964 -0.9410829 -0.3122135 0.1299449 13551567 female
0.2430373 0.1216114 1.02289 0.7068877 0.06111031 0.704681 15661822 female
0.0282386 0.2499108 0.9203646 -0.995551 0.09280337 -0.01630178 4867406 female
0.1329932 0.6737335 0.9465101 0.01932486 0.717734 0.6960492 16704212 female
0.1821407 -0.1771462 0.8991359 0.6444137 -0.03267119 -0.7639788 1052946 female
0.3316994 -0.693332 0.7089826 0.1143521 -0.9912341 -0.06617127 724235 female
0.2081372 -0.2681585 0.7258816 -0.91943 -0.3926057 0.02256883 1973278 female
0.1954476 0.06762024 0.7098073 -0.3305914 0.2693056 -0.9045351 2698289 female
0.2508207 -0.1816206 0.6725376 0.1696517 0.02460973 -0.9851968 1645090 female
0.01825302 0.4980743 0.9598089 0.590431 -0.6659527 -0.4559587 526600 female
0.2035129 -0.2020423 0.9715056 0.9012669 0.08528703 0.4247872 2171945 female
0.1547799 0.3048777 0.7744841 -0.01222946 0.1313731 -0.9912575 10462387 female
0.2749455 0.6450782 0.8913723 0.4946523 0.8597018 0.1274052 12896462 female
0.2705521 0.5669701 0.9631268 0.5679849 0.1973358 0.7990319 15197173 female
0.3274746 0.3626613 0.9626369 -0.7599327 -0.4270633 -0.4900197 12238024 female
0.2470752 -0.3801979 1.016221 0.8985272 0.3188385 0.3016469 2500137 female
0.3457879 -0.6768301 0.6184553 0.810466 0.5504814 -0.2002876 15715527 female
-0.01006735 0.3517148 0.9391626 0.4232067 -0.02450564 -0.9057016 10461109 female
0.4347478 0.2398769 0.9622071 0.8551901 0.1538374 -0.4949586 14213351 female
0.1774482 -0.317938 1.037355 0.1364314 0.4058791 0.9036861 2500394 female
0.1109783 0.3003576 1.031331 -0.1509697 0.04423968 0.987548 8683658 female
0.3264 -0.6300517 0.7544752 -0.4988734 -0.07586284 0.8633482 1777699 female
0.1835283 0.2808542 1.01167 0.6038618 0.06853664 0.794137 7894140 female
0.2617728 0.3283925 0.8083065 0.7054447 0.1748958 -0.6868473 13094359 female
0.1943336 0.841898 0.8748872 0.9765648 0.1868878 0.1067432 3354154 female
0.09846423 0.7223527 0.7695519 0.09513032 -0.3775882 -0.921074 14929346 female
0.3358241 0.02726349 0.8319094 0.9203965 -0.3551995 0.1634124 2302499 female
0.3021412 -0.674166 0.5920475 -0.05585566 0.975791 -0.2114524 14595503 female
0.1697943 -0.1263605 0.7238477 -0.9509952 -0.175053 -0.2548816 2169889 female
0.197761 0.1479908 0.7416487 -0.3719774 0.2967649 -0.8795245 15200255 female
0.1187377 0.5331931 1.039923 0.2105019 0.1634387 0.9638343 15724543 female
0.2087934 -0.297046 0.9383721 0.824867 -0.09349507 -0.557542 1579290 female
0.08115891 0.352884 0.811423 -0.6225983 0.1624589 -0.7654923 15397631 female
0.2919138 -0.0657474 0.7076743 0.6659824 0.02757135 -0.7454578 2170913 female
0.2941641 -0.4996212 0.6921506 -0.5307435 -0.1249531 -0.8382709 2367784 female
0.03648513 0.282129 0.9742087 -0.9309409 0.04894481 0.3618749 14608367 female
0.1656456 -0.0198436 0.7142586 -0.7762347 0.0006776524 -0.6304438 2171945 female
0.05037114 0.1252345 1.026519 -0.7190276 0.02804797 0.6944152 460807 female
0.2477441 -0.3163963 0.7730368 -0.5392048 -0.1208154 0.8334637 2499111 female
0.1344569 0.7647081 0.7650912 0.4290565 -0.01831284 -0.903092 15716803 female
0.1968309 0.4764408 1.012154 0.4562398 -0.002332031 0.8898538 14605287 female
0.01818981 0.558149 1.02577 -0.1757688 0.1990492 0.9640979 11907773 female
0.19183 -0.1261265 0.9050938 0.7933457 -0.06439553 -0.6053559 1777444 female
0.3410493 -0.6725959 0.619571 0.5179169 0.8385682 -0.1690129 14992575 female
0.09977221 0.8895189 0.7873656 -0.03865328 0.8001223 -0.5985902 2696225 female
0.04964726 0.01755713 0.8706455 -0.6642318 0.03028374 -0.746913 2303017 female
0.3357296 -0.572204 0.6997306 0.6834376 0.02213114 -0.7296733 1907229 female
0.04275287 0.2875989 0.9857998 -0.8716031 0.05954376 0.4865825 14475756 female
0.03439016 0.3184483 0.8980281 -0.9891697 0.00345618 -0.1467359 7960962 female
0.1474029 0.714241 0.9245483 0.3446761 0.2562237 0.9030769 5458249 female
0.437913 0.06873966 0.9584876 -0.8428661 -0.4143048 0.343407 1777179 female
0.2407144 0.6596714 0.8796715 0.407662 0.8702582 -0.2765186 14073781 female
0.2367854 -0.4662881 0.9691743 0.3875024 -0.1544381 -0.9088403 1579291 female
0.1919673 0.8423993 0.836866 0.9521235 0.2019645 -0.2295022 2303267 female
0.1416139 0.3168547 0.7764497 -0.09863859 0.09535715 -0.990544 14608379 female
0.1787394 0.1053817 0.7325812 -0.5691468 0.340911 -0.7482323 3223356 female
0.3230762 -0.48875 0.7715198 0.2790128 -0.1595641 0.9469378 2500142 female
0.1166018 0.6976299 0.7819289 0.3177186 -0.4866222 -0.8137897 15521988 female
0.3518012 0.4348215 0.9015992 0.3097183 -0.4016088 -0.8618497 14672112 female
0.2035745 0.4512442 0.7428542 0.1731737 0.1091871 -0.9788203 11778243 female
0.1318925 0.7622469 0.9313626 0.080263 -0.4172263 0.9052514 3486510 female
0.1892227 0.8527324 0.8375377 0.9182582 0.3113186 -0.2447091 2433825 female
0.2803241 -0.6235602 1.026072 0.8806924 0.1855242 -0.435846 1841951 female
0.1730001 0.8623565 0.9129598 0.6347954 0.4442209 0.6322204 5459531 female
0.1396496 0.3153625 1.030802 0.1450138 -0.04491457 0.9884097 14212076 female
0.09339137 0.7189314 0.9107314 -0.5704011 -0.02446708 0.8210018 6313302 female
0.4559501 0.002112764 0.9436573 -0.9883443 -0.1402883 -0.05911744 920843 female
0.2246715 -0.6455342 0.9914862 -0.8827505 0.2514025 -0.3969236 2303531 female
0.2078924 -0.2202408 0.7823925 -0.704387 -0.2579375 0.661292 2368292 female
0.173598 -0.1650549 1.010966 0.5549075 -0.05272523 0.8302396 2302249 female
0.3455008 0.0586653 0.8541747 0.9444094 -0.3076611 0.1159118 2499879 female
0.04083345 0.4934318 1.024451 -0.3993514 -0.2990202 0.8666634 14606830 female
0.179732 0.3264671 1.01736 0.558612 -0.1523124 0.8153242 14013668 female
0.02582602 -0.03476245 0.9126635 -0.9550293 -0.1362065 -0.2633759 2170913 female
0.1891405 0.6221116 0.836138 -0.006419545 0.5321536 -0.8466235 13940395 female
0.1422203 0.05392549 0.8210578 -0.9711384 -0.2170362 0.09892207 2105638 female
0.2570883 -0.409937 1.013179 0.9611334 0.2004067 0.1898942 2171431 female
0.3398471 0.1075899 0.8996924 0.9459749 -0.03280774 0.3225756 12634068 female
0.0525365 -0.1314364 0.9703283 -0.8798888 -0.2837613 0.3811499 1841948 female
0.2516833 -0.6781675 0.9605544 0.5680999 0.4630312 -0.6803416 14205376 female
0.168823 -0.2053029 1.009376 0.4757785 0.001800213 0.8795633 2434093 female
0.3084538 -0.2047316 0.7476554 0.9754791 0.06979378 0.2087331 2171174 female
-0.04982592 0.2205992 0.9270887 0.09904718 -0.7626318 0.6392044 14473707 female
0.08231696 0.2513902 0.7931855 -0.660795 0.1576056 -0.7338328 15201016 female
0.1583449 -0.7404187 0.9229637 0.03147137 -0.997624 0.06128475 658186 female
0.04592707 0.8598379 0.874513 -0.8526542 0.4091726 0.3248978 1907741 female
0.04379908 0.567827 0.8751035 -0.4864638 0.4147168 -0.7690012 15856891 female
0.08080424 -0.06233026 0.8603623 -0.3678887 -0.1886053 -0.9105416 2171174 female
0.09692425 0.6741276 0.9260453 -0.7586384 0.531898 0.3762342 11245705 female
0.2176197 0.1505165 0.7358782 -0.2183121 0.3590071 -0.9074435 14476792 female
0.2610855 -0.6778855 0.6045268 -0.6724306 0.7390748 -0.04006653 16441813 female
0.02628658 0.5802117 0.8930852 -0.4633776 0.4175191 -0.7816387 15001327 female
0.1920605 -0.1740827 0.9093961 0.7754167 0.01228849 -0.6313304 1974559 female
