# .PCD v0.7 - Point Cloud Data file format
VERSION 0.7
FIELDS x y z normal_x normal_y normal_z rgb label
SIZE 4 4 4 4 4 4 4 4
TYPE F F F F F F U U
COUNT 1 1 1 1 1 1 1 1
WIDTH 171
HEIGHT 1
VIEWPOINT 0 0 0 1 0 0 0
POINTS 171
DATA ascii
-3.119335 -0.1293662 -0.4750858 -0.8443748 -0.1738961 0.5067458 2105894 female
-3.239728 0.05148881 -0.5523568 -0.01936572 -0.7419288 -0.670199 2302499 female
-3.119826 0.7743406 -0.3030535 0.05540076 -0.04803769 0.997308 16242894 female
-3.129816 -0.1167391 -0.489872 -0.9267434 -0.1986385 0.3188878 2106409 female
-3.172705 0.07548746 -0.3435914 0.5606771 0.03232609 0.8274033 3552574 female
-3.075984 0.6413623 -0.5606482 0.1134354 0.7379086 -0.6652994 15066357 female
-3.001399 0.4545198 -0.5681454 0.7513869 -0.2314177 0.617951 15199223 female
-3.022619 0.4847645 -0.3832966 0.5815273 0.366071 0.7265109 14610423 female
-3.108606 0.5751832 -0.3757613 0.5740353 0.3728208 0.7290323 16118781 female
-3.30117 0.6155719 -0.4224856 -0.7831913 0.5141121 -0.3497144 16054524 female
-3.080905 0.6343701 -0.5685412 0.03595916 0.6575993 -0.7525091 14607343 female
-2.985682 -0.0005557211 -0.5674101 0.8715208 -0.09649812 -0.4807699 1842720 female
-3.248784 -0.3280446 -0.4354553 0.7117258 -0.3765963 0.5929769 2171425 female
-2.973001 0.04593946 -0.5144444 0.9975194 0.06972832 0.009641795 2369065 female
-3.312755 -0.09744411 -0.3924609 -0.8599043 -0.1492722 0.4881417 2170657 female
-3.319924 -0.2379655 -0.4263155 -0.8971514 -0.003011458 0.4417128 1842468 female
-3.306553 -0.4651616 -0.4420399 0.08686385 -0.2407401 0.9666948 2697264 female
-3.071688 -0.1194101 -0.4324952 -0.3099877 -0.1660918 0.9361203 2171172 female
-3.075165 0.1837788 -0.3527759 0.5817075 -0.2139225 0.7847633 14738672 female
-3.051747 0.7751541 -0.3634358 0.9804685 -0.03120196 0.1941851 16309454 female
-3.407644 0.3026149 -0.3876746 -0.8577192 -0.1012821 -0.5040433 13817312 female
-3.066502 0.4274962 -0.5849315 -0.7443671 -0.3312246 0.5798343 1184015 female
-2.973971 0.05384342 -0.5027596 0.9896519 0.0959259 0.1067112 1775387 female
-3.289696 -0.1850666 -0.498374 -0.5004433 0.02882223 -0.8652894 2368297 female
-3.263822 -0.2720329 -0.392702 -0.1272949 -0.29268 0.9476995 2171945 female
-3.055257 0.3444466 -0.6094835 -0.6504679 -0.2725027 0.7089667 9013390 female
-3.062669 -0.1735306 -0.5787435 -0.1130064 -0.1620747 -0.9802864 2171945 female
-3.268884 -0.4480121 -0.4648428 0.7760484 -0.2460516 0.5806956 2105377 female
-3.236972 0.6339236 -0.3512586 0.2038654 0.6763325 0.7078229 11180953 female
-3.093754 -0.4896632 -0.5432696 -0.9330146 -0.2307486 -0.2761138 2499878 female
-2.917065 -0.7037742 -0.4299337 0.1227541 -0.9902767 0.06544779 658186 female
-3.126482 0.2230278 -0.3259558 0.2122356 -0.00879554 0.977179 9145499 female
-3.048632 -0.1546949 -0.5814162 0.1171333 -0.1680768 -0.97879 2171171 female
-3.058452 0.2419807 -0.601217 0.3710899 0.4199956 -0.8281884 12304337 female
-3.134722 0.6932248 -0.3589761 -0.1288123 -0.5914702 0.7959714 16508372 female
-3.3132 -0.06191858 -0.2477141 0.7916819 -0.009327215 0.6108623 986895 female
-3.350278 -0.3556383 -0.5074798 -0.8736328 0.2409421 -0.422744 2171169 female
-3.03325 0.4149953 -0.5710539 -0.06749889 -0.3786005 0.9230956 12237771 female
-3.295447 -0.06513935 -0.3600032 -0.6710344 -0.1712287 0.7213832 2170913 female
-3.217114 0.3519093 -0.3392559 -0.3449864 -0.0596001 0.9367135 4869202 female
-3.179586 0.2684282 -0.3288699 -0.1164104 0.1204673 0.9858683 15659774 female
-3.137954 0.3746775 -0.3283488 0.1838494 0.1186616 0.9757658 14081260 female
-3.018158 0.2616836 -0.4386847 0.9521719 0.1252647 0.2787068 14805746 female
-3.081862 -0.4920295 -0.5021486 -0.6312882 -0.1720368 0.7562265 1578523 female
-2.991069 0.04591598 -0.4531225 0.8157555 0.1329123 0.5629185 2434605 female
-3.109956 0.6601173 -0.3975404 0.8885433 -0.1739812 0.4245249 16773346 female
-3.00247 0.1204715 -0.5869848 0.8131911 0.1696733 -0.5567147 11645625 female
-2.974109 0.3371808 -0.620828 0.7944586 0.2770748 0.5404304 3684417 female
-3.062329 -0.02607652 -0.6068763 -0.01801611 -0.2868147 -0.9578167 2434086 female
-3.091609 -0.3254878 -0.5677028 -0.7425686 0.1867825 -0.6431984 2172201 female
-3.302905 0.6137813 -0.334838 -0.5292127 0.7685896 0.3594495 12172992 female
-2.986718 -0.1946829 -0.5032165 0.9938434 -0.1105355 -0.007563203 1908257 female
-3.358555 0.1699024 -0.2928228 0.3032789 0.2798724 0.9108751 15660798 female
-3.051324 -0.707421 -0.5541901 -0.01269651 -0.3136174 -0.9494646 15781830 female
-3.134038 0.0982151 -0.6383501 -0.1686714 -0.05867386 -0.9839244 2500910 female
-3.099345 0.65379 -0.5478165 -0.01074191 0.7590141 -0.6509857 13948130 female
-3.050765 0.3287827 -0.6116194 -0.6115222 -0.2672538 0.7447254 12894404 female
-3.295109 0.4391845 -0.3614911 0.926688 -0.3655426 -0.08733859 986383 female
-3.266355 0.01359441 -0.3306249 -0.3939268 -0.05925271 0.91723 6315616 female
-3.268704 0.6352425 -0.3483152 -0.1241272 0.8237646 0.5531766 15001319 female
-2.997856 0.4149137 -0.5872288 0.7991579 -0.1789717 0.5738605 15197175 female
-3.017659 0.2422232 -0.6050034 -0.661581 -0.2198347 0.7169263 9145239 female
-2.977734 -0.0001292154 -0.5503881 0.9434105 -0.06421086 -0.3253515 2171945 female
-3.225185 -0.2648335 -0.5004596 0.66668 -0.202477 -0.717315 2170148 female
-3.266334 -0.7119496 -0.3350132 -0.5895756 0.6647835 0.458763 16242638 female
-2.989495 0.3973696 -0.6144546 0.9575305 0.03738251 0.2858984 3749954 female
-3.034595 0.415886 -0.6584442 -0.01238198 0.2305167 -0.9729896 15067126 female
-3.192946 0.2042955 -0.5967302 -0.4907613 0.3693514 -0.7891343 8884636 female
-3.096766 0.8568623 -0.4628705 0.5631519 0.1788089 -0.8067759 2565671 female
-3.208031 0.2802261 -0.3350111 -0.2179046 0.1037905 0.9704355 6316136 female
-3.377577 0.0833379 -0.2899306 -0.8529558 -0.1469155 0.5008815 5396314 female
-3.247064 0.0638151 -0.5617971 -0.1899404 -0.5866574 -0.7872457 2367268 female
-3.132436 0.7006992 -0.4631074 0.4352314 0.4440127 -0.7832155 14204849 female
-3.068976 0.7380341 -0.3994379 0.80142 -0.3620311 -0.4760877 16377046 female
-3.273649 0.4115133 -0.4822263 -0.8334736 -0.1357043 -0.5356362 8552842 female
-3.191639 -0.1820876 -0.4134608 0.925794 -0.2930451 0.2388094 1908257 female
-3.320687 0.01308398 -0.377726 -0.8361297 -0.09439772 0.5403482 2236706 female
-3.32783 0.350798 -0.3802443 0.9441919 -0.2692045 -0.1898176 10198180 female
-3.205386 0.1720416 -0.6003185 -0.5447191 0.2376771 -0.804233 14606323 female
-3.021433 0.2569222 -0.4266713 0.9393176 0.1043226 0.3268014 15726591 female
-3.160349 0.6920304 -0.4736082 -0.1863621 0.6912236 -0.6981971 16309455 female
-3.063313 -0.1007142 -0.4278859 -0.1849183 -0.1642858 0.9689249 2170914 female
-3.348409 -0.7141764 -0.4383025 -0.9140014 -0.4054076 -0.01568827 4010287 female
-3.250644 -0.3739549 -0.5127026 0.8801206 -0.01212598 -0.4745952 2170913 female
-3.138522 0.03849513 -0.4046126 0.9918389 0.0869754 0.09322472 2105384 female
-3.257318 -0.1886624 -0.3698499 -0.1180201 -0.2903164 0.949625 2171945 female
-3.036691 0.6098807 -0.5844191 0.1046355 0.6063482 -0.788285 13883104 female
-3.059911 -0.08402141 -0.5923239 -0.02817211 -0.1509329 -0.9881425 2499624 female
-3.163235 0.3401116 -0.3282399 -0.103562 -0.06466173 0.992519 14672887 female
-3.27865 0.6480619 -0.3942029 -0.6605623 0.7505522 -0.01813035 14674419 female
-3.313338 0.6043244 -0.4056437 -0.8708904 0.4268658 -0.2435887 15725567 female
-3.288804 0.466986 -0.3643846 0.8949779 -0.3812666 -0.2316252 526600 female
-3.104538 -0.3237325 -0.5160655 -0.9776729 0.02442071 0.2087086 1907229 female
-3.317686 -0.6878163 -0.4219998 -0.3734953 0.8279108 0.4184076 14596531 female
-3.026562 0.4568955 -0.5522651 0.1310718 -0.4037679 0.9054235 11184056 female
-3.354824 0.1604691 -0.2913569 0.3939212 0.2964348 0.8700302 10724791 female
-3.001959 -0.2292123 -0.5491289 0.8083938 -0.02754084 -0.5879975 2039327 female
-3.093076 0.2910889 -0.5865247 0.1286452 0.3219472 -0.9379768 9671577 female
-3.326386 -0.6773123 -0.557139 0.3152961 0.162623 -0.9349557 16371650 female
-3.206876 0.2552009 -0.5610479 -0.49191 0.4567075 -0.7412441 15001844 female
-3.20563 0.4115576 -0.3053919 -0.3303491 -0.6596032 0.6751245 10790322 female
-3.220227 0.8626651 -0.4026648 -0.9700433 0.2311277 0.07480617 3025958 female
-3.128486 0.8122084 -0.3027767 -0.2814465 -0.2409077 0.928844 15983574 female
-3.332872 0.02872051 -0.4640557 -0.9276691 -0.1818273 -0.3261423 2235938 female
-3.297187 -0.7167196 -0.3364002 0.7861803 0.3352191 0.5191807 1052688 female
-3.191978 -0.1539102 -0.3869031 0.8158151 -0.3015307 0.4934824 2169889 female
-3.140293 0.05642654 -0.3858148 0.9010876 -0.1990358 0.3852609 3815743 female
-3.163382 0.5952944 -0.5678231 -0.5253227 0.3866372 -0.7579893 15067638 female
-3.058189 -0.3765041 -0.4821972 -0.0676632 -0.06171356 0.9957978 2170913 female
-3.079304 0.3951251 -0.3638851 0.6302036 0.06088119 0.7740393 9013393 female
-3.254493 -0.04926198 -0.3325679 -0.2558155 -0.1663925 0.9522983 2697001 female
-3.338537 -0.5877498 -0.4828788 -0.8161156 -0.1143726 0.5664577 2038559 female
-3.012822 0.2856289 -0.4863355 0.9886245 0.1430592 0.04642996 14606311 female
-3.158934 -0.06282767 -0.4447436 0.9348403 -0.2269691 -0.2730544 1776161 female
-3.011235 0.1652271 -0.5857134 0.7788462 0.1567904 -0.6073018 11842751 female
-3.360028 -0.3993766 -0.4880486 -0.998113 0.04352593 0.04331269 1579550 female
-3.143312 0.776665 -0.3079747 -0.4339203 -0.1551391 0.8874937 16113356 female
-3.161031 0.4845669 -0.5838362 -0.4247594 -0.07985574 -0.9017774 14804470 female
-3.059109 0.6547048 -0.5314505 0.4259113 0.867401 -0.2573231 11908797 female
-3.135945 -0.05299354 -0.4677688 -0.8332793 -0.2071269 0.5125856 15395821 female
-3.324708 -0.6821106 -0.4362223 -0.5128677 0.7274861 0.4557748 15649477 female
-3.115328 0.9100648 -0.3396313 0.1003018 0.8366897 0.5384144 2696225 female
-2.982996 0.03365099 -0.4614817 0.8885632 0.1010857 0.4474787 2303015 female
-3.255493 -0.4338716 -0.4797685 0.9171489 -0.234255 0.3224319 1973534 female
-3.050291 0.3785671 -0.5568003 0.6944457 -0.05041959 -0.7177765 9869215 female
-3.023109 0.3620821 -0.4634291 0.9915256 0.03612654 0.1247876 3092023 female
-3.179886 0.7349095 -0.450337 -0.6390507 0.05885939 -0.7669092 2893604 female
-3.368805 0.09462021 -0.2786762 -0.5734909 -0.02387742 0.8188639 14407899 female
-3.233264 0.6704696 -0.3905646 -0.3450014 0.8126921 0.4695801 14665654 female
-3.065032 -0.5621241 -0.504906 -0.5657507 -0.1256871 0.814941 1776669 female
-3.14384 0.7006952 -0.3571792 -0.297299 -0.5509784 0.7797666 13943475 female
-3.176169 0.28453 -0.330739 -0.1252592 0.08432434 0.988534 6316397 female
-3.211992 0.05304727 -0.3241007 0.196743 0.05093758 0.979131 2697774 female
-3.300805 -0.4711664 -0.5427282 0.1399498 -0.09350147 -0.985734 2236713 female
-3.170848 0.7546 -0.3375064 -0.7612399 -0.2592167 0.5944077 14996675 female
-3.332528 0.3991761 -0.3271717 0.3792071 -0.2241589 0.8977498 15725567 female
-3.159496 0.4106347 -0.300877 0.1992797 -0.7486592 0.6322951 13356513 female
-3.184775 0.7830906 -0.4634664 -0.496645 -0.447719 -0.7435666 3486769 female
-3.218048 0.8466517 -0.381975 -0.9605141 0.07057443 0.2691319 2696225 female
-3.061813 -0.6717983 -0.511496 -0.8452997 0.05301809 0.5316554 2631207 female
-3.210276 0.8702741 -0.4450693 -0.7804691 0.3639012 -0.5083739 5459531 female
-2.996525 0.1948549 -0.4874206 0.9700135 0.07946369 0.2296941 10133162 female
-3.123161 0.7188187 -0.4534635 0.462974 0.1112685 -0.8793603 13350311 female
-3.378738 0.07700134 -0.3089106 -0.9223797 -0.1111609 -0.3699445 6382699 female
-2.985487 -0.6494323 -0.4818857 0.6532413 0.7527899 -0.08113691 3421488 female
-3.195237 -0.2053461 -0.4564041 0.9643291 -0.2197439 -0.1475877 2236194 female
-3.004029 -0.452665 -0.561066 0.8532647 -0.103538 -0.5110961 1973791 female
-3.337012 0.1136218 -0.4522222 -0.9904291 0.1323837 -0.03904774 10001056 female
-3.108507 0.6111617 -0.5811123 -0.1704865 0.3978437 -0.9014737 15264504 female
-3.183457 0.3205367 -0.5490227 -0.7147073 0.05557596 -0.6972121 7960197 female
-3.072608 0.07027534 -0.4197571 0.01817128 0.02312621 0.9995674 2697260 female
-3.206109 0.6057011 -0.339807 0.3029699 0.4497382 0.8402052 12961745 female
-3.294711 0.1904201 -0.3591132 -0.6935298 0.1203204 0.7103093 722699 female
-3.105827 -0.3891409 -0.5109251 -0.8649966 -0.01256457 0.5016205 2171171 female
-3.32488 0.1058332 -0.5049579 -0.9045295 0.03782494 -0.4247301 14081516 female
-3.017234 -0.1682685 -0.5687805 0.5667367 -0.1222161 -0.8147839 1842209 female
-3.031919 -0.6716769 -0.4712944 -0.7128328 0.0370652 0.7003539 9077376 female
-2.998911 -0.4931444 -0.5333308 0.9951771 -0.08907064 -0.04109601 2105120 female
-3.276918 -0.2531419 -0.5069219 -0.2515931 0.07060827 -0.9652541 2039585 female
-2.950076 0.1572137 -0.6293758 0.6041743 0.004420314 -0.79684 4209473 female
-3.10597 0.2824317 -0.3367441 0.4110835 0.001554069 0.9115964 5724001 female
-2.896718 -0.6985875 -0.4499032 0.7342836 -0.5377853 -0.414264 9401713 female
-3.06022 0.8529353 -0.4143461 0.9225687 0.08514767 -0.37632 2698281 female
-2.998021 0.4842201 -0.4152195 0.8648902 0.3508686 0.3589654 14935023 female
-3.040904 5.717669E-05 -0.4159079 0.23665 -0.0246928 0.9712812 2434342 female
-3.117104 0.6871131 -0.4587125 0.7583892 0.4260254 -0.4933034 12165524 female
-3.244702 0.09985598 -0.328571 -0.1285284 0.1388194 0.9819418 13948908 female
-3.116124 0.05967583 -0.4231155 0.2600792 -0.8483009 0.4612422 2170913 female
-3.032837 0.5257559 -0.5224974 0.7820011 -0.5908833 -0.1983209 526600 female
-3.118998 -0.1125912 -0.467924 -0.79944 -0.198913 0.5668592 13883099 female
-3.193324 0.603697 -0.528502 -0.712858 0.3661312 -0.5981483 15857919 female
