# .PCD v0.7 - Point Cloud Data file format
VERSION 0.7
FIELDS x y z normal_x normal_y normal_z rgb label
SIZE 4 4 4 4 4 4 4 4
TYPE F F F F F F U U
COUNT 1 1 1 1 1 1 1 1
WIDTH 171
HEIGHT 1
VIEWPOINT 0 0 0 1 0 0 0
POINTS 171
DATA ascii
-0.1350298 -0.00127959 1.684604 0.06348337 0.2036182 0.97699 723723 female
-0.176007 0.02000455 1.719501 -0.5101542 -0.8214757 -0.2547945 1579291 female
-0.07084978 0.7025397 1.577576 0.5138869 -0.6825734 0.5196285 14074805 female
-0.1259716 -0.06140498 1.695521 0.1726189 0.1155591 0.9781865 14937076 female
-0.0145036 0.1477769 1.711286 0.8839675 0.4101396 -0.2244704 9934504 female
-0.2352565 0.6203915 1.482956 0.2210109 0.850638 -0.4770422 14935793 female
-0.2733623 0.4055097 1.499555 0.9259281 -0.3074774 -0.2193508 15067127 female
-0.02701352 0.3494647 1.620848 0.9533911 0.2419695 -0.1802671 12238029 female
-0.0498154 0.5405347 1.636467 0.7887533 0.5122802 -0.3397605 15725816 female
-0.238508 0.5562332 1.730512 -0.8677235 0.2262366 0.4425753 15197431 female
-0.2144229 0.6131152 1.487416 0.514023 0.6790872 -0.5240428 14475757 female
-0.159252 -0.1507327 1.565329 -0.2060123 -0.4609495 -0.8631828 1645602 female
0.07482778 -0.3234501 1.708633 0.5644511 -0.1854588 -0.8043631 2171169 female
-0.07332882 0.07969996 1.499822 0.6857132 0.03574191 -0.7269938 12567760 female
0.06795181 -0.06985196 1.742325 0.9010674 0.1024315 0.4214089 2039071 female
0.08358917 -0.1672422 1.730523 0.8991925 0.08905812 0.4283941 2171945 female
0.1200359 -0.47363 1.785505 0.9873391 0.07385335 -0.1403821 2631470 female
-0.05892846 -0.1275914 1.63333 0.9649826 -0.208839 0.1587286 2170920 female
-0.001765978 0.2003254 1.661446 0.99595 -0.06335309 0.06379531 9870257 female
-0.09511293 0.7572484 1.490118 0.3068283 -0.1494986 -0.9399503 16309454 female
-0.1319427 0.272514 1.866675 0.2872472 -0.1792578 -0.9409334 7763067 female
-0.3036017 0.5317349 1.527822 -0.906992 -0.2951975 0.300373 9013905 female
-0.05912659 0.0435641 1.513346 0.7475235 -0.02989457 -0.6635622 2763058 female
-0.02039562 -0.17539 1.759119 -0.5935966 -0.319021 0.7388293 2236706 female
0.08251178 -0.2071222 1.66774 0.640076 -0.1608122 -0.7512937 2235938 female
-0.3167933 0.3723933 1.555488 0.320471 -0.03605124 0.9465721 5393748 female
-0.2115432 -0.1402379 1.598309 -0.8577124 -0.2244871 -0.4625311 2171430 female
0.08192176 -0.4061216 1.733492 0.5193414 -0.1878521 -0.8336643 1973791 female
-0.111488 0.6608934 1.73331 0.3438754 0.9057861 0.247591 10329237 female
-0.2684055 -0.3951485 1.736404 -0.9480817 0.1676054 0.2702765 2500137 female
-0.1735117 -0.7238571 1.741385 -0.2264594 -0.9294152 0.2913823 526600 female
-0.01284287 0.2792725 1.676887 0.9370791 0.2554667 0.2379487 13423068 female
-0.1999869 -0.1279801 1.577261 -0.7038979 -0.3185315 -0.6348744 2170921 female
-0.2356315 0.2052051 1.50864 -0.7164745 0.2242361 -0.6605925 12304337 female
-0.1015347 0.685397 1.610108 0.9511145 -0.1095388 0.28876 16573400 female
-0.07991718 0.1140526 1.867395 0.1289875 0.5633845 -0.8160637 11836832 female
0.01393526 -0.3380178 1.80847 -0.6109831 0.09527773 0.7858891 2171171 female
-0.2645795 0.4295247 1.511017 0.9416611 -0.2863141 0.176914 15198202 female
0.01974151 -0.05473768 1.789784 0.5312783 -0.07487927 0.8438818 2039329 female
-0.05159548 0.4346048 1.728141 0.6145911 -0.4728642 0.631409 12763074 female
-0.1080684 0.3157739 1.776031 0.2790067 0.2636486 0.9233876 13489893 female
-0.07244368 0.2933535 1.765829 0.571934 0.3455503 0.7439667 15198973 female
-0.06604768 0.2233171 1.522619 0.6025903 0.08852074 -0.7931262 15135481 female
-0.2229384 -0.5124381 1.788352 0.4225625 0.01002913 0.9062783 1579291 female
-0.04079291 0.05105989 1.550737 0.9519793 0.08714862 -0.2934969 2698289 female
-0.1386174 0.6548684 1.55663 0.3567346 -0.2778338 -0.8919354 16773345 female
-0.1332605 -0.01433906 1.491088 0.07707218 -0.3211821 -0.943876 2302499 female
-0.2925664 0.3365261 1.480142 0.488526 0.7161275 -0.4985014 15199223 female
-0.2208124 -0.06485075 1.587985 -0.9733686 -0.1985341 -0.1146196 2697257 female
-0.2668657 -0.4216325 1.749418 -0.9075222 0.1172721 0.4032998 2302505 female
-0.14939 0.5997591 1.797307 -0.6049212 0.3837693 0.6977044 15724543 female
-0.08731149 -0.1785562 1.683874 0.8007875 -0.07174845 0.5946357 1974566 female
-0.1127169 0.2238662 1.927674 0.4474138 0.1171559 0.8866202 9409687 female
-0.2750537 -0.6645375 1.777213 -0.6766694 0.1134756 -0.7274901 13414827 female
-0.2672482 0.1504891 1.662365 -0.9698958 0.09341561 0.2248904 7633546 female
-0.2704734 0.6333241 1.543499 -0.6968178 0.7142049 -0.0660024 13948130 female
-0.3323754 0.31925 1.559032 -0.05845482 -0.2151101 0.9748388 7039606 female
-0.09274003 0.5135038 1.842857 0.6498361 0.02680178 0.7596017 8751251 female
-0.03679977 0.07217191 1.826928 0.437324 0.08225347 0.8955345 2303014 female
-0.04955938 0.5755761 1.741915 0.9511629 -0.09575129 -0.2934634 13882595 female
-0.2722607 0.4160359 1.52175 0.8962846 -0.2333971 0.3770936 14606319 female
-0.2449783 0.2365235 1.512544 -0.2428238 -0.7703298 0.5896004 13948384 female
-0.12918 -0.07012244 1.516318 0.07774113 -0.4292461 -0.8998356 2236453 female
-0.001566865 -0.2933958 1.711236 -0.8949208 -0.2028022 -0.3974769 2236706 female
0.1192689 -0.6217912 1.846951 0.3098555 0.3932089 0.8656653 15323593 female
-0.3558681 0.3665605 1.485636 -0.67417 0.05237997 -0.7367164 6908269 female
-0.361974 0.3992704 1.514208 -0.9866207 0.1332323 -0.09396188 4474700 female
-0.2794298 0.1223712 1.62078 -0.9922498 0.009930909 0.1238614 7568005 female
-0.1950289 0.8760457 1.515768 -0.5939524 0.5242728 -0.610212 2170913 female
-0.06400356 0.3550467 1.732871 0.7788082 0.2027891 0.5935776 11777471 female
-0.06311948 0.01441209 1.910961 0.5695267 0.1325209 -0.8112198 1117965 female
-0.2080049 0.215772 1.790985 -0.7035737 0.2736628 0.6558145 14937083 female
-0.1971482 0.712101 1.615696 -0.8551998 0.3168083 0.4102023 10916489 female
-0.0655155 0.74283 1.511615 0.4166579 -0.01120173 -0.9089943 15520963 female
-0.2330119 0.3061408 1.670455 -0.9866278 -0.1092585 0.1209471 14672106 female
0.02913599 -0.3064765 1.691082 -0.2007515 -0.3385097 -0.9192986 1841948 female
0.004271901 -0.03862846 1.801257 0.4441582 -0.1185315 0.8880731 1841949 female
-0.1515904 0.3004128 1.857239 0.107915 -0.2274195 -0.9677989 658444 female
-0.2671548 0.05760459 1.610191 -0.9436294 -0.3221575 0.07601361 2566703 female
-0.05551032 0.2205896 1.530691 0.642896 0.05988671 -0.7636088 14673400 female
-0.2088673 0.6864254 1.589083 -0.7978113 0.5699347 -0.1966508 15519939 female
-0.06922621 -0.1026029 1.664485 0.8073999 -0.05337928 0.5875849 2170917 female
0.2631967 -0.6720536 1.75732 0.2174442 -0.9602758 0.1748955 1181705 female
0.03552726 -0.2115502 1.653477 0.1175488 -0.2508198 -0.9608703 1973536 female
0.003582024 0.1084785 1.693722 0.765783 0.4572788 -0.4521864 2501423 female
0.04214225 -0.2468038 1.783262 0.03941268 0.3548914 0.9340764 2170917 female
-0.3010255 0.5835159 1.476684 -0.8036752 0.5538271 -0.2176734 14935794 female
-0.2065158 -0.1124403 1.577517 -0.8024829 -0.2788468 -0.5275089 2171174 female
-0.07327391 0.2853461 1.770665 0.548583 0.3901112 0.7395065 13883105 female
-0.05776126 0.5911724 1.719046 0.9065678 0.1788116 -0.3823104 15659257 female
-0.2069339 0.6147165 1.743596 -0.6742356 0.4936127 0.5493203 15856637 female
-0.1587483 0.3570187 1.844305 0.3784427 -0.3664887 -0.8499807 11448254 female
-0.2120258 -0.3472496 1.764303 -0.04332036 0.3433509 0.9382076 1973793 female
0.1648941 -0.6127223 1.780464 0.4875003 0.8277896 -0.2776831 15917785 female
-0.1440268 -0.3330419 1.669366 0.7823088 -0.4533961 -0.4271124 1580065 female
-0.1125175 0.2549957 1.922756 0.605714 0.1275988 0.7853847 14476781 female
-0.1001184 -0.2272221 1.620514 0.6457275 -0.4627906 -0.6073391 2104353 female
-0.2433396 0.2580092 1.541231 -0.8733743 0.109037 -0.4746875 9671577 female
0.1299292 -0.6649308 1.806938 -0.03849175 -0.9992241 -0.008337723 920846 female
-0.2712489 0.3944549 1.538752 -0.792093 -0.3348933 -0.5103284 4671055 female
-0.1373146 0.3948229 1.772331 0.1250424 0.0315721 0.9916489 12369348 female
-0.1598271 0.8642471 1.638752 -0.05775901 0.371465 0.9266486 3025958 female
-0.08075961 0.6977014 1.579252 0.4871573 -0.7063773 0.5135258 13154213 female
-0.1337891 0.01767152 1.814024 -0.4382417 -0.5314381 0.7249262 2302499 female
-0.0372593 0.1574551 1.551785 0.790506 -0.2592056 -0.5548989 7633548 female
0.03769682 -0.4111772 1.724357 -0.2406585 -0.3741138 -0.8956128 1579294 female
-0.0916785 0.1738761 1.829278 0.2449976 0.2239505 0.943304 2369579 female
-0.28857 0.6096302 1.564435 -0.838711 0.5223268 0.1540732 15857148 female
-0.1868778 -0.3370953 1.75657 0.3571294 0.2189811 0.9080231 1644569 female
-0.05033974 0.4257835 1.597155 0.9043288 -0.2660158 -0.333804 15133182 female
0.06154847 -0.0142299 1.733246 0.9599199 0.1797099 0.2150771 2564647 female
0.1195945 -0.5413427 1.818505 0.7129151 0.1656846 0.6813961 1907229 female
-0.112874 0.2384538 1.496706 0.4012594 0.198621 -0.8941703 11054772 female
0.005661357 0.01146865 1.647672 0.4768496 0.1059172 -0.8725801 1973278 female
-0.1533849 0.160344 1.46996 0.04030145 0.02646253 -0.9988371 15658742 female
-0.006109036 -0.3258412 1.728815 -0.9188754 -0.1348968 -0.3707705 2237225 female
-0.06076453 0.7949706 1.596274 0.7281537 0.1339267 0.6722022 14140086 female
-0.2991616 0.4792736 1.62053 -0.9371047 -0.08372672 0.3388578 15132406 female
-0.201295 0.5882344 1.47649 0.692838 0.4425721 -0.5693026 13687017 female
-0.08483014 0.02858228 1.665009 0.4143878 0.2860049 0.863993 2499879 female
0.1880118 -0.6327515 1.765814 0.308548 0.865643 -0.3942847 14466996 female
-0.08851336 0.9017168 1.534964 0.4820844 0.8589461 -0.172645 2696225 female
-0.04334143 0.06160758 1.545971 0.9391492 0.1147858 -0.3237638 2698289 female
0.1298708 -0.5345849 1.794349 0.9875212 0.1557061 -0.02361174 2696749 female
-0.1704802 0.3107731 1.497232 -0.0586716 0.07534241 -0.9954301 13027278 female
-0.2729798 0.4090022 1.529758 -0.7336918 -0.4133632 -0.5392839 15196126 female
-0.2001208 0.7291356 1.597403 -0.9866427 -0.02407767 0.1611102 3025446 female
-0.06334884 0.02663377 1.913622 0.8103703 0.1758075 -0.5589201 789257 female
-0.215554 0.6618347 1.651983 -0.7557572 0.5547848 0.347915 14859178 female
-0.2059135 -0.5739315 1.773843 0.8683561 0.1356831 0.4770197 2171945 female
-0.08542581 0.7018831 1.587586 0.5044177 -0.6250764 0.5956864 13022629 female
-0.0879504 0.2776361 1.784649 0.4134383 0.4698856 0.7799206 10857135 female
-0.03272454 0.07608451 1.823529 0.484585 0.1081823 0.8680287 2368808 female
0.05124162 -0.5234622 1.803354 -0.9589891 -0.2499587 0.1336437 2368812 female
-0.09591335 0.7948219 1.626034 0.6365086 -0.02380126 0.7709022 13611950 female
-0.08983931 0.4829848 1.831134 0.9299369 -0.2214197 0.2935826 14934768 female
-0.007906684 0.4745583 1.671664 0.9827868 0.1689846 0.07466079 14083055 female
-0.2156524 0.7722645 1.594241 -0.8616279 -0.4344924 0.2623239 1710362 female
-0.13799 0.8498922 1.641165 0.1513028 0.2300778 0.9613385 2696225 female
-0.1963523 -0.6336166 1.762721 0.7849969 0.4381101 -0.4379947 2893612 female
-0.201811 0.8670551 1.623228 -0.6195734 0.4263323 0.6590672 5459531 female
-0.1104108 0.1811579 1.483961 0.4312805 0.09060436 -0.8976569 3684928 female
-0.205233 0.7820535 1.532455 -0.7299526 -0.4417894 -0.5215279 2171169 female
-0.07990576 0.03431177 1.914019 -0.7748492 -0.3287207 -0.539955 789516 female
-0.1942902 -0.6536241 1.74745 0.3688216 0.6069728 -0.7039564 2762281 female
-0.01946281 -0.1535879 1.653764 -0.4207052 -0.1741404 -0.890327 526344 female
-0.2553515 -0.3344641 1.692221 -0.9409729 0.2919609 -0.1712565 2368805 female
-0.1974355 0.04793815 1.794387 -0.6631511 -0.4930508 0.5631444 2499878 female
-0.2481001 0.6364387 1.50883 -0.2503312 0.8480099 -0.4671333 11909308 female
-0.2450272 0.2527668 1.656318 -0.9165056 0.3509369 0.1919916 15331062 female
-0.0546586 0.0265927 1.522004 0.7764443 -0.07302917 -0.6259401 2763562 female
-0.1014919 0.6441569 1.665616 0.8429766 0.5362085 -0.04325492 16571595 female
-0.02097087 0.1664512 1.758774 0.867109 0.464453 0.1800151 15331067 female
-0.2054806 -0.2765788 1.727878 -0.6336832 0.4183069 0.6507418 2170403 female
-0.2143024 0.03754913 1.740442 -0.6061283 -0.7875863 0.110978 2171425 female
-0.1779164 -0.1967658 1.59554 -0.4212728 -0.3769136 -0.8249032 1842209 female
-0.2092757 -0.6648957 1.801161 0.4841844 0.05759645 0.8730682 8813947 female
-0.2488248 -0.316058 1.697556 -0.9187462 0.3948486 -8.763767E-05 2698281 female
-0.007665629 -0.2762291 1.742788 -0.9951041 0.05016341 0.08515579 2303275 female
-0.1832842 0.207957 1.456727 -0.4439632 -0.4571479 -0.7706571 4209473 female
-0.01950185 0.3248969 1.64062 0.9803529 0.1941771 -0.0346914 8356487 female
-0.2030537 -0.7256268 1.706056 -0.5506619 -0.7671425 -0.3290346 11308425 female
-0.1788824 0.8219289 1.494034 -0.4504398 -0.1624242 -0.8779079 2302243 female
-0.06247834 0.4363697 1.538768 0.9287717 -0.3224731 -0.182741 14608126 female
-0.03790067 -0.002457179 1.614587 0.9747241 -0.01426213 0.2229562 2171945 female
-0.08987132 0.6865014 1.562044 0.3126904 -0.9479308 0.06043198 15325640 female
-0.058038 0.1292412 1.827831 0.422623 0.2489086 0.8714553 8553094 female
-0.03303119 0.1366941 1.567237 0.8254259 -0.2680141 -0.4968305 13159896 female
-0.1497068 0.4520773 1.465819 -0.0164956 -0.06279739 -0.9978899 11579056 female
-0.09393278 -0.01814636 1.680484 0.3795502 0.1249826 0.9166902 2303016 female
-0.2568647 0.608335 1.631196 -0.7496761 0.4106965 0.5189548 15857148 female
