# .PCD v0.7 - Point Cloud Data file format
VERSION 0.7
FIELDS x y z normal_x normal_y normal_z rgb label
SIZE 4 4 4 4 4 4 4 4
TYPE F F F F F F U U
COUNT 1 1 1 1 1 1 1 1
WIDTH 171
HEIGHT 1
VIEWPOINT 0 0 0 1 0 0 0
POINTS 171
DATA ascii
-0.7746763 -0.01751143 -1.781827 -0.9389547 -0.247397 0.2390793 2105636 female
-0.8568722 0.04080259 -1.951328 0.2029408 -0.672003 -0.7121987 2302499 female
-0.8452139 0.7009699 -1.760336 -0.5604339 -0.7794536 0.2799392 13154213 female
-0.7780648 -0.01966043 -1.805678 -0.958537 -0.2771449 0.06631362 592395 female
-0.9660773 -0.01383062 -1.791845 -0.8820229 -0.2599878 0.3929911 2040359 female
-0.6698893 0.614997 -1.894148 0.5595172 0.8190627 0.1267946 11514034 female
-0.693209 0.4491599 -1.939898 -0.4929314 -0.5479738 0.675828 6710901 female
-0.8415087 0.3530042 -1.716982 0.01850713 0.1567084 0.9874715 13620965 female
-0.8053827 0.5785165 -1.77977 0.3503437 0.4273719 0.8334342 15725309 female
-0.9685627 0.5719523 -1.921987 -0.5341865 0.2015644 -0.8209851 15726076 female
-0.6620639 0.6101537 -1.903577 0.5954896 0.802584 -0.03536957 11118763 female
-0.6037248 -0.08425521 -1.807011 0.9338081 -0.1065272 -0.3415469 2170145 female
-0.8040128 -0.337319 -1.884948 0.9427986 -0.1930196 0.2717983 1710618 female
-0.6167083 0.1337937 -1.84926 0.9507403 0.2933907 0.1000733 5330009 female
-0.9277105 -0.1285212 -1.799486 -0.835653 -0.3639041 0.4114096 2104609 female
-0.8695289 -0.1801597 -1.773538 -0.2507769 -0.3945896 0.883974 2434085 female
-0.8282818 -0.4425421 -1.893355 0.6792085 -0.2442634 0.6921063 2105377 female
-0.7391971 -0.05746771 -1.728503 -0.7613823 -0.1378462 0.6334788 1908003 female
-0.8540637 0.1487665 -1.717012 -0.1755439 -0.3374034 0.9248477 12436169 female
-0.7641056 0.7691213 -1.743248 0.7916081 -0.07565712 0.6063272 16309454 female
-0.9364166 0.4361059 -1.693674 0.3190949 -0.1418196 -0.9370516 12632785 female
-0.680863 0.5338988 -1.862706 0.4213698 -0.5206309 0.742557 13620448 female
-0.6083062 0.08714272 -1.806393 0.9215784 0.25097 0.2961541 2368296 female
-0.7928494 -0.2171565 -1.898919 0.8297886 0.1439169 -0.5392021 2171945 female
-0.884825 -0.3303394 -1.849077 -0.61371 -0.2095458 0.7612165 2236714 female
-0.6513154 0.3781067 -1.982939 0.2529821 -0.4500829 0.8564026 6119525 female
-0.5923307 -0.5019363 -1.786636 0.55022 -0.1885486 0.813454 2499878 female
-0.8389512 -0.5239395 -1.91015 0.5339596 -0.2329387 0.8127895 2301989 female
-0.9397404 0.6614859 -1.822072 -0.05133307 0.8650663 0.4990243 11179654 female
-0.6756756 -0.3631404 -1.821981 -0.8094441 -0.02838102 -0.5865107 2104866 female
-0.5481552 -0.6777115 -1.714389 0.1325968 -0.98649 -0.0962062 658186 female
-0.8631015 0.2791336 -1.713724 -0.2831274 0.0925929 0.9546022 15724543 female
-0.5840655 -0.5218183 -1.800129 0.852521 -0.1397986 0.503651 1776157 female
-0.6951638 0.262883 -1.93307 0.5291712 0.5023133 -0.683856 8618902 female
-0.8528517 0.6764389 -1.786774 -0.3446235 -0.2320515 0.909608 15782344 female
-0.7303746 0.5154931 -1.620515 -0.2364856 0.4660904 0.8525458 1185298 female
-0.8578624 -0.3219579 -1.95037 0.01852579 0.4523595 -0.8916432 2632239 female
-0.5979391 -0.2697552 -1.717025 0.752706 -0.1216397 0.647022 2171171 female
-0.9147474 -0.0640035 -1.748388 -0.55276 -0.2800044 0.7848911 2367780 female
-0.9772205 0.3596205 -1.82165 -0.9779693 -0.1368722 0.1576135 11974590 female
-0.8860824 0.3861104 -1.727401 -0.2622041 0.1177366 0.9578032 15397629 female
-0.9663928 0.2822537 -1.797148 -0.9297444 0.06485022 0.3624497 15331067 female
-0.7347054 0.2533376 -1.736941 0.6169729 0.1900737 0.7636861 14477302 female
-0.6355875 -0.5099412 -1.799657 -0.7646395 -0.2512288 0.5934733 1777185 female
-0.6327962 0.07933554 -1.762576 0.7272174 0.3397671 0.596417 3090991 female
-0.7903064 0.6644134 -1.81872 0.8849928 -0.1324399 0.4463714 16773089 female
-0.5985901 0.05856663 -1.853213 0.9877496 0.04207769 -0.1502668 2039842 female
-0.6569919 0.3519999 -2.003368 0.006264992 -0.3067412 0.9517723 7236734 female
-0.6451516 0.0667175 -1.936153 0.6618749 -0.1675495 -0.7306496 2303531 female
-0.6726037 -0.399074 -1.821667 -0.8657365 -0.1491422 -0.4777624 2040353 female
-1.007849 0.6310207 -1.846556 -0.6897341 0.6244695 -0.3664762 14738416 female
-0.7186534 -0.1413403 -1.716602 -0.8328733 -0.174413 0.5252639 2368295 female
-0.9123244 0.4810899 -1.665685 -0.3265422 0.9445645 0.03417779 7106170 female
-0.5871751 -0.6321704 -1.868913 0.8509859 0.1398073 -0.506238 12363420 female
-0.81298 0.1775905 -1.97768 -0.1909828 0.2078179 -0.9593421 15132414 female
-0.7460306 0.6408449 -1.93433 0.2356921 0.7284747 -0.6432526 13948130 female
-0.7015338 0.3902997 -2.01472 -0.9611237 -0.2760917 0.003823964 9473172 female
-1.023018 0.4967424 -1.709426 0.4050291 0.3030137 0.8626322 10922935 female
-0.9343566 0.0189356 -1.742769 -0.5926413 -0.1361957 0.7938685 2762539 female
-0.9581994 0.6022141 -1.75786 0.3163393 0.2929486 0.9022807 14474989 female
-0.790075 0.05429519 -1.809678 -0.151535 -0.8754914 0.4588594 1974046 female
-0.6680319 0.2776725 -2.041018 -0.9340932 -0.3356301 -0.1217468 10856108 female
-0.5983115 0.00181988 -1.789858 0.9840522 0.06373433 0.1660698 1908259 female
-0.9155053 -0.4033939 -1.941649 -0.9525775 0.001875339 -0.3042904 1973537 female
-0.869236 -0.6907159 -1.933941 -0.9094844 0.3274315 0.2561772 14072242 female
-0.6653766 0.3855031 -2.0639 -0.1615277 0.2082245 -0.9646509 13949160 female
-0.6161976 0.3694444 -2.051065 0.6943068 0.2673603 -0.668174 5657946 female
-0.7816728 0.2321638 -1.965233 -0.1069876 0.3595183 -0.9269845 12832216 female
-0.7787856 0.8176546 -1.881846 0.6565253 -0.1024358 -0.7473162 3223593 female
-0.9175688 0.3748255 -1.741673 -0.5252644 -0.01163899 0.8508595 4802382 female
-0.8220276 0.4567024 -1.640138 0.2435362 -0.9651799 0.09548777 11184818 female
-0.9369398 0.2311818 -1.921734 -0.5143055 0.3343472 -0.7897479 14609399 female
-0.8420213 0.7099636 -1.882871 -0.08899426 0.3449033 -0.9344098 16177615 female
-0.8114614 0.7666113 -1.701771 -0.6557878 -0.1198594 0.7453697 14399402 female
-0.8605549 0.3010158 -1.927907 -0.1046225 0.08281322 -0.9910581 8356488 female
-0.7955601 -0.2107348 -1.81819 0.8925304 -0.158581 0.4221866 1973793 female
-0.9399741 -0.04784007 -1.766399 -0.744243 -0.2778928 0.6073533 2171945 female
-1.012769 0.4783445 -1.787164 0.7300661 -0.5424634 -0.4156164 658186 female
-0.8196235 0.1758436 -1.976511 -0.1909194 0.1994364 -0.961132 14408947 female
-0.7301244 0.2760945 -1.748852 0.6741219 0.227084 0.702846 15200255 female
-0.8128025 0.692467 -1.885647 0.3278618 0.6074899 -0.7235072 15519939 female
-0.6467375 -0.05203547 -1.699289 0.3856152 0.1634051 0.9080747 2171174 female
-0.8358248 -0.7362055 -1.862022 0.05449093 -0.9955422 0.07698409 526600 female
-0.7974125 -0.3087703 -1.882932 0.9644522 -0.2046148 0.1672264 2302499 female
-0.9131717 -0.02807802 -1.736628 -0.4752827 -0.2056397 0.855464 3816509 female
-0.8849555 -0.2560816 -1.821611 -0.6680444 -0.3666487 0.6475225 2696233 female
-0.6558478 0.5664993 -1.963121 0.4594517 0.5644884 -0.6857529 10001568 female
-0.6473067 -0.02711849 -1.885449 0.425638 -0.4388255 -0.7913687 2565677 female
-0.9454234 0.3046143 -1.764745 -0.7106344 0.06206239 0.7008188 13093078 female
-0.9320048 0.6375045 -1.791998 0.2378269 0.6941487 0.6794085 13553622 female
-0.9937174 0.5746844 -1.89886 -0.7405413 0.1250572 -0.6602721 14871289 female
-1.007144 0.466143 -1.76041 0.8686629 -0.4438648 -0.22002 986895 female
-0.6085682 0.02442461 -1.876272 0.8696262 -0.1657735 -0.4650478 2105128 female
-0.8230621 -0.6488801 -1.925287 0.426981 0.4820136 0.7650818 2369835 female
-0.6109248 -0.2572317 -1.698263 0.581418 -0.3559127 0.7316278 1776669 female
-0.8997489 0.4850633 -1.665469 -0.3441974 0.9385996 -0.02364168 14147311 female
-0.6806253 -0.1297973 -1.684311 -0.3185497 -0.01256159 0.9478229 2169889 female
-0.6502333 0.2450362 -1.873351 0.9078718 0.4126445 -0.07411659 13486805 female
-0.8496432 -0.719784 -1.950699 0.04883359 -0.992439 -0.1126066 526600 female
-0.8161629 0.3457584 -1.95042 -0.2592871 -0.2172778 -0.9410423 15198207 female
-0.9868091 0.4091323 -1.846583 -0.9266742 -0.36952 -0.06877448 526600 female
-0.8927089 0.8642235 -1.852849 -0.8887077 0.2825715 -0.3610428 3025958 female
-0.8775415 0.7533413 -1.753315 -0.8987146 -0.1697904 0.4043306 16246230 female
-0.9724764 0.00355527 -1.873689 -0.8850917 -0.2887504 -0.3650151 2235940 female
-0.7371097 0.1714451 -1.745448 0.5307823 -0.1297999 0.8375095 15659517 female
-0.7947986 -0.1445856 -1.802784 0.9029651 -0.0976057 0.418482 1645601 female
-0.96538 0.1457434 -1.764313 -0.7228004 -0.009815951 0.6909872 11581126 female
-0.8294159 0.5501343 -1.970415 -0.4254307 0.2677617 -0.8644723 15263983 female
-0.6881532 -0.3428701 -1.787629 -0.9940326 -0.100923 0.04139684 2170913 female
-0.8513055 0.3638416 -1.718388 -0.03562668 0.1583841 0.9867346 14475509 female
-0.9103108 -0.09557108 -1.757417 -0.5705939 -0.3379401 0.7484779 2170913 female
-0.8619431 -0.538275 -1.908976 -0.1587637 -0.3234123 0.9328443 2565677 female
-0.7113747 0.2883588 -1.775221 0.757562 0.2825223 0.5884565 6777207 female
-0.8749608 -0.06116553 -1.732928 -0.0632077 -0.2380055 0.9692048 2697257 female
-0.630757 0.1787497 -1.875269 0.9561155 0.2769439 -0.09563038 460807 female
-0.8521601 -0.3425863 -1.95971 0.1062533 0.399984 -0.9103422 2172201 female
-0.8950064 0.7858555 -1.793269 -0.8459249 0.1322819 0.516636 14927038 female
-0.7855797 0.5137623 -1.983747 0.03651217 -0.03753486 -0.998628 14802157 female
-0.7008505 0.5673388 -1.837046 0.5445465 0.180014 0.819185 13028051 female
-0.7048106 0.5128506 -1.908752 0.506086 -0.8556643 0.1082389 526600 female
-0.8039656 -0.6804569 -1.913671 0.8438668 0.5194476 0.1343991 14466997 female
-0.8236769 0.9078712 -1.750037 -0.0972696 0.8452736 0.5254058 2696225 female
-0.631561 0.08918004 -1.767643 0.742552 0.3441726 0.574597 2104352 female
-0.812931 -0.4714228 -1.924273 0.9106074 -0.1851754 0.3694647 1382427 female
-0.7003446 0.3820165 -1.857104 0.9951679 0.06860612 0.07024363 14606569 female
-0.7082043 0.4045292 -1.833086 0.9526563 -0.1760706 0.2478815 7763326 female
-0.8289791 0.7349656 -1.878205 0.1533975 0.008929918 -0.9881243 3025446 female
-0.8494059 0.4681757 -1.631052 -0.1018999 -0.1045827 0.989282 9738653 female
-0.9373933 0.671819 -1.852598 -0.4112942 0.9113515 -0.0166015 16111044 female
-0.6238186 -0.565307 -1.795731 -0.7465681 0.0745044 0.6611241 2171430 female
-0.8513553 0.7027163 -1.769745 -0.6365165 -0.6885191 0.3475461 13285801 female
-0.9472718 0.3196327 -1.767039 -0.7250038 0.04784324 0.6870812 14147816 female
-0.9589481 0.008603279 -1.769886 -0.7885275 -0.1910261 0.5845795 1843236 female
-0.8755761 -0.4943455 -1.984852 -0.3802945 0.01777937 -0.9246945 2631472 female
-0.858049 -0.721482 -1.84043 -0.8892945 0.3318434 0.3146987 9270378 female
-1.030614 0.4803963 -1.700681 0.365632 0.3587 0.8588641 7830404 female
-0.9226279 0.4319658 -1.705793 -0.2900146 -0.5009327 0.8154495 8422027 female
-0.847155 0.7999799 -1.897384 -0.2376858 -0.2684591 -0.933507 6840927 female
-0.9012376 0.8562944 -1.822004 -0.9754418 0.206091 -0.07771587 2696998 female
-0.6315181 -0.6116883 -1.845696 -0.9989782 0.01306643 0.04326567 2631207 female
-0.8644759 0.8704622 -1.886691 -0.4547048 0.3900462 -0.8006919 5459531 female
-0.6587771 0.2205944 -1.810643 0.8147703 0.2830055 0.506021 3684928 female
-0.786094 0.7253232 -1.847646 0.8544735 -0.09702417 -0.5103542 7628130 female
-0.8270041 0.4613347 -1.657454 0.4656315 -0.7386289 -0.4874574 2433832 female
-0.5808284 -0.6058897 -1.77747 0.5806808 0.682011 0.4446018 3421488 female
-0.7922289 -0.2724417 -1.899568 0.9224309 -0.08198851 -0.3773582 1842209 female
-0.5780174 -0.4891355 -1.808509 0.9876115 -0.1200303 0.1010759 1579041 female
-0.9446095 0.08899981 -1.938032 -0.6711162 -0.09534571 -0.7351954 8422547 female
-0.6955292 0.6304883 -1.906039 0.4600827 0.8817912 -0.1037695 11054513 female
-0.8369498 0.3274251 -1.937111 -0.4613925 -0.1527611 -0.8739456 11449536 female
-0.668623 0.1318851 -1.76668 0.4183133 0.4774964 0.772665 10791352 female
-0.9141294 0.6205095 -1.781613 0.09776199 0.5780116 0.8101514 12961745 female
-0.9128139 0.1499506 -1.732686 -0.3469824 -0.1823488 0.919974 13554148 female
-0.6745192 -0.142203 -1.827722 -0.090418 -0.4241958 -0.9010452 2106408 female
-0.893313 0.06223052 -1.960719 -0.2280962 -0.3105956 -0.922769 3027510 female
-0.5972528 0.002192357 -1.805677 0.9990302 0.01251732 0.04221424 1777187 female
-0.6257303 -0.6247835 -1.797382 -0.9689984 -0.05435007 0.2410149 9077376 female
-0.579506 -0.4277585 -1.827192 0.882229 -0.005024238 -0.4707937 1974307 female
-0.9053379 -0.1988422 -1.889338 -0.8375395 -0.1470694 -0.5262112 2104610 female
-0.5844265 0.2385518 -2.025365 0.9800688 0.119138 0.1589695 8750989 female
-0.8224044 0.314313 -1.71349 0.1151643 0.08337418 0.9898413 10133158 female
-0.5220859 -0.6690089 -1.727002 0.8745857 -0.467565 -0.1283855 10652291 female
-0.7447701 0.8458152 -1.792504 0.9972755 0.02758673 0.06841443 2698281 female
-0.7455593 0.502113 -1.752678 0.3395332 0.5351261 0.7735355 15199479 female
-0.6888995 0.05196582 -1.718519 0.07124191 0.3024702 0.9504927 2303014 female
-0.8182891 0.6919125 -1.764627 0.1251712 -0.9729768 0.1940317 14601405 female
-0.9556605 0.05586305 -1.756828 -0.7202335 -0.0763311 0.6895196 1052944 female
-0.7514455 0.1753 -1.732326 0.4986636 -0.1573309 0.8523975 5987687 female
-0.694999 0.4366928 -1.808162 0.9004387 -0.4219925 0.1055109 4605511 female
-0.7894719 0.02986917 -1.814451 -0.9842376 -0.1336893 0.1157735 2170913 female
-0.5715747 -0.004848838 -2.034222 0.7567627 -0.0528594 -0.6515489 6575958 female
