# .PCD v0.7 - Point Cloud Data file format
VERSION 0.7
FIELDS x y z normal_x normal_y normal_z rgb label
SIZE 4 4 4 4 4 4 4 4
TYPE F F F F F F U U
COUNT 1 1 1 1 1 1 1 1
WIDTH 169
HEIGHT 1
VIEWPOINT 0 0 0 1 0 0 0
POINTS 169
DATA ascii
-2.776356 -0.1777514 -0.08780902 -0.8496512 -0.2279538 0.4755313 11645112 female
-2.916537 -0.04921728 -0.2141144 0.09031277 -0.5164514 -0.8515407 1579291 female
-2.622709 0.5880626 0.1873293 -0.3935578 -0.3393293 0.8543816 15391692 female
-2.788669 -0.1715619 -0.1082792 -0.9002444 -0.2973384 0.3180406 2696233 female
-3.001111 -0.08187339 -0.04970768 -0.7614558 -0.1015922 0.6402062 2040359 female
-2.583286 0.4632499 -0.08879745 0.8221123 0.4387688 0.3627853 14935534 female
-2.658877 0.339841 -0.1864389 0.09869091 -0.8723814 0.4787596 14014698 female
-2.747416 0.2108206 0.0155949 0.5391927 -0.2654882 0.7992417 7631740 female
-2.637802 0.4369075 -0.004602794 0.8444845 -0.07586128 0.5301802 15659771 female
-2.868529 0.4925447 0.00572154 -0.7416995 0.6284821 -0.2342909 14740728 female
-2.599154 0.4509658 -0.06169624 0.7644545 0.07483498 0.6403195 12830932 female
-2.642529 -0.1721915 -0.1634593 0.8630505 -0.1574113 -0.4799642 2171171 female
-3.006565 -0.4038158 -0.2290841 0.677188 -0.7334822 -0.05848423 1973534 female
-2.656076 -0.005289559 -0.2072534 0.974239 0.1553793 -0.1634492 2566446 female
-3.01785 -0.1858693 -0.09559499 -0.8549849 -0.1190707 0.5047999 2170657 female
-3.043337 -0.3249344 -0.1462488 -0.8059528 -0.01173945 0.5918633 2171945 female
-3.201939 -0.5112172 -0.3733123 -0.9151439 0.102319 0.3899262 1579291 female
-2.687978 -0.154866 -0.03365804 0.1037352 0.1854965 0.9771541 2170920 female
-2.764509 0.07851323 -0.009568365 0.4853673 -0.274307 0.8301651 12237770 female
-2.569682 0.5511215 0.1439269 0.9810632 -0.1686354 0.09527323 15192006 female
-3.008491 0.2047373 0.004441143 -0.8009452 -0.3859121 -0.4577757 11448508 female
-2.672266 0.3883603 -0.1592828 -0.6924019 -0.5219024 0.4981942 526600 female
-2.657903 0.004409207 -0.1957641 0.977921 0.2021415 -0.05300247 789260 female
-3.017667 -0.2442233 -0.1989363 -0.6879652 0.3181109 -0.6523107 2499878 female
-2.98712 -0.3812714 -0.1455482 0.1038897 -0.8267829 0.5528445 2368812 female
-2.731605 0.3040328 -0.2627957 -0.60344 -0.423107 0.6758999 9607074 female
-2.757581 -0.5944995 -0.1886219 0.820603 -0.4645457 0.3328785 1710362 female
-3.18599 -0.5301419 -0.3532907 -0.5609487 -0.4474195 0.6965288 2499627 female
-2.795315 0.5385025 0.03910147 -0.3383051 0.9400019 -0.04411456 14476529 female
-2.701027 -0.3121614 -0.108931 -0.6709453 0.2836966 -0.6850902 1909030 female
-2.76113 -0.7218744 -0.182374 -0.29696 -0.9372197 -0.1828496 591624 female
-2.859122 0.1063589 0.01193101 -0.0966889 -0.1179801 0.9882975 8487821 female
-2.762783 -0.6090346 -0.2029978 0.9396828 -0.3420463 -0.000629006 2170913 female
-2.702028 0.1255173 -0.2521768 0.6617377 0.3036479 -0.6854934 11382718 female
-2.66461 0.5033904 0.09839872 -0.3702534 -0.7220964 0.5843709 16508372 female
-2.792513 0.4786298 -0.07110252 -0.4362007 0.713892 -0.547802 15198463 female
-3.013987 -0.3407311 -0.258115 0.3917982 0.5575182 -0.7318931 2236706 female
-2.676454 0.3265324 -0.2076604 -0.04788548 -0.813372 0.5797698 3948107 female
-2.994982 -0.1626872 -0.0591193 -0.6638274 -0.2108972 0.7175343 2170913 female
-2.869395 0.2870415 0.05789653 -0.7158493 -0.4154316 0.5612276 15659774 female
-2.903704 0.2044258 0.005116451 -0.5452295 -0.0258331 0.8378887 15199231 female
-2.903736 0.1905478 0.004397335 -0.4989592 -0.0417632 0.8656186 3683378 female
-2.693037 0.1477912 -0.1014173 0.9647421 -0.1105219 0.2388674 15724539 female
-2.800299 -0.5335295 -0.168618 -0.7796209 -0.1260791 0.6134292 1579291 female
-2.743262 0.0101184 -0.09989718 0.2578847 0.1968492 0.9459101 4144969 female
-2.655351 0.4799028 0.05343181 0.7252467 -0.6505277 0.225457 16312535 female
-2.657501 -0.05490477 -0.2303353 0.8638125 -0.05414145 -0.5008959 2039842 female
-2.698126 0.2874849 -0.2872548 0.4181454 -0.6843505 0.5973431 15199231 female
-2.738282 -0.06943275 -0.2817289 0.2086326 -0.3755733 -0.9030045 2631472 female
-2.733591 -0.3428727 -0.1190809 -0.7635044 0.5827572 -0.2783076 2303273 female
-2.850701 0.4836421 0.1239665 -0.2214683 0.7171586 0.6607838 11121588 female
-2.623941 -0.2675031 -0.1126501 0.8386692 -0.05526097 -0.5418305 1973537 female
-2.898253 0.103583 0.06777412 0.6448532 0.4349185 0.6284984 15068669 female
-2.81166 -0.637227 -0.256987 0.2883154 0.3244922 -0.9008768 2302243 female
-2.836227 0.07997387 -0.2952755 -0.3006552 0.309411 -0.9021482 5526628 female
-2.5599 0.5481696 0.09522459 0.8394721 -0.4454866 -0.3111722 16768206 female
-2.758967 0.2863846 -0.3123253 -0.9801673 0.06568188 0.1869703 11513788 female
-2.910118 0.3094639 0.07738889 0.5603635 -0.6107433 0.5594509 14672114 female
-2.948622 -0.06574755 -0.01320977 -0.3358019 -0.139271 0.9315797 2762539 female
-2.794822 0.4816158 0.1155256 0.4968746 0.3223271 0.8057424 12895692 female
-2.660501 0.3344647 -0.1962599 0.1824194 -0.8655992 0.4663274 8554122 female
-2.762342 0.2017877 -0.3552617 -0.9982076 -0.02589511 0.05395403 12301763 female
-2.647104 -0.09142882 -0.1996806 0.9147293 -0.08400279 -0.3952391 1974566 female
-3.092434 -0.3415706 -0.2808499 -0.3175724 0.8496652 -0.4209712 2499878 female
-3.230816 -0.54004 -0.433703 -0.7126801 0.6810229 0.1682107 1841952 female
-2.67733 0.3174621 -0.3292487 0.7166971 0.3318705 -0.6133573 4013888 female
-2.682621 0.3364089 -0.3184248 0.5122939 0.4793178 -0.7126074 4408907 female
-2.834022 0.1449871 -0.2602538 -0.334833 0.5714612 -0.7492121 14608383 female
-2.557615 0.6816422 0.0644085 0.7283966 0.3767464 -0.5722767 2566439 female
-2.816049 0.2358189 0.0427389 -0.1065859 -0.5123838 0.8521164 11975627 female
-2.894099 -0.007087597 0.05844101 -0.8960204 -0.364738 0.253207 11055536 female
-3.002305 0.0743373 -0.1655171 -0.9136805 0.2602827 -0.3121552 5856105 female
-2.669712 0.5590685 0.007486369 0.2699479 0.6122306 -0.7431701 13810610 female
-2.583792 0.5188282 0.08689684 0.7148616 -0.602917 -0.3542089 16771542 female
-2.889516 0.3503664 -0.1001331 -0.7539492 0.3071932 -0.5806832 12764632 female
-3.02476 -0.3860681 -0.2896686 0.7934907 -0.004259028 -0.6085675 1973793 female
-3.008564 -0.08127894 -0.06006327 -0.8278769 -0.083741 0.5546236 2236706 female
-2.91574 0.3159209 0.01833037 0.7188582 -0.2651488 -0.6426032 1051664 female
-2.850109 0.09456525 -0.283076 -0.397518 0.392227 -0.8295405 15198207 female
-2.696791 0.1417244 -0.09020792 0.9517787 -0.1322719 0.2768057 14608375 female
-2.675116 0.545573 -0.0162165 0.3257648 0.9081762 -0.2628561 15192000 female
-2.760685 -0.1432254 -0.05972333 -0.5971497 -0.07070646 0.7990074 2170914 female
-3.268633 -0.66926 -0.3834652 -0.9364004 -0.3141911 -0.1563272 527368 female
-2.963191 -0.3702374 -0.1977319 0.7540932 -0.6128098 -0.2362361 1973278 female
-2.943801 -0.1163121 -0.0186771 -0.2412179 -0.2345332 0.9417049 3816509 female
-2.960215 -0.2960503 -0.09344358 0.09419156 -0.5254315 0.8456061 2171945 female
-2.609217 0.4558248 -0.1795043 0.3222885 0.7731742 -0.5461975 3881538 female
-2.721842 -0.1191317 -0.2475448 0.1369954 -0.5163001 -0.8453794 2697257 female
-2.935333 0.2092547 -0.02637297 -0.815226 0.143982 0.5609596 5395290 female
-2.818116 0.527979 0.0660974 -0.3581381 0.9062971 0.2244162 11448502 female
-2.870707 0.473257 -0.02757149 -0.7115034 0.5644953 -0.4184591 14671596 female
-2.874963 0.3932643 0.05215856 0.5680106 -0.536639 -0.6240051 526599 female
-2.656747 -0.1499514 -0.1927235 0.7400914 -0.2415178 -0.6276415 2170145 female
-3.219328 -0.5584834 -0.3953124 -0.6867856 -0.03087851 0.7262039 2105120 female
-2.647568 -0.3909318 -0.07521296 0.7375575 -0.5162367 0.435326 2237222 female
-2.893103 0.09950923 0.06257961 0.7962873 0.4847986 0.3617966 9868707 female
-2.613994 -0.2723643 -0.08245255 0.9855863 -0.03552575 -0.1654011 2039585 female
-2.682499 0.1192051 -0.2303563 0.8496668 0.2484678 -0.465113 855053 female
-3.231723 -0.5675026 -0.4926264 0.168924 0.1025168 -0.9802831 1577742 female
-2.816829 0.2947707 -0.1891723 -0.5676143 0.2610529 -0.7808107 15199231 female
-2.912477 0.3328744 -0.0003984877 -0.9727028 -0.09530608 0.2115798 526344 female
-2.6813 0.6968181 0.1200107 -0.8190254 0.5252053 0.2309911 3025958 female
-2.610736 0.5981893 0.1957336 -0.2997504 -0.1549454 0.9413509 14798272 female
-3.014262 -0.07235474 -0.161308 -0.8559526 -0.01512619 -0.5168329 2434085 female
-2.803604 -0.03215441 -0.08997588 0.3961382 -0.8469238 0.3546754 2565160 female
-2.905077 -0.2575588 -0.108834 0.7990792 -0.4947095 0.3416649 2169889 female
-2.967952 0.06967966 -0.02149334 -0.6413065 0.04733672 0.7658232 10131362 female
-2.707035 0.5210007 -0.09434655 -0.2457757 0.8757208 -0.4155807 15001852 female
-2.74555 -0.382512 -0.08480002 -0.7824628 0.05695561 0.620087 1644569 female
-2.747934 0.249957 0.04921666 0.4278134 -0.8200799 0.3800587 14213100 female
-2.951681 -0.1570759 -0.03213045 -0.2440333 -0.3045639 0.9207 2697001 female
-3.057043 -0.4472117 -0.301338 0.7504347 -0.648748 -0.1263873 1973534 female
-2.680016 0.137336 -0.1465421 0.9892306 0.07007306 0.1285011 11054772 female
-2.919762 -0.1569466 -0.03112063 0.1552968 -0.3852187 0.9096645 2697257 female
-2.892505 -0.007641073 -0.2582697 -0.4965319 -0.4893281 -0.7169478 2170661 female
-3.015143 -0.3566099 -0.2723346 0.5926048 0.3388516 -0.7307525 2434346 female
-2.655024 0.5561412 0.1633082 -0.6125277 -0.2552264 0.7481104 16115412 female
-2.740869 0.3883227 -0.1872361 -0.1628474 0.2366162 -0.9578588 10723748 female
-2.577667 0.4342532 -0.0840931 0.8126274 -0.06615425 0.5790167 15396346 female
-2.798431 -0.1287683 -0.09959609 -0.8317083 -0.1912472 0.5212349 9277845 female
-3.212615 -0.5671116 -0.3901669 -0.5794724 -0.1301623 0.8045307 2171945 female
-2.568574 0.6801558 0.1852057 0.3755328 0.5168116 0.769338 2696225 female
-2.726923 0.01746796 -0.1049886 0.3897195 0.326633 0.8610631 8949407 female
-3.212842 -0.5439982 -0.3875177 -0.7417838 -0.03063171 0.6699392 1841436 female
-2.673325 0.2719267 -0.1535901 0.8785526 -0.1720489 -0.4455834 15724535 female
-2.654965 0.2520619 -0.0840263 0.4568991 -0.8277027 -0.3258089 10000546 female
-2.691663 0.5786031 0.02387488 -0.4164896 0.6360849 -0.6495632 5458249 female
-2.888455 0.01552396 0.07617046 -0.4561517 -0.2730763 0.8469681 10197663 female
-2.768558 0.5223534 0.08298397 0.09847042 0.5651449 0.8190939 15323066 female
-2.788105 -0.5940184 -0.1755661 -0.2848661 -0.08610556 0.9546922 2171945 female
-2.670044 0.5126886 0.1033454 -0.5083118 -0.6215076 0.5961103 13943475 female
-2.940275 0.1969008 -0.03009651 -0.8027557 0.179542 0.5686369 4342597 female
-2.980558 -0.06755059 -0.02833206 -0.6017329 -0.1062204 0.7916027 1843236 female
-3.107005 -0.455519 -0.3682915 0.5704982 0.05523033 -0.8194397 2170913 female
-2.665083 0.5838835 0.1595435 -0.7428293 -0.1005038 0.661894 13680561 female
-2.915873 0.2905224 0.04489587 0.8342767 -0.5510784 -0.01717638 9606049 female
-2.807575 0.2589618 0.09125077 -0.2291506 -0.7352595 0.6378742 9935267 female
-2.675719 0.6349472 0.03415258 -0.5916016 0.01373908 -0.8061134 3486769 female
-2.685839 0.6751971 0.134056 -0.8764929 0.3085036 0.369575 2696225 female
-2.829683 -0.6125662 -0.2211738 -0.9089902 0.1053947 0.4032727 1841951 female
-2.667527 0.7134152 0.08214658 -0.5824389 0.7604771 -0.287123 5459531 female
-2.676171 0.07386097 -0.1565589 0.9546179 -0.03589882 0.2956618 11909315 female
-2.636823 0.566855 0.02348178 0.3587297 0.1856245 -0.9147986 6313302 female
-2.897819 0.005584785 0.06142246 -0.8762779 -0.3428949 0.3384674 13684952 female
-2.774951 -0.6427948 -0.1849749 0.7348515 0.2755271 0.6197404 2959662 female
-2.945924 -0.3335179 -0.2206326 0.7779619 -0.2516367 -0.5757207 1776155 female
-2.742816 -0.5760914 -0.1983341 0.8792414 -0.4424944 -0.1764461 1908258 female
-2.99021 0.03979302 -0.2052676 -0.8006506 0.1348398 -0.583761 11647172 female
-2.608635 0.46622 -0.05036398 0.7620392 0.1650763 0.6261357 12830157 female
-2.845901 0.2609053 -0.1738384 -0.7628844 0.3050603 -0.57004 11449536 female
-2.659029 -0.03000269 -0.119294 0.8598587 0.3411638 0.3798029 3223601 female
-2.685334 0.4669437 0.06583623 0.3567812 -0.6293303 0.6903988 15847360 female
-2.852118 -0.003575421 -0.01909691 0.2486475 -0.3271478 0.9116736 12501207 female
-2.649599 -0.1124754 -0.2003214 0.8607571 -0.160727 -0.4829741 2170913 female
-2.908477 -0.007717954 -0.2501636 -0.3205934 -0.5044375 -0.8017249 2237218 female
-2.640844 -0.1076755 -0.1786495 0.9476445 -0.06690727 -0.3122393 1777187 female
-2.79488 -0.6786811 -0.1699907 -0.6040635 0.1886466 0.7742867 14205376 female
-2.729064 -0.537863 -0.2037278 0.7571447 -0.2788545 -0.5907386 2105378 female
-3.034368 -0.2520936 -0.1695101 -0.9679648 0.2066467 -0.1426227 2170145 female
-2.712803 0.1117101 -0.3994621 0.8958663 0.01769611 -0.443971 4342083 female
-2.822183 0.1251317 0.01063707 0.0487508 -0.1631344 0.9853987 10857397 female
-2.695746 -0.7399613 -0.1557662 0.1864121 -0.7411512 -0.6449383 526600 female
-2.54248 0.6708336 0.08236188 0.8591703 0.2950361 -0.418067 1907741 female
-2.728572 0.1882888 -0.006467627 0.6244829 -0.2960933 0.7227377 11908554 female
-2.669143 -0.08370459 -0.06365553 0.5576276 0.3022608 0.773104 2499881 female
-2.643696 0.4963212 0.08370695 0.3130607 -0.9491439 -0.03344747 16773086 female
-2.905923 -0.006367616 -0.001039054 0.0838821 -0.0265408 0.9961222 13751010 female
-2.791183 -0.02105111 -0.09428067 0.4291132 -0.7446737 0.5111975 2368807 female
-2.614524 0.2888583 -0.06103794 0.9718264 -0.2239212 -0.07357065 9672344 female
