# .PCD v0.7 - Point Cloud Data file format
VERSION 0.7
FIELDS x y z normal_x normal_y normal_z rgb label
SIZE 4 4 4 4 4 4 4 4
TYPE F F F F F F U U
COUNT 1 1 1 1 1 1 1 1
WIDTH 170
HEIGHT 1
VIEWPOINT 0 0 0 1 0 0 0
POINTS 170
DATA ascii
-1.540535 -0.06777401 -0.7062588 -0.5987309 -0.2106131 -0.7727635 2105636 female
-1.56942 -0.1129431 -0.7489386 0.705839 -0.3879043 0.5927238 2171174 female
-1.58878 0.6797404 -0.7308127 -0.3675248 -0.9213659 -0.1265329 14075311 female
-1.529456 -0.03696075 -0.719477 -0.4598035 -0.1034861 -0.8819702 591625 female
-1.666309 0.08742063 -0.8134797 -0.8884103 0.4428563 -0.1208527 6710897 female
-1.507635 0.6168647 -0.6338058 -0.5859839 0.7982748 0.1392132 12961232 female
-1.521791 0.4611382 -0.464186 -0.8818424 0.3747007 0.286275 15724543 female
-1.637221 0.4123896 -0.7020852 -0.9543881 -0.2202314 0.2015973 14476794 female
-1.604692 0.5348725 -0.7727433 -0.8008894 0.5974123 0.04092176 15068664 female
-1.41262 0.540813 -0.8046438 0.9708965 0.2394406 -0.005304912 8555932 female
-1.489209 0.6255355 -0.6205766 -0.3627607 0.9173704 0.1638175 13752027 female
-1.396021 -0.1875833 -0.6087368 0.7866909 -0.02939956 0.6166466 1842209 female
-1.736508 -0.3522961 -0.7470595 -0.3536178 0.1179366 0.9279253 2039584 female
-1.503317 0.05636801 -0.5430143 -0.1082825 0.06951657 0.9916866 1051664 female
-1.709618 -0.1214945 -0.8358294 -0.7357054 0.03476582 -0.6764088 1973535 female
-1.733094 -0.1551483 -0.7950473 -0.9820938 0.1253491 -0.1406392 2237222 female
-1.788219 -0.4110603 -0.7663065 -0.696127 0.2952015 0.6544183 2105377 female
-1.490469 -0.1816709 -0.5773194 -0.2925331 -0.3296155 0.8976514 1973536 female
-1.658653 0.1489529 -0.7163178 -0.9762933 -0.1984237 0.08648417 15200247 female
-1.583044 0.7627098 -0.6694686 -0.4443766 0.01637949 0.8956903 16571342 female
-1.403212 0.2474789 -0.987607 -0.8138477 -0.3381456 0.4725564 3158849 female
-1.48877 0.4458792 -0.5312541 -0.4150779 -0.6163664 -0.6691808 526344 female
-1.500751 -0.02473386 -0.5436074 -0.08898061 -0.08285189 0.9925815 2236706 female
-1.626951 -0.220518 -0.8328948 0.636217 -0.3953482 -0.6625162 2236706 female
-1.75069 -0.2505638 -0.7880745 -0.9709241 0.1785663 -0.1594378 2106152 female
-1.497828 0.3529876 -0.4451469 -0.09292676 -0.6954551 -0.7125356 12237762 female
-1.382673 -0.1866976 -0.6548946 0.9949383 0.06704675 -0.07484987 2171172 female
-1.849281 -0.5132234 -0.7895728 -0.9099981 0.41071 -0.05675143 2499623 female
-1.538626 0.6041694 -0.8555635 -0.656818 0.7377629 -0.155872 14870506 female
-1.346596 -0.3357677 -0.7054158 0.6436033 0.4594978 -0.6120756 2237481 female
-1.381132 -0.7315542 -0.6450617 0.04800943 -0.987001 -0.1533762 526600 female
-1.657484 0.1940497 -0.7887896 -0.9518682 0.1030197 -0.2886758 11120312 female
-1.383434 -0.1882194 -0.6378664 0.9805425 0.02975648 0.1940388 2171171 female
-1.42752 0.2126153 -0.591452 0.6260895 0.4071521 0.6650106 7763837 female
-1.558412 0.6543078 -0.7654764 -0.9001128 -0.05380151 -0.4323219 16771805 female
-1.385418 0.09404545 -1.076851 -0.5620429 0.1141278 -0.8191963 16250879 female
-1.663117 -0.324057 -0.7605304 0.7823402 -0.3835959 0.4907117 2170913 female
-1.525252 0.4636893 -0.4845313 -0.9891052 0.1421197 0.03837929 4211272 female
-1.699588 -0.0855307 -0.8450387 -0.7171181 0.01905267 -0.6966912 1973536 female
-1.591799 0.3559592 -0.8468111 -0.594564 -0.0298812 -0.8034928 10330022 female
-1.615866 0.2874452 -0.83302 -0.7562726 0.1626571 -0.6337149 3290162 female
-1.638198 0.2707702 -0.8003416 -0.8753412 0.1918976 -0.4437939 9671840 female
-1.612013 0.239212 -0.6227623 -0.6242615 0.129293 0.7704419 15068669 female
-1.385571 -0.5030301 -0.6985596 -0.9362038 -0.3418974 -0.08141617 2368036 female
-1.55195 -0.006434419 -0.5613166 -0.5765088 -0.06632006 0.8143951 2434605 female
-1.538531 0.6433855 -0.6972046 -0.5723628 -0.03834538 0.8191035 16773603 female
-1.457617 -0.0002454016 -0.5449406 0.2527044 -0.04574818 0.9664614 2302499 female
-1.546092 0.3998411 -0.3707422 -0.5374292 0.8389223 0.08590236 6052709 female
-1.389195 -0.04134003 -0.6361608 0.9926931 -0.1174139 -0.02782586 2434086 female
-1.317958 -0.4099987 -0.715964 0.8004723 0.2100491 -0.5613585 2434601 female
-1.441403 0.5100586 -0.8758786 0.8998317 -0.1791229 -0.3977662 11712965 female
-1.482712 -0.2314013 -0.5922109 -0.4231782 -0.3459032 0.8374195 2170660 female
-1.354567 0.1601238 -1.061144 0.5551267 0.2506374 -0.7931048 12107200 female
-1.278043 -0.6965902 -0.7133252 0.8627053 0.08759937 0.498062 12757665 female
-1.375962 0.07712296 -0.72105 0.9389357 -0.1184031 -0.3230797 11646408 female
-1.429936 0.6177068 -0.6401522 0.6802654 0.6986001 0.2218035 13948130 female
-1.51204 0.3304491 -0.4121192 0.1263201 -0.879557 -0.4587186 8158856 female
-1.486654 0.4697161 -0.9668864 -0.4564572 -0.1205668 -0.8815387 10394531 female
-1.64986 0.0388805 -0.8724345 -0.6933513 0.1669539 -0.7009925 2303531 female
-1.538309 0.5922624 -0.8934497 -0.5911556 0.7834477 -0.1916892 14803945 female
-1.526634 0.433804 -0.4641116 -0.9973199 0.05040737 -0.05302945 15197173 female
-1.580615 0.3049769 -0.3627315 -0.210583 -0.7695236 -0.6028998 9605783 female
-1.459944 -0.02729204 -0.5467451 0.2343079 -0.09197534 0.9678018 1777187 female
-1.716463 -0.4132519 -0.8511187 0.3415394 -0.2531667 -0.9051284 1973537 female
-1.925584 -0.6466557 -0.8059398 0.06528547 0.02715101 -0.9974971 15585740 female
-1.452489 0.4091643 -0.4228241 0.8599436 0.09315291 0.5018163 11910854 female
-1.482669 0.4389023 -0.4135338 0.1219985 0.706057 0.6975672 9803157 female
-1.394265 0.1617846 -0.7425872 0.8920633 0.2775884 -0.356606 11055547 female
-1.445672 0.7886262 -0.6938909 0.7374316 -0.1424353 0.6602324 3223593 female
-1.604236 0.2665515 -0.8487854 -0.6055055 0.1855011 -0.7739201 12173258 female
-1.395752 -0.04531962 -1.102859 0.500384 0.05503966 -0.8640524 2632496 female
-1.47281 0.2175788 -0.8553725 0.673567 0.3904784 -0.627562 14609399 female
-1.461929 0.6786356 -0.7443038 0.9741173 0.2094163 -0.08509029 16177615 female
-1.623113 0.7561346 -0.7205855 -0.7090069 -0.6768059 -0.1980986 11373955 female
-1.44508 0.2872733 -0.7663151 0.9808409 -0.03200296 -0.192164 14672106 female
-1.703625 -0.3827348 -0.7473924 0.3756475 -0.1053268 0.9207579 1973793 female
-1.695717 -0.04233932 -0.8463051 -0.7732381 0.08928449 -0.6277987 2171172 female
-1.39814 0.3149413 -0.9356951 -0.3514957 -0.5013464 0.7906343 10328989 female
-1.38499 0.09982055 -0.7440504 0.9042155 -0.003612686 -0.4270613 13619935 female
-1.61334 0.2314712 -0.6222019 -0.6315053 0.1157874 0.7666775 13883371 female
-1.462891 0.6633686 -0.7140149 0.7669858 0.5444257 0.339608 15519939 female
-1.515803 -0.1370207 -0.701088 -0.6126531 -0.2575226 -0.7472203 3223607 female
-2.003833 -0.6216226 -0.772878 -0.5963849 -0.8026679 -0.00702144 526600 female
-1.710505 -0.2756184 -0.7401843 -0.3176439 -0.09286769 0.9436514 1973278 female
-1.686325 0.0529201 -0.8015863 -0.9254497 0.3728697 -0.06716488 2698289 female
-1.717355 -0.2492571 -0.8387457 -0.6133427 0.1225953 -0.7802443 2368554 female
-1.424356 0.577475 -0.5718828 0.8235506 0.4606466 0.3310123 14080999 female
-1.388884 -0.09787391 -0.6438992 0.9976425 0.05514845 -0.04084339 2499624 female
-1.638555 0.2516983 -0.810198 -0.862498 0.2204668 -0.4555125 14608375 female
-1.538666 0.5993685 -0.8703383 -0.6545877 0.7363138 -0.1713385 13684696 female
-1.437156 0.5913942 -0.8456148 0.8129728 0.500419 -0.2977516 15922171 female
-1.415516 0.3620643 -0.9171017 -0.1319901 -0.4531561 0.8816054 3420212 female
-1.389952 -0.336703 -0.7235649 -0.0002710872 0.302572 -0.9531265 2170660 female
-1.941107 -0.5968482 -0.7432106 0.156957 0.8544101 0.4953262 14993595 female
-1.512961 0.462437 -0.5252168 -0.7384565 -0.4448536 -0.5067418 1841956 female
-1.356839 0.1635994 -1.061786 0.4634475 0.2599775 -0.8471293 8817292 female
-1.478901 -0.2530926 -0.5976393 -0.4432487 -0.3451406 0.8272899 2170145 female
-1.409407 0.1984276 -0.6037698 0.7764551 0.3276478 0.5382977 7369335 female
-1.904811 -0.6679761 -0.8030407 -0.3246093 -0.5807014 -0.7466021 987918 female
-1.423313 0.2686291 -0.7216384 0.9278055 0.04848296 -0.3699004 11843012 female
-1.559612 0.3770926 -0.8672356 -0.2946003 -0.3088245 -0.904344 13882582 female
-1.469322 0.827771 -0.8117607 0.3895588 0.1346792 -0.9111013 3025958 female
-1.588931 0.7124697 -0.7749605 -0.450147 -0.4355422 -0.7795324 15457737 female
-1.530742 0.01985445 -0.9028326 0.2372729 -0.2352853 -0.9425192 2368809 female
-1.612645 0.148701 -0.6160481 -0.6345177 -0.2306421 0.7376934 10922937 female
-1.704854 -0.1285744 -0.7335622 -0.567714 0.07478052 0.8198224 2169889 female
-1.626536 0.1469121 -0.865532 -0.7653548 0.2066999 -0.609514 12238794 female
-1.411413 0.5985653 -0.6641766 0.8690771 0.4930811 0.03969935 15593725 female
-1.417771 -0.3737769 -0.7146388 -0.738956 -0.1266188 -0.6617491 2170913 female
-1.632537 0.4790146 -0.7020913 -0.902787 0.425576 0.06213561 9935522 female
-1.712143 -0.09189006 -0.8319037 -0.8111144 0.06332488 -0.5814494 1973278 female
-1.849085 -0.5186475 -0.7958536 -0.8935867 0.3509978 -0.2798274 2236962 female
-1.580042 0.267434 -0.6078455 -0.492671 0.1794753 0.8515068 9277337 female
-1.710558 -0.01697443 -0.7728159 -0.9293771 0.2538632 0.267977 2631464 female
-1.521285 0.1472877 -0.5566482 -0.2704827 0.0895507 0.9585509 12239310 female
-1.68094 -0.3473317 -0.7537864 0.5944308 -0.2346907 0.7691374 2499111 female
-1.551095 0.7544867 -0.800791 -0.3480245 -0.1449069 -0.9262186 15651524 female
-1.391652 0.4434758 -0.6565405 0.9627902 -0.2075306 0.1731072 10662336 female
-1.510671 0.6150674 -0.6363828 -0.607814 0.7799438 0.1491637 14080227 female
-1.564761 0.0129835 -0.6998925 -0.6860083 -0.1060167 -0.7198285 1973534 female
-1.909427 -0.5954691 -0.746272 -0.04547152 0.7013935 0.7113224 2432804 female
-1.563331 0.8932483 -0.7474563 -0.3905129 0.90347 -0.1767527 2696225 female
-1.540717 -0.01814418 -0.5545203 -0.4548547 -0.08701237 0.8863048 2303015 female
-1.789838 -0.4577112 -0.7513239 -0.4561067 0.1603387 0.8753617 1645085 female
-1.484352 0.315692 -0.5918918 0.2735881 0.0428034 0.9608941 3222577 female
-1.405118 0.4467909 -0.6221111 0.8289113 -0.2118209 0.5177238 14342889 female
-1.463159 0.704281 -0.7335106 0.9775059 -0.1260872 0.1690691 3025446 female
-1.404617 -0.05000068 -1.100682 -0.9517155 -0.2758026 -0.1347982 3026995 female
-1.453512 0.6454574 -0.7717181 0.7913011 0.5565559 -0.2531563 16373192 female
-1.33719 -0.5916827 -0.7305906 -0.6358691 -0.1377302 -0.7594083 2105120 female
-1.574933 0.6853173 -0.7556459 -0.4471727 -0.6769732 -0.5845886 13285801 female
-1.632762 0.2417073 -0.8250084 -0.8159974 0.2253124 -0.5323369 3816770 female
-1.667451 0.08132192 -0.7790639 -0.8487841 0.4637276 0.2540124 2962489 female
-1.755175 -0.5200418 -0.7891198 0.7928139 -0.6083307 0.03714762 2500142 female
-1.536272 0.788132 -0.81714 -0.1961482 -0.7611678 -0.6181824 3419944 female
-1.493418 0.4391778 -0.9441071 -0.8323621 -0.4436017 -0.332251 4869202 female
-1.611779 0.5082166 -0.6688907 -0.7770074 0.6197507 0.1103113 14870772 female
-1.434186 0.7627457 -0.7596624 0.8803173 -0.4243457 -0.2120666 6840927 female
-1.491133 0.8146344 -0.8182684 0.1847256 0.003260983 -0.9827847 2696225 female
-1.327613 -0.6744164 -0.7350958 -0.531673 0.02157594 -0.8466748 3485484 female
-1.43403 0.831809 -0.7840776 0.8435919 0.2176942 -0.4908787 5459531 female
-1.498864 0.1787649 -0.5580235 -0.07401838 0.2033907 0.9762958 15002359 female
-1.48534 0.6812664 -0.6982911 0.57987 0.1220227 0.8055192 14337465 female
-1.403122 -0.01530539 -1.096654 -0.9009652 0.1398497 -0.4107357 16636372 female
-1.36596 -0.6754231 -0.65746 -0.210548 0.8370033 0.5050694 15193042 female
-1.652583 -0.2745874 -0.7368292 0.4379569 -0.3406149 0.8319708 2170913 female
-1.349454 -0.5290191 -0.6553503 -0.2286941 -0.3053567 0.924368 2302499 female
-1.477142 0.006801775 -0.866572 0.5560271 -0.5846835 -0.5907446 2499110 female
-1.419798 0.5850484 -0.5958842 0.8120862 0.4733399 0.3412703 14936048 female
-1.40792 0.350867 -0.6979461 0.9723775 -0.2010688 -0.1185463 14606837 female
-1.555929 0.004209731 -0.5638353 -0.6176964 -0.03330133 0.7857113 2500391 female
-1.538687 0.632817 -0.7980145 -0.7166889 0.3656165 -0.5938699 15190965 female
-1.639749 0.1004037 -0.7398293 -0.9675506 -0.03106054 0.2507607 13685731 female
-1.397598 -0.2404936 -0.6970971 0.7362171 0.17265 -0.6543519 2172201 female
-1.442759 0.04120383 -0.848589 0.786398 -0.3145255 -0.5316502 2764594 female
-1.430076 -0.121909 -0.57442 0.4864492 -0.1525828 0.8602824 1907745 female
-1.3452 -0.6841342 -0.7240283 -0.638005 -0.008779014 -0.7699822 7695470 female
-1.32845 -0.3450769 -0.6838313 0.8807226 0.4240964 -0.2108789 2368804 female
-1.644206 -0.2764208 -0.8245585 0.7982581 -0.3451489 -0.4936155 2697773 female
-1.616215 0.3253324 -0.2885798 0.190806 0.550675 0.8126194 7830143 female
-1.659199 0.2321353 -0.7702096 -0.9495151 0.1506569 -0.2751792 15002876 female
-1.356794 -0.7341626 -0.6106802 0.2532281 -0.9524696 0.1693435 10388093 female
-1.530282 0.8351737 -0.6633545 -0.05368958 0.1550837 0.9864413 2895148 female
-1.634813 0.4516439 -0.625283 -0.9090873 0.169586 0.3805271 15199223 female
-1.528146 -0.1081063 -0.5684746 -0.5231019 -0.2900177 0.8014076 2237224 female
-1.582919 0.6781174 -0.7276216 -0.4067937 -0.9129221 0.03304603 15325640 female
-1.632137 0.0888278 -0.8740034 -0.6800195 0.2415303 -0.6922691 1052177 female
-1.606394 0.1094502 -0.6216583 -0.6592921 -0.2727181 0.7006844 13159896 female
-1.556219 0.4726155 -0.580098 -0.1665136 0.1345039 0.9768223 9473942 female
-1.559668 -0.04655682 -0.6961427 -0.7025111 -0.1870254 -0.6866584 2698288 female
