# .PCD v0.7 - Point Cloud Data file format
VERSION 0.7
FIELDS x y z normal_x normal_y normal_z rgb label
SIZE 4 4 4 4 4 4 4 4
TYPE F F F F F F U U
COUNT 1 1 1 1 1 1 1 1
WIDTH 170
HEIGHT 1
VIEWPOINT 0 0 0 1 0 0 0
POINTS 170
DATA ascii
-0.6939267 -0.1316818 -1.550835 -0.8100524 -0.3302349 -0.4845205 2039847 female
-0.7514541 0.0006861482 -1.664561 0.5413848 -0.7884942 -0.291855 1775387 female
-0.800987 0.7135516 -1.491634 -0.7430084 -0.3054778 0.5955014 16772054 female
-0.6932783 -0.1425848 -1.543467 -0.8434359 -0.3028806 -0.4437107 1974308 female
-0.8849609 0.07261327 -1.49626 -0.5790606 0.2694884 0.7694575 12962778 female
-0.5922431 0.6069311 -1.569209 0.6047307 0.7768495 0.1755158 12632772 female
-0.526093 0.3833981 -1.547082 -0.0396902 -0.1951753 0.9799649 15724543 female
-0.7606198 0.4231995 -1.470191 -0.3870026 -0.1787723 0.9045825 11580608 female
-0.7690345 0.5176461 -1.509338 -0.2440937 0.3620398 0.8996363 14542317 female
-0.8518779 0.6173722 -1.685708 -0.2787686 0.6928119 -0.6650562 15000812 female
-0.5792125 0.5956585 -1.581979 0.698673 0.7091559 -0.09462455 11909572 female
-0.5640305 -0.2067905 -1.509443 0.9422994 -0.09313985 -0.321554 1907749 female
-0.7934147 -0.3291075 -1.569626 0.8252084 -0.4437588 0.3494413 1710618 female
-0.6308519 0.118983 -1.476733 0.1937451 0.3760157 0.9061319 14608375 female
-0.9083571 -0.06265782 -1.508613 -0.8975354 -0.06578498 0.4360074 2433829 female
-0.8723137 -0.1775334 -1.481038 -0.6003278 -0.1771242 0.7798933 2434085 female
-0.8382313 -0.4635201 -1.805129 -0.9514623 -0.08883998 -0.2946641 1579291 female
-0.6851795 -0.1268027 -1.44559 -0.7711676 -0.084219 0.6310369 2170914 female
-0.7604947 0.215064 -1.454539 -0.1184647 0.1530883 0.9810862 12830424 female
-0.7137148 0.7492415 -1.467841 0.53404 -0.1228132 0.8364916 16571342 female
-0.9822942 0.2085812 -1.695728 -0.2290995 -0.575659 -0.7849396 15658742 female
-0.583869 0.4400293 -1.571535 -0.8798525 -0.4741848 0.03175447 592395 female
-0.5805134 0.01746678 -1.462048 0.6730219 0.1827841 0.7166808 2236706 female
-0.7733643 -0.1613652 -1.591054 0.8282069 -0.1432757 -0.5417982 2236194 female
-0.8569503 -0.3119032 -1.500661 -0.5363495 -0.6209366 0.5716354 2106152 female
-0.5312951 0.313818 -1.587022 -0.834897 -0.3434393 0.4301121 3619128 female
-0.5732564 -0.1969006 -1.530609 0.8099461 -0.1954466 -0.552981 2171171 female
-0.8353927 -0.4813895 -1.779027 -0.7719216 -0.604607 0.1964369 2499627 female
-0.8108013 0.6502233 -1.651233 -0.2893335 0.8759147 -0.3860824 15718085 female
-0.6012821 -0.3506029 -1.544816 -0.02659943 0.1043884 -0.9941809 2237481 female
-0.5863895 -0.7136558 -1.365691 -0.1211977 -0.9920884 0.03273673 591624 female
-0.817799 0.2159824 -1.473839 -0.5230376 0.1273867 0.8427362 9145499 female
-0.5844611 -0.2002622 -1.543386 0.6237788 -0.2255556 -0.7483481 2303016 female
-0.567362 0.2069142 -1.604729 0.9288005 0.3172867 -0.1914647 6315103 female
-0.7854809 0.6643527 -1.552246 -0.8863251 -0.1554233 0.4362012 16573400 female
-0.7511522 0.6242341 -1.674486 0.2878266 0.4667008 -0.8362692 14081519 female
-0.8017944 -0.282204 -1.600085 0.6814001 0.6367661 -0.360864 2236706 female
-0.5764438 0.4287017 -1.551809 -0.7142406 -0.5134079 0.4756813 7697790 female
-0.9232204 -0.03619113 -1.573157 -0.9863881 -0.154131 -0.05728979 2434085 female
-0.8829263 0.3585445 -1.593168 -0.9856669 -0.05100051 0.1608097 10330022 female
-0.8797694 0.2868516 -1.567597 -0.9078873 0.1413647 0.3946603 3290162 female
-0.8606283 0.2704507 -1.533369 -0.803652 0.160794 0.5729648 9671840 female
-0.6715208 0.2604551 -1.485089 0.4767029 0.2117267 0.8531859 14608375 female
-0.627305 -0.4769682 -1.454411 -0.6985165 -0.0966558 0.7090363 2301731 female
-0.6624112 0.06817269 -1.453769 -0.1723854 0.3547401 0.9189357 2500910 female
-0.7192786 0.6400154 -1.535958 0.3576494 -0.1942583 0.9134279 16773345 female
-0.5589033 0.1205722 -1.536413 0.8926528 0.2512575 0.3742201 2960693 female
-0.4674413 0.2571066 -1.548191 -0.1331764 0.1093102 0.9850459 6842227 female
-0.6139905 -0.1097537 -1.59044 0.2557848 -0.2899418 -0.9222299 2171945 female
-0.5904956 -0.4298786 -1.543972 0.1140385 -0.1497156 -0.9821305 2434601 female
-0.9027695 0.5488095 -1.596153 -0.4135582 -0.01503476 0.9103535 15591925 female
-0.580803 -0.1971707 -1.438125 0.7330682 0.01478813 0.6799943 1908257 female
-1.012956 0.06403401 -1.516931 -0.7450178 -0.5159163 -0.4228225 2630692 female
-0.5695896 -0.6686441 -1.481117 0.8160145 0.05173169 -0.575712 2302243 female
-0.7041348 0.17244 -1.710333 0.148216 0.2456883 -0.9579505 9541537 female
-0.7081902 0.7425917 -1.473622 0.6621497 -0.2222416 0.7156581 16768206 female
-0.5199972 0.2772086 -1.61011 -0.9142653 -0.3771713 -0.1478541 1578008 female
-0.9186801 0.3839425 -1.675217 0.3719735 -0.3600242 0.8555807 13617111 female
-0.861039 0.07053494 -1.486142 -0.3421849 0.3047758 0.8888314 9540768 female
-0.8261847 0.6452686 -1.653931 -0.3544234 0.8757966 -0.327665 14730679 female
-0.534408 0.35915 -1.557905 -0.4552198 -0.3674924 0.811002 15197173 female
-0.4949937 0.2029552 -1.585123 -0.9410927 -0.3378727 -0.01366242 4539977 female
-0.5547349 0.00280741 -1.491135 0.8734899 0.07751051 0.4806324 1777187 female
-0.8782088 -0.3192828 -1.68075 -0.7611141 0.4230119 -0.4916974 1973537 female
-0.8347393 -0.6755955 -1.786264 -0.1565546 -0.7857792 -0.5983659 527368 female
-0.4673768 0.3413081 -1.619453 0.8393565 0.2167157 -0.4985127 12041415 female
-0.4796059 0.3609596 -1.624591 0.7188421 0.2529906 -0.6475043 7368312 female
-0.6252451 0.1179496 -1.700817 0.4555278 0.04155995 -0.8892509 9935534 female
-0.6572326 0.8151471 -1.564763 0.9975982 -0.002515652 -0.06922121 2697257 female
-0.8884396 0.2662273 -1.586861 -0.9713379 0.162632 0.1733598 12173258 female
-1.010017 0.003747527 -1.532708 0.94859 -0.1901981 -0.2529854 2631462 female
-0.7804831 0.04261791 -1.719886 0.07061894 -0.3683237 -0.9270117 3159873 female
-0.6884277 0.6719163 -1.588897 0.9207999 0.3807477 -0.08461013 14204849 female
-0.6804571 0.7399741 -1.531036 0.7494339 -0.4289514 0.5043308 15849418 female
-0.7840317 0.3561909 -1.708531 0.01395605 -0.155246 -0.9877772 15199231 female
-0.7960125 -0.2288546 -1.484692 0.6973813 -0.1908906 0.6908111 1973793 female
-0.8736315 0.4365431 -1.705874 0.9277207 -0.3730397 0.01326055 1052688 female
-0.88746 0.5010654 -1.640179 0.4010965 -0.7921916 0.4599502 657931 female
-0.6630144 0.1041316 -1.712507 0.1995731 -0.02771156 -0.979491 15661822 female
-0.6854213 0.2314528 -1.469191 0.3829682 0.1847972 0.9050886 14805497 female
-0.6964152 0.6637414 -1.617998 0.5250373 0.6498202 -0.5496085 16309455 female
-0.6543393 -0.1034317 -1.422652 -0.3025387 0.006966415 0.9531116 2171687 female
-0.83096 -0.5607545 -1.882984 -0.8127247 -0.1684348 -0.5577708 1577750 female
-0.7877765 -0.309939 -1.549047 0.8779348 -0.3710905 0.3025267 2302499 female
-0.8951906 -0.003701195 -1.491693 -0.7415642 0.06320446 0.6678979 3552823 female
-0.8931951 -0.281449 -1.53389 -0.9624617 -0.2451228 0.1165436 2368554 female
-0.5380892 0.5456625 -1.583363 0.7307306 0.5404714 -0.4170413 12370123 female
-0.5893079 -0.133093 -1.572197 0.5274056 -0.2345727 -0.8165899 2499625 female
-0.8700005 0.2527745 -1.539015 -0.81108 0.2145068 0.5441839 14608375 female
-0.7392939 0.647523 -1.653923 0.1959081 0.6088889 -0.7686835 16241855 female
-0.8828481 0.5628963 -1.710416 -0.1043797 0.2803558 -0.9542041 14803697 female
-0.9295143 0.5477189 -1.614357 -0.557894 -0.03053124 0.8293505 14540261 female
-0.643355 -0.3439273 -1.525604 -0.7136053 0.04940134 -0.698804 2170660 female
-0.8292074 -0.5223114 -1.856407 -0.9990176 0.0413054 -0.01605143 2170913 female
-0.5698623 0.4042337 -1.565676 -0.8253843 -0.451678 0.338715 10724018 female
-1.012875 0.04876342 -1.497058 -0.9231189 -0.3577275 -0.1410053 1317402 female
-0.5589793 -0.2360108 -1.475734 0.9914221 0.03122553 0.126914 2039327 female
-0.5671497 0.1984823 -1.612538 0.9252788 0.269473 -0.2669147 13225951 female
-0.77083 -0.5554672 -1.875314 0.8760724 -0.4053872 -0.2610716 6445912 female
-0.7165471 0.2355341 -1.694421 0.1335118 0.3777249 -0.9162415 10264494 female
-0.8887517 0.3904891 -1.621744 -0.9265352 -0.3484684 -0.1417827 13883367 female
-0.7753427 0.8396918 -1.627134 -0.5761933 0.2653226 -0.7730492 3025958 female
-0.8070772 0.7658583 -1.487772 -0.7174798 0.1566125 0.6787454 15324610 female
-0.9026495 0.01443046 -1.647328 -0.7722643 -0.1977833 -0.6037298 2105128 female
-0.802772 -0.6431976 -1.785914 -0.3060704 0.5271155 0.792761 16443872 female
-0.7873704 -0.1558366 -1.487465 0.6940916 -0.09129819 0.7140738 1645601 female
-0.8726061 0.1318036 -1.513484 -0.6140344 0.05139239 0.7876043 13356768 female
-0.6416574 0.5820014 -1.664681 0.3227771 0.4477131 -0.8338873 14871031 female
-0.649138 -0.4028901 -1.473381 -0.9097553 -0.05284041 0.4117683 1776155 female
-0.7767423 0.4001366 -1.483829 -0.2454233 -0.3036965 0.9206171 15001341 female
-0.9156071 -0.05873144 -1.531212 -0.9622894 -0.1008554 0.2526407 2565415 female
-0.8224318 -0.4545572 -1.724156 0.03643081 -0.8169687 0.5755302 2367784 female
-0.6545916 0.2265674 -1.482912 0.4957834 0.2077768 0.8432246 13028575 female
-0.8491861 -0.05291466 -1.464799 -0.151582 0.001741621 0.9884432 2434085 female
-0.5731761 0.1513545 -1.524132 0.8077415 0.2362038 0.5401495 12830932 female
-0.790435 -0.2952 -1.610859 0.8588316 0.4679915 -0.2083081 2434346 female
-0.780788 0.6770685 -1.495975 -0.5505801 -0.8286231 0.1012182 14404021 female
-0.6077276 0.4112496 -1.649842 0.7874769 -0.3113695 -0.5319109 3946302 female
-0.6047019 0.6011561 -1.543546 0.1792412 0.8053533 0.5650474 14212066 female
-0.7177325 -0.07541744 -1.546804 -0.9273369 -0.2889757 -0.2377801 11119017 female
-0.8306241 -0.5124867 -1.851994 -0.9990287 -0.01553095 -0.04123742 1906717 female
-0.7675118 0.8875411 -1.504949 -0.3421918 0.8626343 0.3725143 2696225 female
-0.6726716 0.07248209 -1.457994 -0.2675192 0.3452059 0.8995923 2632752 female
-0.8311662 -0.4964383 -1.821716 -0.9713552 -0.2322854 0.05012546 1841436 female
-0.6049061 0.3519747 -1.570299 0.9598263 -0.05763961 0.2746108 14606571 female
-0.6656206 0.3500966 -1.501248 0.5082124 0.0203352 0.8609917 9737887 female
-0.720192 0.6988454 -1.619763 0.3648659 0.1833748 -0.9128234 5458249 female
-1.011378 0.003736398 -1.536021 0.7224023 -0.3806781 -0.5772513 3882563 female
-0.8492232 0.6012845 -1.590314 -0.3833997 0.5646064 0.7309065 14343139 female
-0.6149942 -0.5707902 -1.454846 -0.9129579 -0.04365706 0.4057117 1777185 female
-0.7847968 0.6834829 -1.527189 -0.7126237 -0.6974745 -0.07547622 13022629 female
-0.8809224 0.2429241 -1.551614 -0.8608459 0.2248529 0.4564928 3816770 female
-0.8456573 0.075248 -1.484936 -0.2165899 0.2864879 0.9332811 12106181 female
-0.7856073 -0.3881876 -1.750398 0.815048 0.4001651 -0.4190043 2169889 female
-0.8132772 0.7268533 -1.524298 -0.9783624 -0.2046495 -0.03042275 16245971 female
-0.9651895 0.4469454 -1.692911 -0.9829635 0.1735622 0.0604885 7369075 female
-0.9023139 0.432359 -1.539347 -0.964893 -0.07000736 0.2531411 6975094 female
-0.7109658 0.7561139 -1.630053 0.3431192 -0.4610875 -0.8183322 3486769 female
-0.7923328 0.8247365 -1.613921 -0.748904 0.1121264 -0.6531237 2696225 female
-0.6065665 -0.6407537 -1.479514 -0.9538873 -0.0838682 -0.2882102 1841951 female
-0.7339805 0.8448105 -1.64198 0.02615706 0.3585256 -0.9331534 5459531 female
-0.6127522 0.3512177 -1.641832 0.8635271 -0.1786522 -0.4715977 12829389 female
-0.6894931 0.7060946 -1.572858 0.975697 -0.08250031 -0.2029999 6313302 female
-1.00845 0.0363954 -1.545833 0.9647489 -0.05702949 0.2569185 4078134 female
-0.5720437 -0.6662945 -1.379421 0.5690264 0.7802101 0.2597714 11903642 female
-0.7692017 -0.2281377 -1.52272 0.9637076 -0.07317735 0.2567348 2038815 female
-0.566672 -0.5181088 -1.44148 0.5372891 -0.01357465 0.8432888 2302499 female
-0.8921598 0.04817703 -1.672607 -0.725123 -0.08330327 -0.6835621 2564904 female
-0.5846716 0.5793998 -1.622652 0.7147917 0.4581774 -0.528343 15658750 female
-0.7085794 0.2801629 -1.683452 -0.01472207 0.04880621 -0.9986998 11184568 female
-0.6198025 0.03907026 -1.444638 0.3027908 0.2785128 0.911454 2565935 female
-0.7475666 0.6188521 -1.537738 -0.2505812 -0.2080299 0.9454801 15913924 female
-0.8825831 0.1505886 -1.523971 -0.7138397 0.0001755278 0.7003091 8817821 female
-0.6260815 -0.2475673 -1.541156 0.03224429 -0.2186366 -0.9752735 2172201 female
-0.8421702 0.04983259 -1.710184 -0.3622815 -0.161933 -0.9178942 3619391 female
-0.5558027 -0.1259833 -1.496443 0.9860299 -0.06459703 0.1535325 1908261 female
-0.6168894 -0.6750462 -1.395122 -0.9541085 0.2920662 0.0661388 14205376 female
-0.5731371 -0.3591116 -1.539936 0.4284377 0.104235 -0.897539 2368804 female
-0.7902496 -0.2475761 -1.571679 0.6135536 0.1818619 -0.7684258 2500142 female
-0.4122837 0.09368006 -1.546569 0.9872602 0.1479457 0.05856057 6579820 female
-0.7976807 0.2573993 -1.475342 -0.3481876 0.1292959 0.9284654 15200255 female
-0.5488597 -0.704044 -1.307946 0.9517778 -0.2618789 0.1598072 1051664 female
-0.6702746 0.849364 -1.525345 0.8617856 0.3839975 0.3314687 1907741 female
-0.7256887 0.38135 -1.480756 -0.08998328 -0.3996738 0.9122302 15200255 female
-0.655768 -0.0246536 -1.428159 -0.186547 0.1147375 0.975723 2499878 female
-0.681893 0.661073 -1.585579 0.8279099 0.5326874 0.1755256 11245705 female
-0.9132994 0.08698107 -1.5376 -0.8864858 0.1739367 0.4288229 9869730 female
-0.8191669 -0.646806 -1.790082 -0.3117739 0.5853975 0.7484029 15649215 female
-0.6180719 0.481768 -1.515724 0.597301 -0.4201959 0.6831303 7040109 female
-0.7090799 -0.09519648 -1.550333 -0.8814524 -0.3314382 -0.3364379 2235673 female
