# .PCD v0.7 - Point Cloud Data file format
VERSION 0.7
FIELDS x y z normal_x normal_y normal_z rgb label
SIZE 4 4 4 4 4 4 4 4
TYPE F F F F F F U U
COUNT 1 1 1 1 1 1 1 1
WIDTH 171
HEIGHT 1
VIEWPOINT 0 0 0 1 0 0 0
POINTS 171
DATA ascii
-0.5845322 -0.1131884 1.703122 -0.3003338 -0.06697983 0.9514796 2105894 female
-0.792187 0.05833577 1.686945 -0.5946152 -0.7082564 -0.3805334 2302499 female
-0.5621331 0.7888899 1.652215 0.7604277 0.1026355 0.641261 16242894 female
-0.6046646 -0.1062603 1.696357 -0.4687763 -0.1539173 0.8698036 2106409 female
-0.673969 0.05632485 1.872785 0.2258467 0.04816762 0.9729713 3355187 female
-0.7169587 0.6393819 1.498728 -0.3101401 0.7952592 -0.5209376 12961742 female
-0.7871288 0.4263781 1.460092 0.6785507 -0.7095978 0.1898424 14606070 female
-0.5470202 0.3847835 1.652733 0.9612265 0.2756959 0.005948111 15134462 female
-0.5785914 0.5394386 1.612119 0.8325189 0.5522184 0.04435266 14081509 female
-0.761291 0.6079289 1.787839 -0.9166945 0.2153412 0.3365997 15066869 female
-0.7398187 0.6268365 1.500925 -0.6046507 0.6803727 -0.4141141 15395066 female
-0.5677016 -0.2427496 1.610037 -0.5888718 -0.3219234 -0.741347 2302499 female
-0.7693346 -0.2863161 1.797855 0.6080542 -0.7277488 -0.3172567 1776669 female
-0.5560657 0.1295708 1.563432 0.886046 0.3064146 -0.3478974 8883096 female
-0.7386264 -0.0445851 1.873987 -0.2183642 -0.04454113 0.9748504 2170915 female
-0.7724087 -0.1942627 1.864566 -0.1120091 -0.03968999 0.9929142 2433061 female
-0.8672068 -0.3868291 1.835542 0.6680176 -0.5989798 0.4415604 2171174 female
-0.4792757 -0.07599825 1.639739 0.9887074 0.1346309 0.06581934 2170917 female
-0.5313133 0.2029032 1.706 0.9660056 -0.1173787 0.2303375 8290954 female
-0.5589061 0.7700855 1.563194 0.8182209 -0.1446523 -0.5564084 16309454 female
-0.5929736 0.4086435 1.927646 0.3547277 -0.2790316 0.8923618 11843007 female
-0.6734732 0.5144371 1.475727 0.5001237 -0.8615271 -0.08744933 9605783 female
-0.5547065 0.1134193 1.550919 0.8318476 0.2727485 -0.483361 11250611 female
-0.7691304 -0.1669398 1.734609 -0.1558126 -0.03439572 -0.9871876 2499366 female
-0.7382776 -0.2376677 1.851115 0.4100755 -0.3629012 0.8367442 1974566 female
-0.8291401 0.4308366 1.492105 0.06683349 -0.3657776 0.9282996 5394011 female
-0.6104016 -0.1811535 1.635398 -0.8890957 -0.4393829 -0.1282629 2106409 female
-0.9976765 -0.5034029 1.830953 -0.2991112 0.02090226 0.9539893 1710362 female
-0.6845246 0.6845635 1.694421 0.3807859 0.811193 0.4438107 15124666 female
-0.5321114 -0.4151703 1.70145 -0.8426515 -0.3562064 0.4038013 2697257 female
-0.3031676 -0.6134105 1.744595 0.1499323 -0.05957434 0.9868999 11049364 female
-0.5444188 0.3199889 1.708475 0.9451129 0.1098867 0.3077115 15199740 female
-0.6127964 -0.1685077 1.614291 -0.8245167 -0.4682254 -0.3177062 2106408 female
-0.6813073 0.2629158 1.520592 -0.3178876 0.2698848 -0.9089057 13554663 female
-0.6051304 0.7098035 1.643515 0.2292601 -0.6086457 0.7595987 13680298 female
-0.7656736 0.6325663 1.661745 -0.9042642 0.3820798 -0.1905815 15462395 female
-0.9057367 -0.36564 1.859497 -0.07266663 -0.1114004 0.9911153 1973798 female
-0.7644345 0.4535724 1.476437 0.5571932 -0.6842018 0.4705356 5460833 female
-0.7402071 -0.003200606 1.873412 -0.2825218 -0.01232014 0.9591817 2171430 female
-0.6781176 0.3350384 1.801611 -0.01430314 0.2371581 0.9713657 8224645 female
-0.5998544 0.307652 1.777816 0.5368103 0.2746218 0.7977579 10791862 female
-0.5749888 0.3299878 1.753412 0.6556433 0.1931085 0.7299595 11646150 female
-0.5357295 0.2679632 1.62902 0.9542336 0.115554 -0.275836 15068669 female
-0.4235964 -0.4525216 1.713537 0.7489839 0.3198117 0.580296 2696233 female
-0.5548111 0.1079088 1.655531 0.8379062 0.2824516 0.4670485 4144969 female
-0.622362 0.6642054 1.606097 0.9100284 -0.2430228 -0.3358397 16312535 female
-0.6549647 0.06447718 1.497039 -0.1076481 -0.1190534 -0.987035 2302504 female
-0.8574992 0.3590463 1.419319 0.9495951 -0.3086683 -0.05470882 11185080 female
-0.6414856 -0.1169037 1.625995 -0.9077359 -0.4136941 -0.06980543 2172201 female
-0.5109269 -0.4441839 1.713552 -0.7413231 -0.3928835 0.5441347 1908773 female
-0.670679 0.6623258 1.774374 0.5020957 0.8640399 0.03653778 14343651 female
-0.4743234 -0.1357463 1.656139 0.9752454 0.1250179 0.1823922 2040102 female
-0.3445352 0.528452 1.770033 -0.1046393 0.9390857 0.3273664 2696233 female
-0.3608138 -0.6565628 1.70048 -0.2548665 -0.3414019 -0.9047031 13611433 female
-0.7724339 0.1274736 1.56192 -0.8530589 0.005396971 -0.5217868 15199231 female
-0.7354151 0.6391357 1.516378 -0.5921953 0.7101657 -0.3807484 13948130 female
-0.8464424 0.3828436 1.471265 0.5592147 -0.5624978 0.6089952 4407882 female
-0.6521137 0.4229757 1.869115 0.662423 -0.2117227 -0.7185885 13815771 female
-0.6119883 0.0666578 1.8274 0.871114 0.02715549 0.4903294 3620679 female
-0.742654 0.6742101 1.683208 -0.7122109 0.6994861 0.05894734 14991538 female
-0.7807672 0.43368 1.464357 0.6554875 -0.7055459 0.2693348 14606319 female
-0.9011584 0.3028783 1.445246 0.1239045 -0.4661929 0.8759634 5065552 female
-0.535576 -0.1504439 1.573466 0.2896478 -0.2191055 -0.9317172 1974049 female
-0.8847107 -0.264428 1.77903 -0.5466661 0.6136248 -0.569755 2500141 female
-0.9194598 -0.6845446 1.862045 -0.008103307 0.8206586 0.5713614 1906199 female
-0.9133619 0.3945095 1.424082 -0.761773 0.5590641 -0.3273365 12303304 female
-0.8667566 0.4164596 1.4017 0.04335788 0.3516744 -0.9351177 10330020 female
-0.7600957 0.08779556 1.550183 -0.7746637 -0.1797688 -0.6062832 2698297 female
-0.6629747 0.8405134 1.510724 -0.1989808 -0.03580752 -0.979349 2565671 female
-0.6009587 0.2810211 1.789008 0.5340511 0.2793804 0.7979575 15660798 female
-0.3652071 0.4929566 1.814694 0.5084395 0.2513788 0.8235885 7956327 female
-0.8222264 0.09846604 1.755605 -0.9926098 -0.05131023 0.109968 3158840 female
-0.6997427 0.7078032 1.580429 -0.6271365 0.2467848 -0.7387808 13810610 female
-0.5964159 0.730835 1.559088 0.2091318 -0.5446499 -0.8121701 16377046 female
-0.7678537 0.3170473 1.684604 -0.9626538 -0.09109129 -0.2549512 10066342 female
-0.8775192 -0.3580289 1.754082 0.3370019 -0.2628322 -0.9040735 1841953 female
-0.7104796 0.5019742 1.806938 -0.05873147 -0.6114824 -0.7890753 526344 female
-0.6527841 0.5717241 1.790673 0.7876539 -0.4755447 0.3917381 11908288 female
-0.7723403 0.1041219 1.565474 -0.8595839 -0.1279064 -0.4947277 13554655 female
-0.5339031 0.2602933 1.632431 0.9610894 0.1086948 -0.2539538 13883371 female
-0.7158135 0.6900321 1.586807 -0.6736786 0.6158018 -0.4085894 16309455 female
-0.5552462 -0.05042951 1.707911 0.1830122 0.02246049 0.982854 2170914 female
-1.018666 -0.6413837 1.837619 -0.566218 -0.8013253 -0.1930672 526344 female
-0.7035705 -0.1900259 1.776074 0.7518217 -0.4595977 -0.4727939 1580065 female
-0.6072896 0.02958146 1.759851 0.962481 -0.1232472 -0.2417447 2434085 female
-0.695276 -0.1485428 1.853732 0.586768 -0.3406764 0.7346039 2697257 female
-0.8060377 0.5377304 1.461431 -0.7539916 0.6427277 -0.1356384 13552598 female
-0.6312337 -0.1058584 1.582072 -0.7207116 -0.4231901 -0.5490764 2303017 female
-0.5731611 0.3697826 1.742891 0.7204077 0.165532 0.6735072 15725567 female
-0.7177694 0.6892646 1.692585 -0.3240157 0.9057761 0.2730996 16375245 female
-0.7485512 0.6395427 1.77807 -0.7242498 0.5563031 0.4074174 14673647 female
-0.6552802 0.6292658 1.822126 0.8328193 0.4194908 0.3611639 13883620 female
-0.5648021 -0.2673382 1.69645 -0.7845191 -0.3608546 0.5042952 2039329 female
-0.9839578 -0.6223635 1.850536 0.4017135 0.6410634 0.6539602 14596531 female
-0.464587 -0.281043 1.639738 0.9216209 0.0770849 -0.3803588 2170913 female
-0.3693482 0.5124114 1.795264 0.4460044 0.2549984 0.857937 5524298 female
-0.4804739 -0.1858036 1.61523 0.8097976 -0.02812129 -0.586035 1973536 female
-0.6601828 0.211026 1.499315 -0.08153933 0.2028318 -0.9758128 12632527 female
-1.069782 -0.5425262 1.777905 -0.5514427 0.6564654 -0.5147467 16773103 female
-0.7309711 0.4104917 1.516539 -0.50781 -0.4062424 -0.7596684 14606319 female
-0.6457611 0.4084165 1.784128 0.3164058 0.05349053 0.9471146 13554654 female
-0.7060461 0.8630533 1.641036 -0.6179153 0.2761094 0.7361686 3354154 female
-0.5684092 0.8270057 1.65041 0.4812447 -0.04443277 0.8754595 15983574 female
-0.7812411 0.1339915 1.829653 -0.6777931 0.2349975 0.6966869 12304583 female
-0.9384975 -0.6751727 1.870821 0.6658493 -0.2092409 -0.7161445 2563863 female
-0.6738262 -0.139085 1.830335 0.8308364 -0.4185986 0.3667235 2237222 female
-0.7256335 0.236344 1.837142 -0.2532921 0.3278476 0.9101423 526600 female
-0.759429 0.6265908 1.567867 -0.8604152 0.50914 -0.02149927 15528959 female
-0.4898106 -0.3647068 1.727453 0.1836284 0.2403384 0.9531621 1775131 female
-0.5443161 0.3722981 1.665947 0.9642835 0.24952 0.08886512 6645874 female
-0.7574243 -0.03265326 1.866411 -0.407653 -0.01377968 0.9130329 1841948 female
-0.8777047 -0.4055391 1.811574 0.7711025 -0.636711 -0.000244881 2105377 female
-0.5567583 0.293437 1.589455 0.8735058 0.1483129 -0.4636711 9277337 female
-0.6429692 -0.07021072 1.784509 0.8947666 -0.4226304 -0.1441395 1973536 female
-0.6156169 0.1774973 1.501844 0.3403735 0.0568143 -0.9385723 6973806 female
-0.8557509 -0.2687042 1.761676 -0.2762272 0.3986928 -0.8744956 2631464 female
-0.5820069 0.7937222 1.664977 0.3443955 0.05362728 0.9372918 16113356 female
-0.7884994 0.4908212 1.560429 -0.9718462 -0.1386487 -0.1905035 15068661 female
-0.6937116 0.6378481 1.493384 0.1329415 0.8379263 -0.529345 14016222 female
-0.6124224 -0.03925897 1.704328 -0.2822908 -0.09821486 0.9542881 15395821 female
-0.9939144 -0.6091479 1.847501 0.3033515 0.5679107 0.7651505 15649477 female
-0.5874853 0.9147795 1.595177 0.4453909 0.8882785 0.1121973 2696225 female
-0.5485626 0.1076964 1.647446 0.8433507 0.3692896 0.3903649 3553086 female
-0.9220497 -0.4579274 1.822158 0.7415706 -0.5908947 0.3176737 2433830 female
-0.623682 0.336421 1.524114 0.3924984 -0.01562768 -0.9196199 7039859 female
-0.6045123 0.358854 1.534972 0.6290811 -0.04156782 -0.7762275 10659246 female
-0.7101477 0.7266004 1.605238 -0.9746643 0.1605803 -0.1557033 5458249 female
-0.357734 0.4976963 1.811135 0.3658411 0.1681634 0.9153586 9995394 female
-0.6285422 0.5762157 1.771746 0.8646909 0.194405 0.4631591 5131091 female
-0.4002778 -0.5663662 1.738703 -0.09179465 0.2315393 0.9684851 1776155 female
-0.6726581 0.8705075 1.657718 -0.3196827 0.3527218 0.8794261 2303267 female
-0.5651295 0.3846644 1.728064 0.8304572 0.2244346 0.5098725 14738679 female
-0.5997151 0.06468189 1.772797 0.9947028 -0.09856609 -0.02917547 3026737 female
-0.9209163 -0.3878071 1.754545 -0.05664999 -0.1320578 -0.9896219 2170657 female
-0.6216858 0.7712411 1.669495 -0.08966506 -0.04907456 0.9947622 14996675 female
-0.6426358 0.4312489 1.896426 0.9623753 0.1986792 -0.1853655 8685458 female
-0.6422212 0.5537206 1.786074 0.5985237 -0.2144323 0.7718731 10725809 female
-0.7230805 0.7818049 1.589918 -0.8725765 -0.485589 -0.05304324 3486769 female
-0.6880453 0.8612022 1.653258 -0.4668803 0.2527509 0.8474313 2696225 female
-0.3899067 -0.5869421 1.745371 -0.201471 0.1901181 0.9608666 1382681 female
-0.7285532 0.8730382 1.600335 -0.9115299 0.3886225 0.1344835 5459531 female
-0.5563024 0.1937518 1.561593 0.8901731 0.09902433 -0.4447315 6645359 female
-0.674868 0.7139979 1.566864 -0.3613656 -0.05421966 -0.9308465 13350311 female
-0.2993456 0.4851247 1.799013 0.4710684 -0.7279317 -0.4982069 1051656 female
-0.3047038 -0.5855054 1.708859 0.02687783 0.9395425 -0.3413759 15717326 female
-0.7134342 -0.1952364 1.765664 0.6753145 -0.4416532 -0.5906714 2039585 female
-0.4121661 -0.4963334 1.662825 0.6026002 -0.06308251 -0.7955462 1974310 female
-0.8005623 0.2232645 1.770852 -0.9000522 0.2957918 0.3200208 9868961 female
-0.7402455 0.5167991 1.494702 -0.8569511 -0.4370604 -0.2731537 10986671 female
-0.7617693 0.4100861 1.552615 -0.8645867 -0.2734918 -0.4215355 14145253 female
-0.5152597 0.04726823 1.582061 0.8947994 0.2230457 -0.3867619 3223601 female
-0.6929538 0.6801475 1.560378 0.03271122 0.652099 -0.7574278 12232855 female
-0.7445406 0.2467307 1.825148 -0.4321375 0.3809066 0.8174151 527368 female
-0.5502952 -0.274938 1.707446 -0.5536982 -0.230469 0.8001889 1841948 female
-0.7969047 0.1567691 1.802225 -0.8100297 0.1968873 0.5523471 11645886 female
-0.5630791 -0.1478724 1.567846 -0.02093037 -0.3285342 -0.9442602 1973537 female
-0.3029264 -0.6474835 1.697433 0.3361637 -0.9090883 0.2460741 527112 female
-0.5054011 -0.4158022 1.627424 -0.3388693 -0.3824233 -0.8596046 2170401 female
-0.8188626 -0.2088279 1.77029 -0.8046542 0.257667 -0.5349198 2565676 female
-0.9155773 0.2243107 1.349579 0.3176782 0.1926327 -0.9284251 14014949 female
-0.5544303 0.2360117 1.758971 0.797957 0.08751886 0.5963264 14607351 female
-0.2815519 -0.6438241 1.677927 0.2197408 -0.9716976 -0.08670563 10849162 female
-0.6026383 0.8392035 1.518214 0.368069 -0.1131226 -0.9228914 2698281 female
-0.6177918 0.5802512 1.53889 0.8508792 0.4436941 -0.2813186 15856891 female
-0.553979 0.03926108 1.698197 0.453533 0.2231892 0.862841 1973793 female
-0.6764492 0.6822199 1.564245 0.09106882 0.275954 -0.9568468 12165524 female
-0.6791081 0.1020679 1.869456 0.1635545 0.1435816 0.9760298 855821 female
-0.5941063 0.07493453 1.71473 0.5565371 -0.7906526 0.2552156 2170918 female
-0.6459144 0.5675304 1.470522 0.9422261 0.05971254 -0.3296125 12040641 female
-0.5840849 -0.09497235 1.704969 -0.2244991 -0.07043469 0.9719255 13883099 female
-0.9926847 0.05150463 1.325555 -0.6313503 0.2386257 -0.7378716 6575958 female
