# .PCD v0.7 - Point Cloud Data file format
VERSION 0.7
FIELDS x y z normal_x normal_y normal_z rgb label
SIZE 4 4 4 4 4 4 4 4
TYPE F F F F F F U U
COUNT 1 1 1 1 1 1 1 1
WIDTH 170
HEIGHT 1
VIEWPOINT 0 0 0 1 0 0 0
POINTS 170
DATA ascii
-2.908525 -0.05201034 -0.4564426 -0.1804328 -0.2894687 -0.9400276 1709850 female
-2.814966 0.01280152 -0.5330822 0.648367 -0.6462034 0.4025435 1579291 female
-3.09076 0.7998617 -0.4854957 -0.9651663 -0.2081008 0.1585813 16772830 female
-2.918154 -0.06321592 -0.4493967 -0.2311537 -0.2960903 -0.9267678 1579290 female
-2.943323 -0.002464269 -0.663519 -0.3663658 -0.1324777 -0.9209917 2040359 female
-2.867363 0.6279842 -0.3560244 0.20607 0.8561103 0.4739306 11514556 female
-2.850705 0.3773798 -0.2942587 -0.9455385 -0.2428226 0.2167815 14737648 female
-3.023857 0.4631585 -0.4529065 -0.9703788 0.2167369 0.1067246 8224647 female
-3.016395 0.5228814 -0.5307537 -0.9011239 0.4123259 0.1340262 12894412 female
-2.824633 0.5449913 -0.5995504 0.9116918 0.2512133 -0.3251304 15199735 female
-2.830591 0.5994504 -0.3469082 0.7033399 0.5742642 0.4189673 14079966 female
-2.888071 -0.07766134 -0.2837901 0.318661 -0.1179761 0.9404982 2170913 female
-2.901505 -0.34371 -0.5278705 -0.482443 -0.205415 0.8515006 1710618 female
-2.874748 0.08007102 -0.294479 -0.08521275 0.2162718 0.9726075 3026990 female
-2.9975 -0.08428153 -0.6081231 -0.8436756 -0.1812335 -0.5053374 2169889 female
-2.979733 -0.1893752 -0.5907242 -0.8961557 -0.2605768 -0.3591722 2237222 female
-2.892859 -0.4481794 -0.5518205 -0.8450444 -0.2212575 0.48677 2105377 female
-2.99954 -0.09804413 -0.3809999 -0.8769363 -0.00834128 -0.4805342 2171172 female
-3.009845 0.1361612 -0.4968875 -0.9509057 -0.3036593 -0.05974406 14672368 female
-3.038773 0.7532498 -0.4294763 -0.3828327 -0.09884315 0.9185147 16571342 female
-2.892176 0.2607163 -0.7579687 -0.8970091 0.04415325 -0.4398012 7764871 female
-2.832731 0.4278376 -0.3558906 -0.2319322 -0.3675144 -0.9006335 526344 female
-2.906882 0.06720161 -0.295101 -0.2656589 0.262685 0.9275893 1775387 female
-2.868392 -0.2391012 -0.5125343 0.5587043 0.01855492 0.8291594 2171174 female
-2.918241 -0.3321157 -0.6143128 -0.6195018 -0.1417441 -0.772092 2236714 female
-2.84008 0.3551785 -0.3044 -0.9638155 -0.2386854 -0.1186974 13422561 female
-2.891183 -0.2016503 -0.3301618 0.9705116 -0.2384624 0.0352549 2631208 female
-2.87763 -0.5300347 -0.5602637 -0.9277382 -0.2034774 0.3128879 2301989 female
-2.915378 0.638243 -0.6277662 0.2288825 0.7920378 -0.5659408 14740470 female
-2.906095 -0.3522931 -0.3947551 0.6713606 0.1642319 -0.7227053 2500137 female
-3.006015 -0.7036481 -0.2975898 -0.05506156 -0.9920843 -0.1128581 723723 female
-3.00965 0.2069434 -0.5568317 -0.935671 0.03137356 -0.351476 13884908 female
-2.890943 -0.1982788 -0.3420624 0.9429314 -0.2797437 -0.1806209 2565677 female
-2.769351 0.2421667 -0.3889427 0.809041 0.4538849 0.3734183 9738925 female
-3.009163 0.6712919 -0.509272 -0.6216004 -0.6555477 -0.4288006 16508372 female
-2.970028 0.009667515 -0.7020528 -0.8374177 -0.3484371 -0.4210976 11375760 female
-2.824712 -0.3307945 -0.5648581 0.8885618 0.3957973 0.2319534 2632239 female
-2.863429 0.417615 -0.2958013 -0.89743 -0.1686242 0.4076584 15724543 female
-2.999626 -0.06241326 -0.6114689 -0.84273 -0.1452575 -0.518369 2433829 female
-2.978632 0.3719353 -0.6051393 -0.5947427 -0.3921909 -0.7017602 4343370 female
-2.959605 0.2560123 -0.6215802 -0.6392363 0.1929816 -0.7444025 15725560 female
-2.986225 0.2791009 -0.5821731 -0.8748236 0.03831881 -0.4829237 14936825 female
-2.950484 0.2477596 -0.378277 -0.5834842 0.1215994 0.8029693 15726591 female
-2.986167 -0.4408892 -0.3719275 -0.9915258 -0.1292416 -0.0131636 2301731 female
-2.950554 0.06863109 -0.3235366 -0.6566532 0.3840744 0.6490713 2434605 female
-2.981489 0.6409842 -0.4725829 -0.7196062 -0.2416504 0.6509778 16773346 female
-2.80725 0.07906125 -0.3051397 0.4665498 0.06363443 0.8822029 2697773 female
-2.83038 0.3445238 -0.2552739 -0.8264036 0.3320574 0.454747 7829122 female
-2.791542 -0.01621886 -0.3517983 0.8413417 -0.4531026 0.2946898 2302507 female
-2.904901 -0.3783678 -0.3991052 0.6880705 0.07048038 -0.7222129 2500137 female
-2.916545 0.616108 -0.6570671 0.2235684 0.7136713 -0.6638452 13950437 female
-3.011862 -0.1516573 -0.3095342 -0.91851 0.08742978 0.3856105 2106152 female
-2.892416 0.2092205 -0.7628689 -0.7987023 0.04185686 -0.6002689 10791350 female
-2.916563 -0.6459772 -0.4160259 0.9705614 0.1642351 0.1761739 16308176 female
-2.755429 0.19597 -0.5105939 0.9101749 0.3220317 -0.2605325 9541537 female
-3.029972 0.748076 -0.4275129 -0.197908 -0.165338 0.9661759 16768206 female
-2.794711 0.2731016 -0.3027392 0.5412803 -0.4210946 -0.7278014 7829631 female
-2.935934 0.4386939 -0.712634 -0.8436302 -0.3352997 -0.4193593 11052719 female
-2.991182 0.03178187 -0.6291116 -0.7768667 -0.002953612 -0.6296582 2762539 female
-2.997962 0.5558528 -0.6375992 -0.9911146 0.1051646 0.08143795 14606831 female
-2.852087 0.3775972 -0.2989635 -0.9540284 -0.2794631 0.1083062 15460859 female
-2.831707 0.1981435 -0.2762045 0.1278541 -0.4467372 -0.8854825 10658219 female
-2.906622 -0.1289549 -0.2812742 0.3360603 -0.07622028 0.9387513 1776929 female
-2.823284 -0.4100102 -0.6237801 0.5203602 0.006652399 -0.8539209 1973537 female
-2.765378 -0.693542 -0.5571423 0.9949221 0.09746593 -0.0251095 16243662 female
-2.834749 0.3839464 -0.267847 -0.6533275 0.09026199 0.7516754 3749954 female
-2.776738 0.4102794 -0.2977374 0.9261309 0.2222455 0.3047763 4474700 female
-2.727518 0.1413051 -0.436139 0.9927462 0.1110348 0.04611102 9935534 female
-2.958652 0.8642111 -0.4423881 0.3440956 0.4930973 0.7990327 2566439 female
-2.943587 0.2789432 -0.6278273 -0.4862809 0.1093058 -0.8669389 15133945 female
-2.882212 0.03516966 -0.7436104 0.1599496 -0.2338916 0.9590155 2433829 female
-2.816101 0.2416954 -0.6142762 0.7229939 0.4063483 -0.5587136 9144723 female
-2.915937 0.6875018 -0.4668336 0.5045253 0.4977441 0.7054821 14204849 female
-3.017189 0.7005693 -0.4412158 0.005530195 -0.52469 0.8512754 16244686 female
-2.826309 0.4236575 -0.6010281 0.8129951 -0.142972 -0.5644448 6381157 female
-2.952052 -0.2159598 -0.519121 -0.5251568 -0.1892517 0.8296951 1973793 female
-2.930486 -0.04109845 -0.6614319 -0.2150915 -0.2062511 -0.954566 1711391 female
-2.864037 0.3035898 -0.7006967 -0.6812227 -0.206817 0.7022552 6053479 female
-2.727736 0.1228562 -0.4586244 0.9913124 0.02617867 -0.1288971 15199231 female
-2.94726 0.2700496 -0.3813156 -0.5626026 0.1218933 0.8176921 15264244 female
-2.894646 0.6801043 -0.4879625 0.6523137 0.7504672 0.1062346 16309455 female
-3.000115 -0.07761876 -0.3768794 -0.9295574 0.02301545 -0.3679582 2170914 female
-2.964563 -0.7381207 -0.6050761 -0.06131962 -0.7518297 -0.6564998 1051664 female
-2.902787 -0.3155439 -0.5207562 -0.3695869 -0.2270068 0.9010401 2302499 female
-2.97678 -0.02549233 -0.6421595 -0.6199555 -0.1156441 -0.776068 2697001 female
-2.920793 -0.2718023 -0.6247917 -0.4052364 -0.1688546 -0.8984829 2368554 female
-2.830389 0.5908276 -0.3336798 0.7168978 0.5818622 0.3840494 14211552 female
-2.798517 -0.01162902 -0.3317022 0.7813665 -0.3663733 0.5052099 2367781 female
-2.974748 0.275416 -0.6014695 -0.7915111 0.05502975 -0.6086723 15594751 female
-2.937011 0.6278585 -0.6456763 -0.1123982 0.8020653 -0.5865644 13159895 female
-2.84354 0.564204 -0.6260263 0.8007708 0.2460701 -0.5460913 15000051 female
-2.894146 0.4526676 -0.651427 -0.05882255 -0.3493781 0.9351336 526602 female
-2.948452 -0.234195 -0.3907802 0.2868592 -0.2162168 -0.9332535 2236966 female
-2.874831 -0.6790403 -0.5716907 -0.3984918 0.5801199 -0.7103979 8748410 female
-2.866796 0.4204914 -0.3243455 -0.8921559 -0.3661043 -0.2646233 12500943 female
-2.894231 0.1862464 -0.7635783 -0.76348 0.07247944 -0.6417515 13619423 female
-3.018034 -0.1822339 -0.3050528 -0.9307792 0.07050401 0.3587189 2565672 female
-2.817852 0.2144041 -0.3279225 0.3130803 0.2979529 0.9017787 3946813 female
-2.814907 -0.7246292 -0.5499306 0.06757119 -0.9962885 0.05332137 526600 female
-2.781084 0.3397492 -0.4744706 0.9695495 -0.0609198 -0.2371974 14606327 female
-2.935401 0.3795769 -0.631918 -0.2705882 -0.2221448 -0.9367144 3290425 female
-2.955131 0.844816 -0.5773411 0.2850339 0.2274429 -0.931142 3025958 female
-3.048698 0.6823594 -0.5041227 -0.5060407 -0.7043296 -0.4978379 14863802 female
-2.839242 -0.02240594 -0.6348065 0.7335176 -0.3235887 -0.5976974 2434085 female
-2.968392 0.06919295 -0.4667235 -0.6553035 -0.7415644 0.143734 2499110 female
-2.97646 -0.1571441 -0.5257108 -0.7252077 -0.1749186 0.6659409 2169889 female
-2.992709 0.1319035 -0.6013983 -0.9472563 0.07574236 -0.311398 14608383 female
-2.823588 0.6234752 -0.4399116 0.7916004 0.6096862 -0.0406399 14936313 female
-2.99663 -0.35027 -0.3553754 -0.994639 -0.0746653 -0.07154255 2170913 female
-3.024848 0.4191398 -0.4684369 -0.9292993 -0.2952696 0.221853 15462136 female
-2.929321 -0.1112174 -0.6455104 -0.2016988 -0.2202222 -0.9543688 2170913 female
-2.866448 -0.5687838 -0.5809549 -0.8408638 -0.2633371 -0.4728653 2236962 female
-2.901719 0.2591488 -0.3520808 -0.3575984 0.2023339 0.9116932 14082031 female
-3.011393 -0.05023805 -0.5832971 -0.9823555 -0.1147857 -0.1476545 2697257 female
-2.884557 0.1591676 -0.3213027 -0.3794529 0.2383879 0.8939725 11514556 female
-2.818135 -0.3518248 -0.5571807 0.880363 0.3441423 0.3263849 2172201 female
-3.042772 0.722271 -0.5418689 -0.4687559 -0.3404256 -0.8150941 16245203 female
-2.788212 0.5357063 -0.4776238 0.9209391 0.2560975 -0.2937436 11119023 female
-2.904479 0.6204838 -0.3449734 -0.433341 0.820211 0.3734563 14474725 female
-2.927134 -0.005926689 -0.4606882 -0.3832677 -0.1216657 -0.915589 723211 female
-2.905044 -0.6969738 -0.5675307 -0.3735971 0.7978009 -0.4732218 14924723 female
-3.059347 0.8832536 -0.5074325 -0.6294708 0.7615274 -0.1544101 2696225 female
-2.947099 0.05676901 -0.3122384 -0.5657554 0.3431124 0.7497965 2303015 female
-2.868214 -0.486382 -0.5329149 -0.62454 -0.1891473 0.7577421 1645085 female
-2.861381 0.3479566 -0.3567187 0.1315882 0.004094505 0.991296 15593213 female
-2.78966 0.4841397 -0.3979819 0.8963904 -0.04707492 0.4407586 14342889 female
-2.908568 0.7126172 -0.5120385 0.9425389 0.2769745 -0.1868304 5458249 female
-2.88177 0.04360808 -0.7412635 0.1586874 -0.3227515 0.9330862 3617335 female
-2.923018 0.6666275 -0.5750344 0.06402346 0.8425876 -0.5347402 15652037 female
-2.967274 -0.5289207 -0.4053041 -0.8299586 -0.03252797 -0.5568758 1776669 female
-3.007949 0.6787582 -0.5182965 -0.5427099 -0.6119158 -0.5753477 13943475 female
-2.982778 0.2327101 -0.6028908 -0.8148001 0.1576517 -0.5578949 10856883 female
-2.964501 0.02096535 -0.6547513 -0.5576684 -0.06080496 -0.8278337 1843236 female
-2.794479 -0.5343326 -0.5616992 0.9921874 0.02284119 0.1226481 2697257 female
-3.028339 0.759178 -0.5583504 -0.2974795 -0.2097299 -0.9314072 13614511 female
-2.916432 0.4177249 -0.6692343 -0.5372673 -0.4617412 0.7057895 13816027 female
-3.052981 0.4295993 -0.5719597 -0.9632565 -0.0237317 -0.2675326 14083055 female
-2.906793 0.7624527 -0.4995242 0.9125638 -0.3849919 0.1378713 3486510 female
-2.972923 0.8263378 -0.5826867 0.1200105 0.04242226 -0.9918659 2696225 female
-2.954785 -0.6058885 -0.420705 -0.5315462 0.1359891 -0.8360417 2038303 female
-2.921365 0.8575792 -0.5519787 0.7258728 0.4279894 -0.5384549 5459531 female
-2.783987 0.3463183 -0.4265876 0.9580763 0.007357509 0.2864186 8223112 female
-2.935828 0.764455 -0.4534782 0.6502273 -0.2536548 0.716145 2235682 female
-2.894016 0.02388573 -0.7426324 0.4548162 -0.141852 0.8792157 2697257 female
-2.976331 -0.6098155 -0.3593631 -0.2519108 0.3625958 0.8972543 2303531 female
-2.876078 -0.2663759 -0.5099905 0.3578621 -0.1123818 0.9269871 2170913 female
-2.886678 -0.3400799 -0.3501132 0.9947815 0.09972703 -0.02154789 2697001 female
-2.798863 0.1129157 -0.6380487 0.6462966 0.003966332 -0.763076 6317168 female
-2.827325 0.6041377 -0.3620433 0.7342205 0.5607439 0.3827358 14936048 female
-2.780247 0.3857494 -0.4680246 0.9882232 -0.03566508 -0.1488048 14606837 female
-2.949198 0.07752818 -0.3285088 -0.6784441 0.4115526 0.6085541 2500391 female
-2.983635 0.6107833 -0.5537028 -0.9015194 0.4107761 -0.1361093 14729399 female
-2.99963 0.1156809 -0.5405481 -0.9875672 -0.1486631 -0.05109163 11448254 female
-2.926113 -0.2190482 -0.3815241 0.6520959 -0.2177508 -0.7261925 2499878 female
-2.776751 0.05102152 -0.5927381 0.8679453 -0.3758466 -0.3246697 2764082 female
-2.864031 -0.00924818 -0.2846102 0.2492268 -0.05711415 0.9667596 1843237 female
-3.006141 -0.6533404 -0.3777054 -0.8131261 0.1867121 -0.5513298 16508899 female
-2.910903 -0.4317877 -0.3227505 0.5813833 -0.2616332 0.7704164 1841950 female
-2.859496 -0.2371087 -0.6067171 0.7491668 0.04717752 -0.6606991 2237482 female
-2.844321 0.136265 -0.2155835 0.8613098 -0.2122297 0.4616317 13553886 female
-3.000435 0.205321 -0.5800495 -0.9032511 0.06778613 -0.4237247 13949421 female
-3.012777 -0.7033329 -0.2671646 0.2852798 -0.9580687 0.02682874 526600 female
-2.983541 0.8633385 -0.4353109 0.1349241 0.4938353 0.8590239 1907741 female
-3.00651 0.4059945 -0.3953331 -0.6823721 -0.6716403 0.2885616 5392727 female
-2.988543 0.005214512 -0.3366547 -0.907901 0.2469874 0.3386931 2499878 female
-2.924876 0.6727469 -0.4544087 0.1204171 0.4379869 0.8908799 12165524 female
-2.998674 0.1014308 -0.6016047 -0.941224 0.2089791 -0.2653775 13751010 female
-2.963351 0.09559561 -0.4246778 -0.8854553 -0.3216833 0.3353933 11712714 female
-2.944876 0.4887473 -0.349992 -0.254754 0.09352068 0.962473 13224915 female
-2.916917 -0.01918006 -0.4622824 -0.310881 -0.166301 -0.9357867 855309 female
