# .PCD v0.7 - Point Cloud Data file format
VERSION 0.7
FIELDS x y z normal_x normal_y normal_z rgb label
SIZE 4 4 4 4 4 4 4 4
TYPE F F F F F F U U
COUNT 1 1 1 1 1 1 1 1
WIDTH 171
HEIGHT 1
VIEWPOINT 0 0 0 1 0 0 0
POINTS 171
DATA ascii
-2.050499 -0.0591444 -0.5936031 -0.09831291 -0.3075989 -0.9464235 2499622 female
-1.956754 -0.02636589 -0.6742433 0.9304564 -0.1296549 0.342696 2499878 female
-2.057326 0.8191288 -0.6273957 -0.6375868 0.1914079 -0.7462212 14668226 female
-2.081624 -0.09549943 -0.573264 -0.2402167 -0.3115303 -0.919372 11974070 female
-2.109826 -0.0222198 -0.7769619 -0.6597005 -0.1452711 -0.7373544 4145220 female
-1.899612 0.6057456 -0.4936616 0.3632479 0.7953709 0.4852176 12632772 female
-2.160487 -0.2891976 -0.3993185 -0.460519 0.2674407 0.8464028 2171171 female
-2.083713 0.491687 -0.5236997 -0.6959351 0.6332389 0.3386487 14740727 female
-2.06707 0.5304804 -0.5714083 -0.7916353 0.5408681 0.2842098 15398650 female
-1.952715 0.5777656 -0.7803676 0.7547709 0.1771378 -0.6316194 14409968 female
-1.848836 0.5478929 -0.4969957 0.9366048 0.3489129 -0.0321125 14608375 female
-2.044969 -0.1552024 -0.4274123 0.5956386 -0.2203566 0.7724361 1908000 female
-2.004146 -0.308989 -0.6894656 -0.3689176 -0.4843009 0.7933174 1710874 female
-1.988063 0.05788199 -0.4279499 0.1220012 0.154699 0.9803999 2499878 female
-2.119236 -0.07815482 -0.7505192 -0.8249258 -0.2465421 -0.5086398 2499622 female
-1.923084 -0.3015713 -0.7756565 0.655847 0.4552905 -0.6021423 2696233 female
-1.930666 -0.5432126 -0.7748411 -0.8883939 -0.3216312 -0.3275813 2499627 female
-2.1389 -0.0800248 -0.5411088 -0.7651857 -0.046549 -0.6421246 1908003 female
-2.15951 0.1906877 -0.5888183 -0.9649141 -0.0004776596 0.2625654 12237770 female
-2.047611 0.7626191 -0.529474 -0.5582659 0.04448177 0.8284687 16309454 female
-2.196298 0.4978249 -0.9348065 -0.4758558 0.2186028 -0.8519237 13685726 female
-1.889645 0.5387033 -0.422536 0.06253117 0.3265237 0.9431183 13028302 female
-2.018369 0.0527713 -0.4252219 -0.08690669 0.2083993 0.9741751 2369060 female
-1.93674 -0.1928419 -0.7315286 0.9733701 0.1023012 -0.2051463 2303272 female
-2.020276 -0.2993697 -0.755208 -0.7461739 -0.2691993 -0.6088976 2237220 female
-1.841866 0.3879808 -0.5060084 -0.7270699 -0.4793078 -0.4915622 920590 female
-2.085414 -0.3451105 -0.4526016 0.9342965 -0.1741442 -0.3110687 2631465 female
-1.955118 -0.4689198 -0.7410654 -0.8067989 -0.3445307 0.479973 2169889 female
-2.005766 0.6416608 -0.6715634 -0.6529044 0.703576 -0.2805292 15058869 female
-2.162697 -0.4542474 -0.466307 0.1206373 -0.4364545 -0.891602 2040353 female
-2.35558 -0.6400185 -0.3107904 -0.31633 -0.9448126 0.08523221 526600 female
-2.162236 0.2058756 -0.6468568 -0.9857802 0.07616109 -0.1497897 13686761 female
-2.080898 -0.3194814 -0.4477796 0.9761952 -0.1071141 -0.1885991 2565934 female
-1.951489 0.2211753 -0.47264 0.4047107 0.4074102 0.8186735 854281 female
-2.028965 0.6550899 -0.6128218 -0.9658058 -0.1205298 -0.2295466 14599093 female
-1.907236 0.5996836 -0.6677949 0.9436483 0.2550974 -0.210839 16185087 female
-1.904569 -0.3142043 -0.7498007 0.8635694 0.5013664 -0.05366205 2566703 female
-2.186004 -0.267485 -0.43269 -0.9667213 -0.04917525 0.2510614 1842723 female
-2.086993 -0.06509911 -0.7846844 -0.5170949 -0.2012861 -0.8319236 2697257 female
-2.106609 0.3315015 -0.7237961 -0.7621335 0.171499 -0.6242921 14672880 female
-2.132439 0.2999245 -0.6848286 -0.9018431 0.1761386 -0.3945304 9210773 female
-2.137079 0.363625 -0.6584392 -0.9419152 0.1946136 -0.2737176 15134462 female
-2.121017 0.2337158 -0.5288473 -0.724128 0.1445815 0.6743402 10988213 female
-2.241251 -0.5610493 -0.4009681 -0.5724372 0.07723546 -0.8163028 1973537 female
-2.075508 0.0469485 -0.4397289 -0.4279038 0.3429224 0.8362432 3090991 female
-1.995749 0.6553489 -0.5598142 -0.412798 -0.08517772 0.9068311 16771547 female
-2.12175 -0.1192001 -0.4138062 -0.2784284 0.1291143 0.951739 2170401 female
-1.762591 0.2299647 -0.4583439 -0.9360464 -0.2928014 0.1951524 7895430 female
-1.92254 0.0266678 -0.4627715 0.7160081 -0.1665328 0.6779376 2368296 female
-2.087106 -0.2844781 -0.478349 0.778286 -0.3146779 -0.5433679 1645858 female
-2.011905 0.6413446 -0.737219 -0.1788687 0.9746333 0.1345209 12237762 female
-2.147846 -0.1758185 -0.523908 -0.6394518 -0.08319259 -0.7643169 2499883 female
-2.251043 0.585808 -0.8005207 0.5443173 -0.2933094 0.7859314 11777732 female
-2.245575 -0.6603241 -0.3401761 0.6225373 -0.07881999 0.7786108 13348775 female
-1.867933 0.1054502 -0.5864433 0.9962603 0.03009422 -0.0809926 15199231 female
-1.880607 0.6050391 -0.5293992 0.7486193 0.6482854 0.1389071 13948130 female
-1.8118 0.3576471 -0.459563 -0.5615693 -0.4343018 0.7042882 11975623 female
-2.130394 0.4927012 -0.8458037 -0.6374127 -0.1784803 0.7495665 13684704 female
-2.148629 0.01960859 -0.7096411 -0.9995633 -0.01938729 -0.02229924 2698032 female
-1.930421 0.6340011 -0.6901771 0.7208358 0.5998224 -0.3472878 14991538 female
-2.178693 -0.2868397 -0.4171635 -0.8402985 0.1304133 0.5262042 2105121 female
-1.739378 0.2732348 -0.5168234 0.1763063 -0.1839081 -0.9670026 9737372 female
-2.061178 -0.1247009 -0.4147466 0.2746935 -0.06587956 0.9592723 2170657 female
-1.898348 -0.397204 -0.8075771 0.3864962 0.1512221 -0.9098091 1973537 female
-1.832754 -0.6911687 -0.7992472 0.2649218 0.2599212 -0.9285781 16242638 female
-1.774019 0.4124464 -0.5189574 0.7086096 0.3330328 -0.6220624 15396338 female
-1.789891 0.4404627 -0.5183291 0.7290086 0.3959543 -0.5583606 5921123 female
-1.867375 0.08999787 -0.5688573 0.9967644 -0.05051744 0.06252027 5987948 female
-1.925064 0.8600631 -0.5401168 0.5013751 0.524416 0.6881939 2170913 female
-2.123106 0.2582893 -0.7207374 -0.8086951 0.2603828 -0.527459 15725567 female
-2.350291 0.6724651 -0.7447908 0.2724109 -0.2819301 0.9199498 3749427 female
-1.936159 0.05602417 -0.7662777 0.7537991 -0.1102019 -0.6477982 3158840 female
-1.929526 0.6813936 -0.5934792 0.9522817 0.1305283 0.2759022 16178382 female
-2.057428 0.7213455 -0.5470025 -0.6929977 -0.1847758 0.6968587 15128002 female
-1.948065 0.2845443 -0.6989845 0.9395783 -0.09097222 -0.3300253 10066342 female
-1.892997 -0.4597997 -0.7069988 0.235445 -0.1412475 0.961569 1580065 female
-2.00688 0.5108333 -0.8056868 0.5350162 -0.8154088 -0.2210567 10330531 female
-2.0593 0.5089599 -0.8003199 -0.3489593 -0.6575844 0.6676901 657927 female
-1.869111 0.08212893 -0.5869566 0.9901141 -0.1056934 -0.09221216 13554655 female
-2.125806 0.2022036 -0.5281003 -0.7420076 0.07053184 0.6666709 14083063 female
-1.930885 0.6694309 -0.5828015 0.8394576 0.3332965 0.4292137 15256766 female
-2.151629 -0.07605344 -0.4446276 -0.8018337 0.2362742 0.5488508 2171174 female
-1.949553 -0.7400124 -0.7899011 0.1248192 -0.9895432 -0.07228075 789004 female
-1.905856 -0.4115226 -0.6998002 0.1989861 -0.0332362 0.9794386 1645602 female
-2.141471 -0.009395322 -0.6832131 -0.9558249 -0.1216585 0.2675781 2369065 female
-1.965324 -0.2855296 -0.7874012 0.07440889 0.2048961 -0.9759513 2170921 female
-1.840625 0.5130673 -0.4384005 0.6359025 0.3626248 0.6812719 14344163 female
-1.997287 -0.1203637 -0.4976451 0.8892274 -0.4544985 -0.05201753 2172201 female
-2.136029 0.3360605 -0.669121 -0.9144942 0.1288218 -0.383543 15199231 female
-1.961629 0.6524174 -0.695767 0.1858092 0.9033808 -0.3864947 16111558 female
-1.951177 0.5840984 -0.7768869 0.7365663 0.2482301 -0.6291676 15659775 female
-2.06776 0.5463279 -0.7764731 -0.7188576 -0.5862387 0.3735879 526344 female
-1.972268 -0.01400853 -0.4325874 0.4904697 -0.1830257 0.8520218 1776155 female
-1.975582 -0.7095082 -0.76537 -0.4055191 0.8926792 -0.1966678 16440532 female
-2.179954 -0.239156 -0.4221703 -0.787702 0.06562524 0.612551 1580065 female
-2.278599 0.5858395 -0.793309 -0.1675707 -0.7747699 0.6096325 526344 female
-2.175282 -0.1619068 -0.4846626 -0.9541969 0.1055751 -0.2799326 2170401 female
-1.911523 0.2131942 -0.504657 0.7769486 0.3912447 0.4932327 11779015 female
-1.836021 -0.7136982 -0.7967306 0.2704667 -0.6945609 -0.666658 593162 female
-1.8802 0.3888985 -0.5629375 0.9172905 -0.3851733 0.1010922 10726070 female
-2.095431 0.3828846 -0.7279653 -0.7096766 0.008053693 -0.7044815 13554654 female
-1.938975 0.8516099 -0.6632689 0.2674016 0.4262347 -0.8641877 3420204 female
-2.058568 0.7772751 -0.6379589 -0.5949922 0.06826355 -0.8008273 16178893 female
-2.008132 -0.01531361 -0.8059015 0.2852702 -0.1395473 -0.9482338 2170406 female
-2.101838 0.07250462 -0.5707666 -0.9027347 -0.3845989 0.192753 8817814 female
-2.08988 -0.1837422 -0.7262704 -0.8911377 -0.4163355 -0.180384 2565929 female
-2.0981 0.1693099 -0.7805222 -0.5772041 0.1511807 -0.8024836 11909053 female
-1.873952 0.5055254 -0.6261513 0.8258069 0.176763 -0.5355351 15721455 female
-2.180745 -0.4183891 -0.4730642 -0.5102806 -0.1049614 -0.8535787 1579291 female
-2.097557 0.485477 -0.5471697 -0.808428 0.5391901 0.2360473 10527402 female
-2.097295 -0.07962237 -0.7744352 -0.6180124 -0.2252778 -0.7532003 2565671 female
-1.946869 -0.4539113 -0.724434 -0.6679357 -0.3238284 0.6700725 2105377 female
-2.082619 0.2183442 -0.4956463 -0.5338073 0.1442568 0.8332105 14015725 female
-2.061729 -0.09551168 -0.6340329 -0.2806453 -0.2858255 0.9162652 1776670 female
-1.980209 0.1644715 -0.448838 0.0799461 0.1785088 0.9806851 2368556 female
-1.931557 -0.2934145 -0.6873179 0.7537981 -0.04158791 0.6557887 2171429 female
-2.033413 0.7288321 -0.6465871 -0.2509404 -0.3059548 -0.9183793 14931138 female
-1.851747 0.477145 -0.5658749 0.9875999 -0.1563078 -0.0146379 14672372 female
-1.922731 0.5958605 -0.4726848 -0.1799399 0.8648404 0.4686926 14606569 female
-2.086118 -0.03530006 -0.5883915 -0.4018148 -0.1662699 -0.9004993 2237218 female
-1.958105 -0.6953797 -0.7540617 -0.4991443 0.8653457 -0.04507543 15322562 female
-2.016659 0.8969576 -0.5907314 -0.3478892 0.9344814 -0.07561565 2696225 female
-2.067749 0.05597896 -0.4397434 -0.4043422 0.3459094 0.8466723 2104352 female
-1.931473 -0.5065426 -0.7346102 -0.7031724 -0.3162239 0.6368288 2170913 female
-1.960899 0.3611262 -0.4868594 0.251442 -0.06677092 0.9655665 14803434 female
-2.115078 0.3438196 -0.5422747 -0.7547072 0.2441356 0.6089457 7697536 female
-1.925759 0.7177925 -0.6162688 0.8742729 -0.3874903 -0.2924007 2697249 female
-2.349143 0.6793274 -0.7450212 0.6890919 0.2761103 0.6700115 2828584 female
-2.092887 0.5434951 -0.7221339 -0.8844934 0.3964118 -0.2460269 15199223 female
-2.272645 -0.5742177 -0.3657612 -0.7214957 0.686171 0.09280814 2433319 female
-2.031772 0.6769155 -0.6171622 -0.8410397 -0.2737392 -0.4666037 15916753 female
-2.131144 0.3190827 -0.6827615 -0.9019557 0.1555788 -0.4028288 15199999 female
-2.147338 0.02642775 -0.6939679 -0.9893892 6.621544E-05 0.1452891 2633522 female
-1.86139 -0.4589019 -0.7818207 0.8967159 0.08713613 -0.4339445 2171945 female
-1.994777 0.7900107 -0.6678721 -0.4979919 -0.7118216 0.4952919 9864059 female
-2.129474 0.5298991 -0.8822943 -0.5685282 0.8175445 -0.09163319 12435143 female
-2.104858 0.4741893 -0.7404122 -0.5320219 0.1274166 -0.8370889 8750989 female
-1.911748 0.735765 -0.597671 0.7526913 -0.6549772 0.06678787 3551534 female
-1.941976 0.8031168 -0.6710709 0.2270121 -0.06985727 -0.9713833 2959397 female
-2.287449 -0.5882995 -0.3545058 -0.4119658 0.8971033 0.1596556 2893612 female
-1.893624 0.8325121 -0.6396611 0.8317875 0.2197285 -0.5097539 5459531 female
-1.983564 0.1844625 -0.4519429 0.05495722 0.2393064 0.9693875 12041415 female
-1.921492 0.765582 -0.5463253 0.5334701 -0.4460966 0.718615 2040351 female
-2.341707 0.6353531 -0.7733008 -0.3920509 -0.6895078 0.6089951 3354670 female
-2.310839 -0.5985937 -0.3306332 0.06811131 0.9650053 0.2532302 15193042 female
-1.936885 -0.3087283 -0.683883 0.5220777 -0.1252174 0.8436561 2105378 female
-2.091418 -0.3907228 -0.4244324 0.9606221 -0.271466 0.05925731 2171172 female
-1.993533 0.1596726 -0.7950608 0.3181253 0.119226 -0.9405219 10725297 female
-1.880521 0.5977631 -0.5045347 0.6509249 0.7020198 0.2889032 12304329 female
-1.933791 0.307989 -0.6475257 0.8673588 -0.1866272 -0.4613664 12304332 female
-2.061726 0.07917428 -0.4486155 -0.4499252 0.4038956 0.7965147 3222836 female
-1.960325 0.6334909 -0.5447906 -0.2121993 0.5315093 0.8200423 15980230 female
-2.076587 0.1960402 -0.7868715 -0.3973671 0.2577664 -0.8807132 1183506 female
-1.948439 0.009380669 -0.4411357 0.5757506 -0.1595524 0.8019066 2170406 female
-2.010705 0.1104927 -0.8032384 0.1709913 0.1253483 -0.9772666 15002612 female
-2.034146 -0.1249631 -0.4263923 0.5454291 -0.1942518 0.8153363 2169889 female
-2.295833 -0.6330619 -0.3788387 -0.4446871 -0.01356573 -0.8955832 8813947 female
-2.154143 -0.4782304 -0.3700655 0.557918 -0.2178578 0.8007905 1974307 female
-1.92664 -0.2424918 -0.7176289 0.9833025 0.1566996 -0.09252721 2500142 female
-1.739708 0.2948038 -0.4337677 0.1946361 0.1696923 0.9660856 9475742 female
-2.158215 0.1765294 -0.6728166 -0.962767 -0.06855014 -0.2614969 13029592 female
-2.328257 -0.6437081 -0.2737114 0.0890724 -0.7585114 0.6455437 11308425 female
-1.956383 0.8145675 -0.5171204 0.1798437 -0.08209631 0.9802635 2302499 female
-2.086775 0.4220748 -0.4885705 -0.6748435 -0.4216054 0.6056692 10395819 female
-2.131944 0.02697225 -0.4865719 -0.89379 0.3726494 0.2495432 2303014 female
-1.923193 0.6526163 -0.5709138 0.5786293 0.7168086 0.3890676 12561054 female
-2.100325 0.03568529 -0.7915283 -0.5794085 -0.03162319 -0.8144236 2303530 female
-2.10232 0.1533745 -0.5216808 -0.740625 -0.1262464 0.6599518 15067645 female
-1.993997 0.5203394 -0.4763076 -0.5844229 0.2330033 0.7772768 4539725 female
-2.043711 -0.02477083 -0.6036742 -0.1607414 -0.1831635 -0.9698522 789516 female
-1.740997 0.05157412 -0.4237986 -0.584771 0.3284698 0.7417213 15911880 female
