# .PCD v0.7 - Point Cloud Data file format
VERSION 0.7
FIELDS x y z normal_x normal_y normal_z rgb label
SIZE 4 4 4 4 4 4 4 4
TYPE F F F F F F U U
COUNT 1 1 1 1 1 1 1 1
WIDTH 170
HEIGHT 1
VIEWPOINT 0 0 0 1 0 0 0
POINTS 170
DATA ascii
-2.873062 -0.04568901 -0.4491121 -0.0855151 -0.3250311 -0.9418291 2499622 female
-2.766009 0.01157241 -0.5176074 0.4347559 -0.7803305 0.4495236 1775387 female
-3.037448 0.7876009 -0.5535828 -0.7430622 -0.05865464 -0.666647 12101783 female
-2.905525 -0.08227392 -0.4266556 -0.2382596 -0.3258961 -0.9148902 11974070 female
-2.943215 0.06757738 -0.6266983 -0.7721592 0.1510538 -0.6172139 3552823 female
-2.846768 0.6034584 -0.3284405 0.3409938 0.6766446 0.6525912 12434118 female
-2.850903 0.4325416 -0.349347 -0.1709092 -0.3044021 -0.9370856 526346 female
-2.969264 0.3071089 -0.4928925 -0.999066 0.002824519 0.04311712 12238029 female
-2.953718 0.5514923 -0.5311544 -0.9595221 0.275654 -0.05772476 15397371 female
-2.763881 0.5406601 -0.5747738 0.9512581 0.2960905 -0.08624647 15197431 female
-2.885623 0.6171476 -0.3473147 -0.3581247 0.8676183 0.3449422 11054512 female
-2.880732 -0.04584637 -0.2672374 0.09267639 -0.006147886 0.9956773 1776155 female
-2.880901 -0.366735 -0.5232783 -0.3721167 -0.1007381 0.9227031 1973534 female
-2.883928 0.06368537 -0.2858576 -0.2835009 0.2806642 0.9169814 2369065 female
-2.963526 -0.1060375 -0.6050565 -0.8401779 -0.1223257 -0.5283346 2170921 female
-2.891291 -0.2935013 -0.6245143 -0.1891486 -0.05105833 -0.9806201 2696233 female
-2.887203 -0.4770852 -0.556283 -0.8850476 -0.1976777 0.4214431 2039329 female
-2.983516 -0.09365604 -0.3632911 -0.8935357 0.02409283 -0.4483453 2170914 female
-2.972341 0.2141808 -0.4777652 -0.9915035 0.05242816 0.1190467 9738402 female
-3.007427 0.7475577 -0.4534086 -0.5374004 -0.1010157 0.8372555 16571342 female
-2.819185 0.2685008 -0.7492545 -0.7509573 0.1029061 -0.6522833 6118759 female
-2.80267 0.5273045 -0.3493677 0.9453854 -0.2947074 0.1392621 10263972 female
-2.900494 0.04379356 -0.2866089 -0.3498725 0.2851687 0.8923385 2236706 female
-2.835594 -0.2129244 -0.5948589 0.8846987 -0.1440955 -0.4433335 2236706 female
-2.956091 -0.2635436 -0.5444314 -0.847367 -0.2607029 0.4626047 2235938 female
-2.844728 0.2976734 -0.3146468 -0.131592 -0.2137123 -0.9679931 6315620 female
-2.869911 -0.1755079 -0.3067473 0.9319204 -0.2856987 0.2233846 2303273 female
-2.872838 -0.5653504 -0.5746747 -0.9496189 -0.1972529 -0.2435471 2565160 female
-2.871099 0.6219143 -0.6497508 -0.05719901 0.7943535 -0.6047569 12830416 female
-2.864025 -0.3803447 -0.3999588 0.3941666 0.1571131 -0.9055099 2105378 female
-2.873634 -0.6712078 -0.3583907 0.1640516 -0.9121708 -0.3755414 1051664 female
-2.94946 0.223832 -0.5721012 -0.8609878 0.07878277 -0.5024871 13358307 female
-2.880651 -0.1901809 -0.3152991 0.9717243 -0.2333904 -0.03578955 2565677 female
-2.755247 0.2971375 -0.3809826 0.7739373 0.1432401 0.6168494 5394007 female
-2.97067 0.6719227 -0.5295944 -0.2291888 -0.784575 -0.5761201 13680298 female
-2.86816 0.05181294 -0.7029817 -0.6406223 0.715862 0.2777492 13480886 female
-2.845138 -0.4485892 -0.6254845 -0.00367992 -0.1568753 -0.9876115 1645343 female
-2.879866 0.3685375 -0.2962462 -0.9852301 -0.1366376 -0.1032075 14935027 female
-2.957158 -0.07538725 -0.6184102 -0.7481256 -0.09944798 -0.6560627 2170913 female
-2.856481 0.3147509 -0.6328211 -0.09844556 0.04426465 -0.9941575 2302243 female
-2.907683 0.2928711 -0.6127861 -0.6489693 0.02975861 -0.7602324 14606319 female
-2.901196 0.2418831 -0.6264157 -0.5770617 0.2214677 -0.7860991 8357000 female
-2.919855 0.2323052 -0.3815738 -0.6863517 0.1340234 0.7148141 15200255 female
-2.894749 -0.4239956 -0.3999074 -0.5463421 -0.1526668 -0.8235309 1578780 female
-2.938437 0.0828814 -0.3557037 -0.8598309 0.4612204 0.2190128 2171689 female
-2.945446 0.6362858 -0.4902987 -0.8327819 -0.2813895 0.476754 16312535 female
-2.789073 0.1093201 -0.2966224 0.3380452 0.184907 0.9227865 8422024 female
-2.909567 0.2716317 -0.2545603 -0.9170966 0.3535931 0.1841355 14476276 female
-2.776629 -0.02955248 -0.341302 0.8112293 -0.5175157 0.2721847 2500396 female
-2.863065 -0.3148032 -0.3719261 0.6712362 0.3949374 -0.627269 2368809 female
-2.815484 0.5565085 -0.672173 0.8033583 0.2998602 -0.5144893 15067891 female
-3.000154 -0.147248 -0.3026819 -0.9601442 0.0912985 0.2641736 2106152 female
-2.836761 0.07613593 -0.7528027 -0.4270178 -0.0318922 -0.9036807 9344142 female
-2.802573 -0.5787371 -0.3910704 0.9285755 0.2023678 0.3111189 1906973 female
-2.696823 0.1542494 -0.4531185 0.9774299 0.1868834 -0.09851573 6909570 female
-2.999034 0.7425024 -0.4499031 -0.3623044 -0.1652507 0.9172937 16768206 female
-2.844468 0.2358866 -0.2819093 0.8217222 -0.4975893 -0.2778083 14013149 female
-2.887976 0.4570165 -0.6846714 -0.8733921 -0.4865008 0.02243298 15724535 female
-2.914215 0.0294265 -0.6555567 -0.4920216 -0.005213473 -0.8705674 2303531 female
-2.884784 0.6127179 -0.655354 -0.3051669 0.7681357 -0.5628861 9670799 female
-2.853254 0.4238897 -0.3463014 -0.2163874 -0.3042022 -0.9277055 592909 female
-2.904904 0.144509 -0.2604899 0.7908933 -0.6115026 -0.0235017 4275786 female
-2.91626 -0.1031953 -0.2629123 0.0155941 0.04374878 0.9989209 1908000 female
-2.811043 -0.3486942 -0.564288 0.924919 0.3294033 0.1897849 2434603 female
-2.793039 -0.6825169 -0.5755838 0.4451918 0.2653931 -0.8552021 14400952 female
-2.806681 0.3968824 -0.2742161 0.7728444 0.1264534 0.6218689 12763341 female
-2.838332 0.3952593 -0.2557394 0.09557564 0.2394509 0.9661928 6514027 female
-2.700046 0.131575 -0.3887879 0.9277272 0.05191768 0.3696306 6711154 female
-2.927801 0.8596214 -0.4524501 0.1919217 0.4986669 0.8452795 2566439 female
-2.932171 0.327805 -0.5883594 -0.74273 -0.1306842 -0.6567144 4604746 female
-2.854423 -0.02969926 -0.7302511 -0.9149001 0.07201883 0.3972043 657673 female
-2.747617 0.1183022 -0.6287128 0.6822245 0.006904495 -0.7311102 9409952 female
-2.871299 0.692448 -0.4811523 0.655939 0.4543285 0.6027682 13810610 female
-3.009387 0.7212733 -0.4624512 -0.6145479 -0.331928 0.7156498 16772058 female
-2.753188 0.3540927 -0.5361492 0.9971722 -0.06452405 0.03852756 15398143 female
-2.931178 -0.2256935 -0.5142487 -0.4882635 -0.1537581 0.8590444 1973534 female
-2.879279 -0.05985653 -0.6568814 -0.04662815 -0.2236151 -0.9735616 2105635 female
-2.808798 0.2495669 -0.6951598 -0.6596012 -0.02283909 0.7512687 2828591 female
-2.700538 0.07616422 -0.3980173 0.9600895 -0.1553487 0.2325832 2698289 female
-2.922287 0.2456136 -0.3884159 -0.69638 0.1239169 0.7068943 15726591 female
-2.857175 0.671786 -0.4687609 0.3782537 0.8659188 0.3272749 15192000 female
-2.987014 -0.06689765 -0.3281831 -0.9803235 0.1670112 0.1052287 2171687 female
-2.934255 -0.741544 -0.5940408 -0.09534416 -0.9905419 -0.09867224 986379 female
-2.890428 -0.3148412 -0.5168739 -0.2750028 -0.1963072 0.9411891 2236706 female
-2.965828 0.03353293 -0.5980572 -0.9272723 0.1380003 -0.3480257 2698289 female
-2.963989 -0.1949355 -0.5782485 -0.9659031 -0.1409455 -0.2171764 2171945 female
-2.857589 0.5922185 -0.3105643 0.2729152 0.7239786 0.6335395 5922661 female
-2.852996 -0.1465186 -0.3683061 0.7793307 -0.455657 -0.4301399 2172713 female
-2.876431 0.2537249 -0.6367668 -0.3655869 0.2493634 -0.8967519 15200255 female
-2.9255 0.5749297 -0.6378555 -0.9188917 0.3784933 -0.1112695 16054268 female
-2.788565 0.586797 -0.608007 0.8303946 0.4688472 -0.3010434 15856637 female
-2.808889 0.3927791 -0.653863 -0.06339479 -0.2697867 0.960831 5131342 female
-2.802309 0.03295781 -0.2840211 0.3908444 -0.04364292 0.9194216 1908773 female
-2.908143 -0.6888291 -0.5574346 -0.4376785 0.8662006 -0.24111 16508378 female
-2.88955 0.4517302 -0.3341198 -0.8622432 -0.3003513 -0.4078306 14474993 female
-2.811802 0.1502386 -0.7569864 -0.1039836 -0.01244066 -0.9945012 14936043 female
-3.007894 -0.1795658 -0.2968318 -0.9720464 0.03935196 0.2314676 2565672 female
-2.760222 0.315678 -0.3804668 0.7252051 0.1862943 0.6628514 8683658 female
-2.784757 -0.7220636 -0.5648043 0.545499 -0.8025879 -0.24142 723209 female
-2.738592 0.3233457 -0.4639016 0.9845678 -0.04554445 -0.1689734 14607351 female
-2.841007 0.3925615 -0.6366044 0.1902497 -0.3297382 -0.9247041 526600 female
-2.897691 0.8289618 -0.5852551 0.4548006 0.1186669 -0.882652 3354154 female
-2.989104 0.6760259 -0.5331652 -0.146641 -0.8313159 -0.5361067 14075061 female
-2.798221 0.0552136 -0.6601858 0.3980974 -0.09423877 -0.9124898 2631209 female
-2.915555 0.06715468 -0.4526 -0.5436456 -0.704129 0.4567841 2367781 female
-2.823455 -0.5177111 -0.5267348 0.3063952 -0.08608413 0.9480039 2302245 female
-2.861506 0.1719731 -0.6647829 -0.1901886 0.1028496 -0.9763454 526600 female
-2.767544 0.5827975 -0.4299821 0.8904691 0.4529025 0.04409287 15067638 female
-2.949542 -0.3477952 -0.3190825 -0.89144 -0.4159223 0.1798427 2236710 female
-2.972594 0.3885558 -0.4967771 -0.8940832 -0.4353903 0.1051214 15133182 female
-2.911731 -0.116242 -0.6393547 -0.2903318 -0.1828868 -0.9392869 2170145 female
-2.875912 -0.4491374 -0.5313982 -0.6598755 -0.1604771 0.7340379 1907741 female
-2.873139 0.2444405 -0.347576 -0.4850945 0.2662717 0.8329362 9343641 female
-2.97746 -0.04447792 -0.5657874 -0.9974745 -0.009558449 0.07037978 2434085 female
-2.879266 0.1495014 -0.3249048 -0.5921486 0.3527039 0.7245412 6842480 female
-2.824265 -0.4361953 -0.6226395 0.3968339 -0.08242287 -0.9141823 1514272 female
-2.985527 0.7287397 -0.5703887 -0.2095859 -0.2817774 -0.9363094 15983570 female
-2.751823 0.53199 -0.4680018 0.9118319 0.3487707 -0.2166137 14737899 female
-2.904846 0.6051989 -0.3446656 -0.6743426 0.7050327 0.2195242 14080224 female
-2.910067 -0.02271405 -0.4443344 -0.3978892 -0.1904715 -0.8974435 2237218 female
-2.931554 -0.7078943 -0.5707563 -0.2825173 0.8844322 -0.3714347 15254205 female
-3.01577 0.877195 -0.5344203 -0.6018151 0.7530153 -0.2660574 2696225 female
-2.933493 0.09137793 -0.3550144 -0.83922 0.4878947 0.2401425 2303531 female
-2.869721 -0.5764929 -0.5754422 -0.9146588 -0.1973678 -0.352768 2895148 female
-2.834906 0.3441268 -0.3518561 -0.009399954 0.003586248 0.9999494 15593213 female
-2.896071 0.3785284 -0.3695129 -0.4403068 -0.2464147 0.8633711 2828851 female
-2.864022 0.7079638 -0.5113176 0.9594771 0.2816538 -0.008650599 5458249 female
-2.8537 -0.02841784 -0.729127 -0.853714 0.03870779 0.5193017 855309 female
-2.834478 0.641722 -0.5924135 0.5746162 0.7557205 -0.3141699 11115926 female
-2.892384 -0.4767607 -0.376342 -0.9210047 -0.3156287 -0.2283173 1908004 female
-2.933851 0.8268114 -0.5968543 0.1271101 0.1087696 -0.9859068 2303267 female
-2.878061 0.2427414 -0.6400487 -0.380242 0.3013704 -0.8744094 8619920 female
-2.964151 0.06824704 -0.5732276 -0.9631876 0.2675157 -0.02655315 2962489 female
-2.808241 -0.5221814 -0.5357605 0.66546 -0.04086701 0.745314 2499370 female
-2.945452 0.7645227 -0.5835136 -0.3654146 -0.2825232 -0.8869345 12756899 female
-2.871127 0.4392151 -0.6654365 -0.7149849 -0.4948467 0.4938859 12041158 female
-2.981827 0.471241 -0.4658619 -0.9464096 0.3197598 -0.04541374 15200759 female
-2.865153 0.7582118 -0.4990275 0.87598 -0.3763935 0.3016405 3486510 female
-2.934679 0.8373513 -0.5951079 0.09747221 0.2193382 -0.9707677 2433825 female
-2.821236 -0.5769631 -0.4280108 -0.2947701 0.1318071 -0.9464341 2038817 female
-2.871839 0.8533517 -0.5536119 0.8030447 0.434715 -0.4076053 5459531 female
-2.880047 0.182255 -0.3331255 -0.5967835 0.1646463 0.7853286 4672081 female
-2.897487 0.7437533 -0.4663228 0.6214797 -0.1764111 0.76331 2894631 female
-2.855041 -0.09531136 -0.7252373 0.1959657 -0.5485874 0.8128033 789772 female
-2.866047 -0.6232414 -0.3376188 -0.02894333 0.6335419 0.7731668 11903642 female
-2.877691 -0.2181945 -0.5000589 0.1390023 -0.0198772 0.9900926 855309 female
-2.848582 -0.4379462 -0.3178834 0.4980989 -0.226442 0.8370314 1775131 female
-2.72723 0.04178654 -0.5734156 0.8784506 -0.4225623 -0.2230818 2829875 female
-2.815685 0.5790271 -0.3264808 0.6926649 0.4552072 0.5594655 12502997 female
-2.73931 0.3832301 -0.4500446 0.9997448 -0.02258723 0.0002781348 14606837 female
-2.927837 0.06842466 -0.3174728 -0.6634517 0.4192477 0.6197283 2565935 female
-2.908209 0.648495 -0.5709377 -0.4510069 0.3358343 -0.8269269 15059898 female
-2.93531 0.1413849 -0.6078581 -0.8977458 0.09924976 -0.4291876 11120059 female
-2.928085 -0.2169518 -0.3703362 0.4083893 -0.1633898 -0.8980656 2170917 female
-2.716527 0.0555755 -0.5405713 0.926818 -0.3742626 -0.03059195 2763058 female
-2.845701 0.01299407 -0.2722158 0.1359512 0.03344877 0.9901507 1710875 female
-2.891758 -0.6317575 -0.370633 -0.8272578 0.346956 -0.4418891 13547181 female
-2.85032 -0.3248304 -0.3089321 0.8695165 0.1792323 0.4602357 2170403 female
-2.827891 -0.3142253 -0.5608959 0.8972281 0.3473168 0.2726771 2303275 female
-2.917138 0.1779979 -0.232601 0.008364862 -0.05727068 0.9983237 9540249 female
-2.966773 0.2731639 -0.5107699 -0.9945956 -0.04263293 -0.09466822 15527678 female
-2.900856 -0.6929829 -0.2888846 0.3299726 -0.9435855 -0.0276479 723723 female
-2.932072 0.8593086 -0.4517233 0.1535576 0.4983396 0.8532746 2763305 female
-2.977704 0.401318 -0.4599246 -0.8913936 -0.4530735 -0.01190806 7106422 female
-2.96086 -0.05821364 -0.2837303 -0.6169355 0.1978004 0.7617517 2169889 female
-2.966145 0.6631233 -0.5002384 -0.5089696 -0.7700146 0.3847432 16773086 female
-2.871667 0.0513561 -0.6709351 -0.167256 -0.002835973 -0.9859094 2565930 female
-2.938343 0.1950369 -0.3956858 -0.7845333 -0.03750136 0.6189516 6513780 female
-2.898485 0.4695395 -0.3479007 -0.1787373 0.005866469 0.9838793 12829387 female
-2.868319 -0.01135315 -0.4597762 -0.145443 -0.2039184 -0.9681238 789516 female
