# .PCD v0.7 - Point Cloud Data file format
VERSION 0.7
FIELDS x y z normal_x normal_y normal_z rgb label
SIZE 4 4 4 4 4 4 4 4
TYPE F F F F F F U U
COUNT 1 1 1 1 1 1 1 1
WIDTH 171
HEIGHT 1
VIEWPOINT 0 0 0 1 0 0 0
POINTS 171
DATA ascii
-0.1961358 -0.1446901 0.2963093 0.8488021 -0.2189131 -0.4812608 2170660 female
-0.04117627 -0.01028712 0.3501075 0.2570245 -0.1184337 0.9591204 2499878 female
-0.274432 0.7163348 0.2502035 -0.372781 -0.2964568 -0.8792882 14730687 female
-0.2024639 -0.1531549 0.2900063 0.8373396 -0.1727726 -0.5186636 2171172 female
-0.04303212 -0.005622617 0.1665667 0.2548346 -0.1172558 -0.9598491 4145220 female
-0.1708506 0.5929632 0.4899721 0.3805096 0.505661 0.7742864 15791103 female
-0.2350719 0.4190493 0.5409523 -0.9102734 -0.3981841 -0.1133659 6776946 female
-0.2612215 0.3260626 0.2931131 -0.9125215 0.1004129 -0.396512 11120574 female
-0.2679015 0.5330809 0.356068 -0.8144338 0.4415205 -0.3765066 15001073 female
-0.008335546 0.5555079 0.288514 0.9544992 0.08220717 0.2866588 14606574 female
-0.1910412 0.6115271 0.4825713 0.1843736 0.6916515 0.6983011 14607343 female
-0.3028937 -0.07495942 0.404123 -0.7546311 -0.182784 0.6301761 1776155 female
-0.02239003 -0.3036132 0.3067196 -0.8395309 -0.5400653 0.05930604 2106151 female
-0.2810092 0.05387782 0.4387847 -0.8760636 0.1313016 0.4639747 3026990 female
-0.06365353 -0.06419985 0.1740417 -0.01217334 -0.2475461 -0.9687997 2499622 female
0.05232919 -0.2323762 0.2637163 0.7704414 0.07344048 -0.6332666 2039331 female
0.07182411 -0.4564129 0.2930154 -0.3114891 -0.3341879 -0.8895465 2499883 female
-0.3089466 -0.08999904 0.2680379 -0.5472212 0.2430259 -0.800929 1907749 female
-0.2016059 0.1078175 0.2273023 -0.4698048 -0.3663862 -0.8031467 14739189 female
-0.2992536 0.74344 0.3072824 -0.9894397 -0.1201135 0.08112867 16309454 female
0.09766333 0.3074631 0.1606061 0.9884363 -0.1093632 0.1050397 14079966 female
-0.1795899 0.4429667 0.5042756 0.378215 -0.3878266 -0.8405617 526344 female
-0.2971651 0.04600891 0.407542 -0.9370749 0.2073749 0.280867 1775387 female
-0.04496513 -0.1809437 0.3504741 -0.4950285 -0.03053782 0.8683399 2302243 female
0.04650421 -0.2919449 0.2630293 0.3465248 -0.09488941 -0.9332291 2500137 female
-0.1528294 0.3287304 0.561711 0.2442268 -0.4162524 -0.8758351 9013390 female
-0.2574816 -0.2225898 0.3583641 0.3532155 -0.4189885 0.8364732 2499622 female
0.04000049 -0.4180801 0.3013107 -0.7605922 -0.3780219 -0.5278247 2170403 female
-0.1082248 0.6692486 0.3091937 0.4710973 0.8696035 -0.1478415 15257534 female
-0.2440707 -0.3715882 0.293713 0.9349729 -0.1201216 0.333761 2171944 female
-0.4212098 -0.654735 0.1379803 0.1926488 -0.7041038 -0.6834649 8681844 female
-0.1927459 0.1442171 0.2078157 -0.4460363 -0.2956304 -0.8447806 15199487 female
-0.26628 -0.2634357 0.3420284 0.4560413 -0.2799486 0.8447811 2302499 female
-0.1991116 0.195675 0.4968926 -0.2911394 0.2415924 0.9256733 6315103 female
-0.1973912 0.6543437 0.2825343 -0.2888745 -0.2891368 -0.9126617 15782344 female
-0.0892445 0.6073168 0.3779109 0.6779929 0.3908278 0.6225587 16054782 female
0.1058936 -0.4255251 0.2924216 0.479179 -0.1111649 -0.8706491 1973798 female
-0.2137759 0.3907776 0.5355361 -0.5868981 -0.560069 -0.5846994 8552842 female
0.01231596 -0.04652015 0.2037723 0.7078912 -0.1309169 -0.6940827 2171171 female
-0.1447678 0.3407798 0.2116191 -0.1260173 0.0120551 -0.9919548 6973810 female
-0.1644307 0.2712333 0.209143 -0.2642486 0.1781064 -0.9478664 10791862 female
-0.2105917 0.32622 0.2305452 -0.5257451 0.04461956 -0.8494711 14345455 female
-0.2712012 0.2325157 0.359348 -0.9943564 0.07016622 0.07957451 15726591 female
-0.3055797 -0.4589987 0.2038296 -0.05343969 0.1212821 -0.9911785 2104352 female
-0.2970203 0.05591225 0.3542467 -0.8971112 0.4025821 -0.1819867 2434605 female
-0.2239963 0.6428801 0.3471819 -0.9542907 -0.2000985 0.222013 16773089 female
-0.2324673 0.04678407 0.4918337 -0.4866929 -0.06316794 0.8712863 2697773 female
-0.2142177 0.2990555 0.6189025 -0.9893149 -0.0340339 -0.1417666 6052709 female
-0.2096962 -0.003984982 0.4895135 -0.1911706 -0.3240795 0.926513 2170406 female
-0.2819026 -0.4933288 0.2106734 0.6905215 -0.06347302 -0.7205215 1579291 female
-0.05592634 0.6243862 0.2227087 0.1745565 0.9087936 -0.3789779 9737617 female
-0.335839 -0.2034542 0.3390396 -0.8003089 -0.09654855 0.5917635 2039327 female
0.01865864 0.1741395 0.01630263 -0.6730219 0.5605351 -0.482537 14017262 female
-0.3344585 -0.6808506 0.2113015 -0.04330929 -0.2746216 0.9605765 12363420 female
-0.04060386 0.1879809 0.421305 0.7462947 0.333335 0.5761353 9541537 female
-0.1892067 0.6263186 0.4650753 0.1532183 0.7533842 0.6394812 13948130 female
-0.1719472 0.3284552 0.5643253 -0.3281859 -0.5053457 -0.7980725 11711431 female
-0.01811014 0.4313502 0.1774561 -0.790038 -0.2857629 -0.5423831 14607351 female
-0.1240045 0.0292577 0.1727103 -0.5397045 -0.0627123 -0.8395154 2698032 female
-0.06258106 0.6384392 0.3140401 0.6467088 0.7016113 0.2991809 12437206 female
-0.2354445 0.428066 0.5224181 -0.7769656 -0.5201665 -0.3546144 11448251 female
-0.1502396 0.1918417 0.6540332 0.9390742 -0.1310917 0.3177335 15198199 female
-0.3228323 -0.1273198 0.3665371 -0.8089193 -0.1181868 0.575918 1908000 female
0.0936227 -0.3181216 0.3589412 0.6077186 0.4783768 0.6339036 2303016 female
-0.1666926 0.787744 0.2542295 0.8526525 0.03238117 -0.5214741 6575699 female
-0.1604139 0.3950564 0.6124208 0.3165668 0.4025098 0.8589361 11910854 female
-0.20382 0.3912917 0.6075813 -0.6511716 0.2564348 0.7142946 9803157 female
-0.068896 0.1685388 0.4651192 0.6690529 0.3079608 0.6764085 10988476 female
-0.2270823 0.8175361 0.3953401 -0.2387615 0.02411739 0.9707787 2697257 female
-0.1605711 0.2469072 0.2010677 -0.274122 0.2009546 -0.940465 15660798 female
0.04576423 0.1049313 0.02212314 -0.2058407 -0.6119298 0.7636567 11972530 female
0.03911879 0.07007689 0.3094369 0.9706362 -0.0906952 0.2227999 2829875 female
-0.1462747 0.6988928 0.3580687 0.7242753 0.3684219 0.5828298 10916489 female
-0.23631 0.7608256 0.3923432 0.3468361 -0.3909717 0.8525525 16507086 female
-0.0405422 0.2787923 0.3590592 0.7708778 0.2351085 0.5920063 8092808 female
0.04528984 -0.4248945 0.3814164 -0.6780347 -0.1741195 0.7141089 1776161 female
-0.01597244 0.5092806 0.2597791 0.4201299 -0.5542139 0.7185665 855568 female
-0.01627591 0.4168579 0.2097224 -0.8713226 -0.4557683 0.1818575 592137 female
-0.04767852 0.135699 0.4523441 0.7674245 0.154658 0.6222062 13094111 female
-0.267685 0.2572508 0.3639316 -0.9891883 0.08874332 0.1167531 15264244 female
-0.1611419 0.6749303 0.3824958 0.2518889 0.6860782 0.6825311 15585732 female
-0.3263158 -0.08252524 0.2880564 -0.8098111 0.2397704 -0.5354588 2172969 female
0.1484759 -0.6988338 0.3389096 0.3415997 -0.9376009 0.06491809 790285 female
0.02528023 -0.3748661 0.3688727 -0.7829166 -0.1117706 0.612004 1973793 female
-0.1389261 -0.001734371 0.1931831 -0.7429082 -0.1897529 -0.6419355 2369065 female
-0.01634853 -0.2014626 0.2214041 0.09486575 -0.3224005 -0.9418378 2039585 female
-0.2134393 0.5762518 0.5189942 0.2591419 0.5845112 0.7688902 14080999 female
-0.235442 -0.09615414 0.4308836 0.00959086 -0.4893959 0.872009 2171174 female
-0.2106184 0.3607653 0.2334301 -0.5814834 0.1857107 -0.7920786 13291497 female
-0.09916469 0.6505745 0.3530355 0.6584038 0.6140726 0.4352233 16372166 female
-0.04628154 0.6283174 0.3007842 0.6805341 0.6954777 0.2306167 15133173 female
-0.07718184 0.511889 0.2075587 0.0640068 -0.7563412 -0.6510385 526344 female
-0.2472423 -0.2921467 0.2591554 0.9163672 -0.06726808 -0.3946469 2105120 female
0.1201546 -0.7028216 0.2382483 0.1992084 0.9003221 -0.3869574 15586248 female
-0.2191031 0.4393283 0.4970595 -0.1752202 -0.6001831 -0.7804346 14407909 female
0.02278342 0.2098285 0.05895574 -0.9787802 0.1966612 -0.057565 6842480 female
-0.2937604 -0.244098 0.3530144 -0.04515047 -0.2610062 0.9642806 2171171 female
-0.1912768 0.1879246 0.5003151 -0.2168832 0.2014275 0.9551904 13225951 female
0.1387443 -0.639374 0.4027038 -0.3313761 0.1166607 0.9362586 2434085 female
-0.07479306 0.2645282 0.4189115 0.7946065 0.3126082 0.5204582 6315360 female
-0.07141324 0.3455161 0.2221151 0.5027918 0.05096721 -0.8629037 11384246 female
-0.1401962 0.8509942 0.2930831 0.8362092 0.3723003 -0.4026743 3553333 female
-0.2607424 0.6888663 0.252833 -0.3095974 -0.2606387 -0.914449 15192515 female
0.01459803 0.1030855 0.2086308 0.7895421 0.1855357 -0.5849783 11514551 female
0.04922098 -0.7075223 0.2583959 -0.6168591 0.7744734 -0.1402705 14991796 female
-0.05752935 -0.1695542 0.2117391 -0.3026611 -0.44438 -0.8431622 2565929 female
-0.1244271 0.171389 0.1757947 -0.2463061 -0.01623656 -0.9690561 15199231 female
-0.1417172 0.6007345 0.4638878 0.5564466 0.5534732 0.6197052 14541040 female
-0.2800364 -0.3401761 0.2260872 0.2081607 0.2102106 -0.9552385 2105120 female
-0.2531644 0.3221762 0.2772015 -0.8608348 0.103977 -0.4981487 16186110 female
-0.01425116 -0.08196059 0.1910677 0.4407466 -0.2007332 -0.8748992 2170913 female
0.1403499 -0.5647604 0.3455132 0.8903764 0.0003279232 -0.4552249 1579291 female
-0.2573655 0.2556651 0.4163192 -0.9320752 0.07255004 0.3549258 14737897 female
-0.1266312 -0.0877836 0.2869068 -0.8862237 -0.3714011 0.2768915 1776670 female
-0.2615502 0.1307498 0.4513904 -0.889121 0.146799 0.4334903 6842481 female
0.01383334 -0.2892875 0.3653709 -0.1232349 0.002821312 0.9923735 2171425 female
-0.2867444 0.8018209 0.2427787 -0.6961091 -0.1366644 -0.7048084 16246750 female
-0.1018364 0.4670215 0.4686072 0.7132219 -0.06594462 0.6978294 4737363 female
-0.2312385 0.6281219 0.4443531 -0.5375937 0.8276429 0.1612461 14408931 female
-0.166724 -0.06568311 0.3006004 0.7095262 -0.187629 -0.6792408 1316118 female
0.09587322 -0.7072555 0.2329043 -0.06213675 0.948289 -0.3112666 10720399 female
-0.2567215 0.8829502 0.2688718 -0.3134745 0.8200127 -0.4788662 2696225 female
-0.3049522 0.04301842 0.3604956 -0.937583 0.3419938 -0.06307405 2303015 female
0.09150219 -0.5202 0.3103616 -0.2475216 -0.2900952 -0.9244338 2565420 female
-0.2238311 0.3037775 0.4581493 -0.6055152 0.07691848 0.7921079 13685209 female
-0.269938 0.3076499 0.3401695 -0.999324 -0.0006732208 0.03675683 5394518 female
-0.1531504 0.7229314 0.3579012 0.7650811 0.01227709 0.6438169 2434850 female
0.05933892 0.09437221 0.001678397 0.9989347 -0.04323263 0.01613959 14861249 female
-0.1904304 0.6302223 0.2848084 -0.417622 -0.1706341 -0.8924549 15585217 female
-0.3048128 -0.5320878 0.1977913 0.2415672 0.07697116 -0.9673266 1974306 female
-0.2133325 0.6794528 0.2703543 0.292153 -0.6870842 -0.6652533 13285801 female
-0.2125447 0.3418587 0.2321731 -0.571897 0.07715864 -0.8166887 14738679 female
-0.1600171 0.03003495 0.2138757 -0.9105053 -0.08767621 -0.4040951 3026227 female
0.1282755 -0.4354317 0.3730104 0.7888205 0.1151376 0.6037429 2171945 female
-0.2226148 0.7310247 0.234016 0.2336775 -0.2133336 -0.948622 16245200 female
0.004520037 0.4027644 0.1637601 -0.6393793 -0.1653487 -0.7509021 14475500 female
-0.1550719 0.4026337 0.1864647 0.01940131 -0.6506246 -0.7591516 11974594 female
-0.1575238 0.7617719 0.3774816 0.5519601 -0.3857388 0.7392873 1710362 female
-0.148944 0.8362811 0.2715819 0.7637858 0.226238 -0.6045226 2696998 female
-0.3188845 -0.6054697 0.1849049 0.6086574 0.1739955 -0.77412 1448220 female
-0.1336438 0.8524583 0.3434563 0.8561665 0.4353541 0.2782907 5459531 female
-0.153079 0.3538022 0.4816154 0.1480383 -0.1977971 0.969 12829389 female
-0.1967825 0.6879466 0.3752954 -0.2290446 0.1807244 0.9564921 14337465 female
0.05752578 0.1085252 0.01947822 0.8068562 -0.3382572 0.4843194 15330031 female
-0.4611527 -0.6403842 0.1840349 -0.224944 0.8234075 0.520961 14401462 female
-0.002608511 -0.2927296 0.3606503 -0.4694571 -0.2014129 0.8596761 2105378 female
-0.3253637 -0.4356144 0.3082127 -0.418396 -0.299314 0.8575289 1776669 female
0.0304618 0.1729013 0.2859989 0.9742364 0.2207906 -0.04598974 14869234 female
-0.1834408 0.4989594 0.5008867 0.2759218 -0.2518771 0.927591 13159638 female
-0.08031821 0.3118771 0.4221083 0.9014474 -0.06303652 0.4282745 14605809 female
-0.2921194 0.06460053 0.3548565 -0.8749539 0.4343698 -0.2139592 2500391 female
-0.1609294 0.6041471 0.25444 -0.4960312 0.5039547 -0.7070946 15200255 female
-0.141161 0.1920702 0.182875 -0.2635425 0.0514083 -0.963277 14084087 female
-0.2353935 -0.2565207 0.2940618 0.8970812 -0.3919671 0.2039784 2500138 female
0.02729084 0.1085548 0.2335687 0.8948357 0.1954052 -0.401355 8685712 female
-0.2797092 -0.02025801 0.4445485 -0.7130662 -0.1453252 0.6858698 1710875 female
-0.3525342 -0.6734652 0.1559508 -0.06181299 -0.4580865 -0.8867558 1051664 female
-0.3537443 -0.4761954 0.2696629 -0.8620796 -0.157074 0.4818158 2170913 female
0.02806918 -0.2713668 0.3616789 0.3381844 0.1725562 0.9251246 2500142 female
-0.1892177 0.1465062 0.6848857 -0.1264899 0.2447458 0.9613011 9540502 female
-0.2400533 0.2571357 0.2568253 -0.8158383 0.05019503 -0.5760974 15330809 female
-0.484359 -0.6586706 0.1935882 -0.489886 -0.3763958 0.7863446 10586498 female
-0.284782 0.8237594 0.3537554 -0.7980703 0.0277037 0.6019273 2895148 female
-0.2565062 0.5774562 0.3895397 -0.8474941 0.412766 -0.3337332 15133684 female
-0.3363094 -0.07484498 0.3268539 -0.9895012 0.1415798 -0.02902505 2169889 female
-0.2414433 0.6685508 0.2980362 -0.3780339 -0.913869 0.1481003 14864577 female
-0.03256586 0.05416358 0.1662652 0.3455178 0.0113198 -0.9383439 2303530 female
0.07440564 -0.7121826 0.2311049 0.9475421 0.1237855 -0.2946882 5852489 female
-0.2863249 0.5699624 0.4523267 -0.8994948 0.2648926 -0.3474779 15264504 female
-0.1722136 -0.09553978 0.3057538 0.7950152 -0.2709739 -0.5427007 1776675 female
-0.1133145 0.638578 0.3839951 0.6958933 0.5216948 0.4935252 13226208 female
