# .PCD v0.7 - Point Cloud Data file format
VERSION 0.7
FIELDS x y z normal_x normal_y normal_z rgb label
SIZE 4 4 4 4 4 4 4 4
TYPE F F F F F F U U
COUNT 1 1 1 1 1 1 1 1
WIDTH 170
HEIGHT 1
VIEWPOINT 0 0 0 1 0 0 0
POINTS 170
DATA ascii
-2.972514 -0.07756157 -0.453414 -0.3485301 -0.1980801 -0.9161283 1645342 female
-2.888113 0.02964914 -0.5468835 0.61497 -0.787115 0.04755768 2302499 female
-3.108848 0.7816505 -0.4515714 -0.9897044 0.06372742 -0.1281556 14009785 female
-2.989917 -0.1192891 -0.4361016 -0.4976698 -0.1340707 -0.8569421 2435374 female
-3.069921 -0.006545995 -0.6236789 -0.5800182 -0.144459 -0.8016922 2040359 female
-2.928439 0.6404483 -0.383816 -0.309777 0.7047606 0.6382404 15593975 female
-2.844834 0.4253284 -0.3115362 -0.5702024 -0.2444615 0.7842881 6776946 female
-3.051394 0.4686734 -0.3559328 -0.816838 0.3640148 0.4475142 13620965 female
-3.039461 0.5467092 -0.4162703 -0.7728362 0.3733312 0.5131745 12502992 female
-2.966305 0.5799639 -0.6242424 0.5243987 0.3167827 -0.790351 16054526 female
-2.920414 0.6372544 -0.3746998 -0.3157285 0.7787272 0.5421249 13356244 female
-2.87956 -0.02366687 -0.3003489 0.520242 -0.1660505 0.8377205 1842720 female
-2.994161 -0.3254182 -0.5008672 -0.2982031 -0.3789078 0.8760729 1776155 female
-2.947742 0.1039249 -0.3025401 -0.3226794 0.2843138 0.9027977 12567760 female
-3.096039 -0.08909632 -0.5775199 -0.8249996 -0.2121251 -0.5238116 2236450 female
-3.060801 -0.236076 -0.568351 -0.7744457 -0.2937055 -0.5603311 2038818 female
-2.939696 -0.4498912 -0.5321078 -0.6738066 -0.4347942 0.5974435 2105377 female
-3.036858 -0.121401 -0.3755581 -0.9715441 -0.01885648 -0.2361068 2171172 female
-3.081406 0.09060457 -0.4656333 -0.897519 -0.2818249 0.3391671 7566973 female
-3.04859 0.75911 -0.3678774 -0.07600643 -0.07984109 0.9939057 16571342 female
-2.940389 0.3112589 -0.7311661 0.8912083 -0.01418852 -0.4533724 14740727 female
-2.842738 0.4287245 -0.3785552 -0.6294004 -0.3446333 -0.6964791 986895 female
-2.962301 0.06619073 -0.295702 -0.3240384 0.2512792 0.9120625 2763056 female
-2.967829 -0.2015994 -0.4840533 0.5577653 0.04663957 0.8286873 2369324 female
-3.06303 -0.2506485 -0.5023351 -0.754208 -0.2998237 0.5841883 1974566 female
-2.797717 0.3204686 -0.3736211 -0.5429901 -0.282641 -0.7907439 10461351 female
-2.90173 -0.1950694 -0.3774458 0.9349411 -0.2850396 -0.211276 2171945 female
-2.928252 -0.4861654 -0.5455376 -0.7693233 -0.4703079 0.4323797 2169889 female
-2.964713 0.6454097 -0.5604661 0.4858055 0.6978037 -0.5263677 14533819 female
-2.996395 -0.5199216 -0.4477763 -0.3853886 0.01627072 -0.9226109 2105888 female
-3.0275 -0.7297146 -0.3122007 -0.09144139 -0.9946874 -0.04728041 921102 female
-3.083418 0.2802652 -0.4226799 -0.897456 0.02196815 0.4405567 14870266 female
-2.891831 -0.1712311 -0.3595002 0.9487109 -0.2977096 0.1063799 2171430 female
-2.837166 0.2120666 -0.3494633 0.7400205 0.3055357 0.5991809 6315103 female
-3.048357 0.6691373 -0.4755965 -0.9520651 -0.2244858 -0.2077937 16573400 female
-3.06336 -0.07054164 -0.7360012 -0.8331612 0.05230834 -0.5505509 1381912 female
-2.898681 -0.3305498 -0.5731692 0.7939396 0.5491611 -0.2609255 2499878 female
-2.844895 0.3951115 -0.3306109 -0.870764 -0.3935849 0.2947218 8552842 female
-3.089454 -0.06543133 -0.5919179 -0.7522144 -0.1909059 -0.6306573 2367780 female
-3.080373 0.3566915 -0.5346753 -0.9320448 -0.08445352 -0.3523636 5195858 female
-3.083368 0.2966678 -0.5261543 -0.9706124 0.07128033 -0.2298491 3616567 female
-3.090775 0.3352233 -0.4911609 -0.9863158 -0.03186069 -0.161759 9211547 female
-2.989006 0.2487177 -0.3387391 -0.3038387 0.1500617 0.9408313 14805746 female
-3.019567 -0.4715191 -0.3939185 -0.9680037 -0.08341002 0.2366674 2301731 female
-2.984979 0.03861059 -0.2995258 -0.4818527 0.2131617 0.8499295 2434605 female
-3.006337 0.6499677 -0.4202583 -0.2900761 -0.1668681 0.9423434 16773345 female
-2.848778 0.09715382 -0.3165185 0.5914418 0.1186457 0.7975712 11645625 female
-2.787057 0.3173001 -0.2871428 -0.4744519 0.2523093 0.8433478 3684417 female
-2.826826 0.0142073 -0.3465144 0.8721166 -0.222602 0.4357304 2170406 female
-2.968939 -0.4564658 -0.4506204 0.1597357 -0.05352557 -0.9857076 2303273 female
-3.072264 0.5884092 -0.6375127 -0.4750978 0.7309359 -0.4899129 10132383 female
-3.026386 -0.1852512 -0.3156226 -0.7876161 -0.04534477 0.6144955 2106152 female
-3.036615 0.1574282 -0.7305645 -0.9733217 0.1650564 0.1593775 14278385 female
-2.972623 -0.7048687 -0.4594659 0.8609449 -0.2683409 -0.4321655 15781830 female
-2.798943 0.06881076 -0.433573 0.9894872 -0.122932 -0.07617574 2500910 female
-2.871208 0.6344203 -0.4031164 0.6640605 0.7455657 0.05617421 13948130 female
-2.802959 0.3083588 -0.3629815 -0.7827446 -0.3036625 -0.5432311 12894404 female
-3.042583 0.4128659 -0.6641593 -0.9037818 -0.3788454 0.1991344 14672114 female
-3.106862 0.02751459 -0.5787173 -0.9082226 -0.01945245 -0.4180351 2762539 female
-3.02635 0.6269924 -0.6076516 -0.1512108 0.799094 -0.5818799 13620703 female
-2.859759 0.4363205 -0.3203851 -0.7446768 -0.3572197 0.5637823 11448251 female
-2.801729 0.2216113 -0.3284278 -0.7721056 -0.2612484 -0.579312 9145239 female
-2.895614 -0.02109067 -0.2914222 0.3778765 -0.1142246 0.9187829 2171945 female
-2.919429 -0.3952992 -0.6158571 -0.003396473 -0.0254833 -0.9996695 1579550 female
-2.797784 -0.6039697 -0.5704228 0.4474791 0.3786083 -0.8101963 2170913 female
-2.787125 0.3747685 -0.3020816 -0.02349783 0.1520728 0.9880899 10528428 female
-2.769876 0.3853614 -0.3103298 0.5618539 0.3071154 0.7681147 3684152 female
-2.833581 0.2148352 -0.4816813 0.8331949 0.3774233 -0.4041508 12832216 female
-2.956122 0.84167 -0.4082685 0.7606471 0.2005753 0.6174022 2565671 female
-3.08252 0.2548729 -0.5521133 -0.9043078 0.2091694 -0.3721231 13357016 female
-3.01121 0.0665577 -0.7602552 0.2549752 0.05932072 -0.9651263 13487573 female
-2.879549 0.05858303 -0.5900701 0.798399 -0.3349496 -0.5003677 2699321 female
-2.953708 0.6787571 -0.4344387 0.6149531 0.4099864 0.673605 11245706 female
-3.003357 0.7141299 -0.4004603 0.5297478 -0.4518096 0.717799 13811121 female
-2.903949 0.3522251 -0.5602025 0.8468018 -0.1366644 -0.514052 13354967 female
-3.030627 -0.2047652 -0.4757201 -0.214762 -0.1839934 0.9591786 1580065 female
-2.996517 0.484854 -0.6219902 0.3789108 -0.5141249 0.7694818 526602 female
-2.999573 0.4639294 -0.6215925 0.1864457 -0.416607 0.8897621 789516 female
-2.840541 0.1635643 -0.5275514 0.8270444 0.2230085 -0.5160085 14408947 female
-3.001116 0.2447787 -0.3423872 -0.3521449 0.132723 0.9264872 15726591 female
-2.933496 0.6715248 -0.4750684 0.662934 0.721894 -0.1984634 16704212 female
-3.037679 -0.1022661 -0.3674029 -0.9937534 -0.01273299 -0.11087 2170914 female
-2.879222 -0.7235218 -0.6006562 0.3829171 -0.707366 -0.5941445 658442 female
-3.018828 -0.2470355 -0.4801078 -0.1326412 -0.2365733 0.9625172 2039585 female
-3.095342 -0.0308321 -0.5946218 -0.7872368 -0.1375479 -0.6011146 2697001 female
-3.000867 -0.2876385 -0.5993802 -0.2320274 -0.03281029 -0.9721557 2170405 female
-2.821524 0.5663812 -0.3663011 0.9306985 0.3113842 -0.1919378 14870258 female
-2.874252 -0.1095748 -0.393783 0.9136464 -0.2773257 -0.2972217 2237737 female
-3.090402 0.3428113 -0.4958402 -0.9820735 -0.03861793 -0.1845004 13159904 female
-3.04075 0.6322577 -0.5738527 -0.6514245 0.7517275 -0.1027225 11245448 female
-2.914188 0.5279621 -0.5935884 0.7870765 0.1452624 -0.5995076 3882564 female
-3.020269 0.4847115 -0.6146516 0.07296735 -0.5801682 0.8112217 526600 female
-2.984577 -0.2869448 -0.4178433 0.06327324 -0.02616445 -0.9976532 2105121 female
-2.833751 -0.6118996 -0.5837248 -0.2022011 0.01192128 -0.9792715 1579032 female
-2.872639 0.447952 -0.3474019 -0.8642842 -0.4772597 -0.1588586 14407909 female
-3.041015 0.1297154 -0.7396863 -0.9517184 0.201554 -0.2315339 13160160 female
-2.94487 -0.2361714 -0.3057228 0.4795606 -0.1598571 0.8628252 1841948 female
-2.830808 0.2040837 -0.3550287 0.7969233 0.2633327 0.5436628 13225951 female
-2.775847 -0.6698724 -0.5394257 0.5137023 -0.4247025 0.7454783 920846 female
-2.862216 0.2686205 -0.496991 0.7918835 0.2883496 -0.5383075 6315360 female
-3.042351 0.3298455 -0.5872196 -0.5725138 0.01363722 -0.8197817 13554654 female
-3.007167 0.8447776 -0.5359398 -0.006943955 0.2177207 -0.9759864 3025958 female
-3.11668 0.809818 -0.4189714 -0.9582193 -0.09138141 0.2710448 12430757 female
-2.972417 0.003576318 -0.6385101 0.3711886 -0.2735275 -0.8873566 2235938 female
-3.014229 0.0487211 -0.433331 -0.3949792 -0.8534236 0.3400875 2433061 female
-3.072073 -0.1355907 -0.481187 -0.5987244 -0.1814842 0.7801235 2170148 female
-3.081047 0.06901561 -0.4686043 -0.7539365 -0.07454801 0.6527039 2237996 female
-2.851579 0.596884 -0.4527296 0.8066249 0.4674694 -0.3617025 15133437 female
-3.021674 -0.3802608 -0.3789306 -0.9832978 -0.03296316 0.178994 2170913 female
-3.064797 0.3874957 -0.4118923 -0.8381283 -0.08556998 0.5387197 15464447 female
-3.103245 -0.0566872 -0.5754915 -0.8701825 -0.1598023 -0.4660963 2368036 female
-2.907393 -0.5265138 -0.5692793 -0.8306087 -0.4921753 -0.2604855 2565677 female
-2.940999 0.2532896 -0.3286779 -0.08413051 0.2027273 0.9756145 14082031 female
-3.112744 -0.0558027 -0.5288522 -0.984764 -0.1440327 0.09743907 2697257 female
-2.860282 0.1403738 -0.3170008 0.4991644 0.1317429 0.8564337 460807 female
-2.892983 -0.3358554 -0.5629115 0.8345999 0.5420291 -0.09822205 2500142 female
-3.073329 0.6934916 -0.4580498 -0.4531918 -0.7368086 -0.5017273 13417127 female
-2.834387 0.4741341 -0.4703203 0.9215097 -0.06627724 -0.3826581 4737363 female
-2.859431 0.6097353 -0.3447597 0.608468 0.7229688 0.327235 12896716 female
-2.984709 -0.01375991 -0.4554425 -0.5414279 -0.03537751 -0.8400025 723467 female
-2.842594 -0.6100461 -0.5804995 -0.3780791 -0.06685006 -0.9233565 1776156 female
-3.078522 0.8924603 -0.4365911 -0.5582238 0.8282902 0.04818249 2696225 female
-2.977976 0.02519536 -0.2918997 -0.3665252 0.1641554 0.9158123 2303015 female
-2.909868 -0.4625056 -0.5148341 -0.3825316 -0.3317168 0.8623419 1382427 female
-2.889936 0.3179687 -0.3481673 0.4617524 0.1387266 0.8760934 13685209 female
-3.025922 0.3358716 -0.3605021 -0.4767319 0.07335865 0.8759824 8552843 female
-2.960582 0.7190294 -0.4912736 0.805535 0.07174337 -0.5881889 2893604 female
-3.014479 0.06713485 -0.7610811 0.1157616 0.04242392 -0.9923706 12895436 female
-3.034123 0.6410595 -0.5413284 -0.7748029 0.6081346 -0.1727793 16571594 female
-3.013347 -0.5609627 -0.4279049 -0.9439695 -0.008996855 -0.32991 1776669 female
-3.06466 0.6877998 -0.4553745 -0.4642118 -0.7532213 -0.4660097 13022629 female
-3.085643 0.3288473 -0.5100796 -0.9708499 -0.02556088 -0.2383215 15134204 female
-3.089351 0.01642158 -0.6098844 -0.74376 -0.07611902 -0.6640985 1843236 female
-2.848624 -0.4517755 -0.5381226 0.8942508 0.1993966 0.400695 2302505 female
-3.057919 0.7184175 -0.489738 -0.5218433 -0.3904558 -0.7584352 12496291 female
-3.018759 0.3850622 -0.6546339 -0.5304615 -0.4623519 0.7105219 9606049 female
-3.115945 0.3976379 -0.4920557 -0.6638905 -0.7386711 0.1166807 13356513 female
-2.948002 0.766953 -0.4950388 0.7864082 -0.43918 -0.4343767 3486769 female
-3.027671 0.8284335 -0.5350267 -0.2005586 0.05300604 -0.9782467 2696225 female
-3.014246 -0.6697448 -0.4463406 -0.799605 0.1814936 -0.5724438 2631207 female
-2.965692 0.8533081 -0.5230623 0.5589795 0.3625041 -0.7457431 5459531 female
-2.981715 0.1915994 -0.3271801 -0.3655963 0.04932576 0.9294656 13554657 female
-2.960928 0.7028313 -0.4345913 0.8468409 0.1247995 0.5169966 13350311 female
-3.000723 0.05756786 -0.7359517 0.8186879 -0.1549219 0.552946 5394261 female
-3.013052 -0.6619043 -0.3625262 0.3367179 0.6411844 0.6895677 3421488 female
-2.96295 -0.2635357 -0.4868788 0.5484388 -0.05508472 0.8343744 2170913 female
-2.951562 -0.4881959 -0.3601851 0.5039652 -0.2988092 0.8103902 1973534 female
-2.955342 0.09488634 -0.6471158 0.241783 0.05810678 -0.9685889 7172989 female
-2.838602 0.5933568 -0.4096596 0.9084183 0.4070683 -0.09524544 15724539 female
-2.862657 0.3165424 -0.4928688 0.769637 -0.09176969 -0.6318521 14605809 female
-2.985421 0.04873857 -0.3029912 -0.513832 0.2474566 0.8214267 2500391 female
-3.0901 0.5336919 -0.5589806 -0.9902437 0.02412201 0.1372427 3947333 female
-3.102495 0.1706501 -0.5450983 -0.9860845 -0.003649481 -0.1662048 14805495 female
-3.005421 -0.3538888 -0.4251713 -0.6948622 0.1907341 -0.6933879 2170913 female
-2.934201 0.04895077 -0.6370513 0.4684313 -0.2369715 -0.8511267 2631721 female
-2.908312 -0.1652317 -0.3217867 0.7242 -0.2333241 0.6489177 1908257 female
-3.040295 -0.6764243 -0.404226 -0.915013 0.1293178 -0.3821365 9077376 female
-2.964349 -0.5067489 -0.3592049 0.2897458 -0.2860091 0.9133708 2105120 female
-2.943304 -0.2890465 -0.5121116 0.8881065 0.1761026 0.424564 2303017 female
-2.769387 0.1830133 -0.2656294 0.5263668 0.09704094 0.8447017 8818063 female
-3.104955 0.1952542 -0.4715539 -0.9983004 -0.03536953 0.04631762 11712202 female
-3.004194 -0.7247459 -0.2839995 0.6898043 -0.602644 0.4012359 10652291 female
-2.983184 0.8449823 -0.3869807 0.4865332 0.2323869 0.8421887 2170401 female
-3.018443 0.5033211 -0.345982 -0.5946355 0.51476 0.6176007 15199991 female
-3.031742 -0.0007702848 -0.3460496 -0.9450603 0.1227642 0.3029686 2434342 female
-2.947492 0.6746802 -0.4361134 0.4922433 0.5971484 0.6333328 11245705 female
-3.109771 0.09759953 -0.5492024 -0.9807055 0.1946628 -0.01797545 13751010 female
-3.05089 0.06816733 -0.434273 -0.6210997 -0.6878151 0.3756935 2368549 female
-2.928914 0.5091355 -0.3306876 -0.01784325 -0.4720875 0.8813711 13618902 female
-2.969673 -0.03314412 -0.4633831 -0.4066973 -0.1031066 -0.9077259 2170913 female
