# .PCD v0.7 - Point Cloud Data file format
VERSION 0.7
FIELDS x y z normal_x normal_y normal_z rgb label
SIZE 4 4 4 4 4 4 4 4
TYPE F F F F F F U U
COUNT 1 1 1 1 1 1 1 1
WIDTH 170
HEIGHT 1
VIEWPOINT 0 0 0 1 0 0 0
POINTS 170
DATA ascii
-1.624569 -0.07455761 -0.6879493 -0.5923412 -0.2398939 -0.7691443 2105636 female
-1.657064 -0.1189218 -0.730717 0.7338663 -0.3714735 0.5687246 2171174 female
-1.695339 0.7407684 -0.7652371 -0.6534136 -0.2096594 -0.7273883 15851728 female
-1.609431 -0.06420767 -0.70091 -0.4565931 -0.1716851 -0.872953 592395 female
-1.757463 0.08902629 -0.7916209 -0.894357 0.4399836 -0.08087021 12962778 female
-1.521537 0.5910646 -0.5735745 0.6864906 0.5909569 0.4236752 13488604 female
-1.605574 0.4548192 -0.4726691 -0.885654 0.3080658 0.3474371 6776946 female
-1.723747 0.4699799 -0.6745376 -0.9123387 0.404454 0.06367949 8224647 female
-1.680028 0.5545475 -0.7411342 -0.8685843 0.4936897 0.04279995 15397371 female
-1.507389 0.5344086 -0.795981 0.9678674 0.2438179 -0.06152609 8555932 female
-1.538672 0.6116177 -0.5885297 0.4003469 0.8373853 0.3721669 12632520 female
-1.514022 -0.127918 -0.5554195 0.4640185 -0.1366643 0.8752198 1776669 female
-1.806387 -0.3658606 -0.7282074 -0.3420149 0.05063535 0.9383293 2039584 female
-1.621593 0.05525098 -0.5313998 -0.3717169 0.08911677 0.9240589 13618391 female
-1.799082 -0.130939 -0.8141826 -0.7546161 0.01599283 -0.6559715 1973535 female
-1.76113 -0.319604 -0.8277901 0.4251258 0.07383394 -0.9021178 2171173 female
-1.874049 -0.588728 -0.7947684 -0.2303769 -0.1528491 -0.9610221 1579291 female
-1.613762 -0.1705666 -0.6440685 -0.8679094 -0.3767577 -0.3237078 2171172 female
-1.743249 0.2155712 -0.6493663 -0.8943835 0.09700706 0.4366551 12439520 female
-1.673657 0.7587538 -0.6581466 -0.40822 0.03607038 0.9121706 16571342 female
-1.504886 0.3098153 -0.9970169 0.1359443 0.3378392 -0.9313344 9080208 female
-1.508714 0.505205 -0.5731477 0.8766054 -0.4496651 0.1713603 14605295 female
-1.676415 0.05202197 -0.5860089 -0.8769938 -0.01828611 0.4801536 14606831 female
-1.709998 -0.2454919 -0.7939157 0.8389123 -0.3654741 -0.4033049 2499625 female
-1.835338 -0.2655951 -0.753109 -0.9770878 -0.007544164 0.2127027 2368812 female
-1.580601 0.3088515 -0.4305038 0.3666831 -0.8109311 -0.4559981 12566735 female
-1.477852 -0.09664846 -0.5880918 0.8933174 -0.002785594 0.4494177 2170145 female
-1.897306 -0.5706636 -0.782847 -0.8066311 0.1039144 -0.5818487 2499627 female
-1.599965 0.6082238 -0.8645216 -0.0569332 0.8490521 -0.5252324 10329237 female
-1.367688 -0.4264392 -0.7121207 0.7098914 0.2402654 -0.6620625 2302505 female
-1.402702 -0.7316297 -0.606912 0.1851049 -0.9820147 -0.03719165 658186 female
-1.752652 0.2114888 -0.7547097 -0.9559829 0.1284292 -0.2638233 13950961 female
-1.470155 -0.1141617 -0.6088579 0.9682869 0.08838188 0.233686 2171430 female
-1.516523 0.2579363 -0.6109674 0.8644658 0.1320421 0.48504 15000559 female
-1.651591 0.6591079 -0.7551864 -0.8458789 -0.1181974 -0.5201137 16573400 female
-1.51808 0.0653078 -1.026894 -0.8932827 0.122542 -0.432469 15725567 female
-1.737632 -0.3611808 -0.7605932 0.9508073 -0.1019952 0.2925107 2697257 female
-1.610141 0.4194751 -0.4756494 -0.9905929 -0.0293703 -0.133653 8552842 female
-1.762854 -0.1019388 -0.8434476 -0.4906079 -0.0962738 -0.8660457 2039329 female
-1.687631 0.3318856 -0.8263209 -0.6240572 -8.424438E-05 -0.7813787 13949412 female
-1.728345 0.2223101 -0.8076481 -0.8311005 0.2367719 -0.5032009 13028312 female
-1.738309 0.2477332 -0.7744562 -0.8957616 0.2162112 -0.388412 14738936 female
-1.700981 0.2158744 -0.597213 -0.598206 0.1091208 0.793878 14542324 female
-1.414352 -0.4862171 -0.7212485 -0.6120949 -0.2927017 -0.7346194 1578523 female
-1.661045 -0.004637153 -0.564785 -0.8143668 -0.08512629 0.5740734 2171689 female
-1.634508 0.6396812 -0.688131 -0.6140454 -0.03680865 0.788412 16773345 female
-1.605387 0.1012658 -0.5306502 -0.224755 0.143226 0.9638317 13094871 female
-1.636959 0.3627805 -0.377259 -0.5794383 0.7865229 0.2136186 11776961 female
-1.481218 -0.07824993 -0.6538516 0.9195771 0.09479748 -0.3813023 2171944 female
-1.373856 -0.5424433 -0.7309263 -0.4518461 -0.1826063 -0.8732068 1644569 female
-1.547144 0.5355805 -0.8878457 0.8621916 0.2029166 -0.4641666 15067891 female
-1.581199 -0.2333379 -0.5934732 -0.7416363 -0.4505497 0.4969714 2106152 female
-1.481072 0.1304058 -1.030591 0.3631934 0.1912802 -0.9118676 10067617 female
-1.291019 -0.667119 -0.7126247 0.8308119 0.1834574 0.5254474 12363420 female
-1.465639 0.06996962 -0.6938265 0.9605511 -0.1199233 -0.2509184 13554663 female
-1.666531 0.7515598 -0.6558183 -0.2470064 -0.07437594 0.9661554 16768206 female
-1.600812 0.306208 -0.4317321 -0.04849971 -0.7154573 -0.696971 8290438 female
-1.532042 0.4916376 -0.9036227 0.8959607 0.4380322 -0.07336301 15659766 female
-1.763845 0.06890233 -0.7536958 -0.8517445 0.4280938 0.3021041 2501936 female
-1.614092 0.596726 -0.874447 -0.2675041 0.8468202 -0.4597141 13881811 female
-1.609376 0.4615055 -0.4916747 -0.9846558 0.1202733 0.1264407 11448251 female
-1.670803 0.2659751 -0.3806864 -0.17564 -0.6695541 -0.7216979 7829370 female
-1.533169 -0.0932408 -0.5404482 0.3242064 -0.156041 0.9330281 2040095 female
-1.745934 -0.4041648 -0.8067489 0.8887492 -0.2068938 -0.4090475 2499878 female
-1.929005 -0.6738209 -0.7857952 -0.1147758 0.2446176 -0.9628025 15849424 female
-1.538947 0.4015669 -0.4290561 0.7534544 0.2236752 0.6182845 13554654 female
-1.541783 0.4165635 -0.4332985 0.6587961 0.3337025 0.6742628 5525852 female
-1.492962 0.1768504 -0.7237274 0.87383 0.3357775 -0.351674 14081269 female
-1.561027 0.8246902 -0.669116 0.5349415 0.1677713 0.8280642 2565671 female
-1.693513 0.2389107 -0.8387186 -0.5505464 0.321371 -0.7704669 15200511 female
-1.487044 -0.02213708 -1.036191 0.8802038 -0.3331226 0.3380393 657930 female
-1.568167 0.2119324 -0.8374998 0.659428 0.3879078 -0.6439583 14609399 female
-1.576054 0.6603335 -0.6843415 0.3906005 0.3821133 0.8375086 11245706 female
-1.726539 0.7542108 -0.7045355 -0.8077353 -0.4006834 -0.4324541 14400691 female
-1.533191 0.3138941 -0.76597 0.9635301 -0.2210171 -0.1508684 8551303 female
-1.771007 -0.3749291 -0.7286367 0.3302193 -0.06060864 0.9419564 2170913 female
-1.748137 -0.08465214 -0.8535634 -0.4029552 -0.1366595 -0.9049592 1841949 female
-1.504442 0.3306112 -0.9027682 0.204189 -0.2478811 0.9470279 13223634 female
-1.489874 0.1178974 -0.7494914 0.8966516 0.1005849 -0.4311596 14014190 female
-1.696472 0.1964413 -0.5901929 -0.5689263 0.06214016 0.8200374 15067644 female
-1.544464 0.6471651 -0.7143173 0.7924355 0.6091323 0.03168022 16704212 female
-1.622521 -0.1551071 -0.6333196 -0.8944394 -0.3990918 -0.2017519 2170914 female
-2.05097 -0.6677662 -0.7532966 -0.4606298 -0.8861588 -0.05042668 527112 female
-1.781613 -0.3540967 -0.7245717 0.04158496 -0.0636279 0.9971069 1776155 female
-1.786415 0.01879599 -0.798396 -0.9236891 0.2640499 -0.2776257 3552823 female
-1.81899 -0.2072526 -0.7928553 -0.883113 0.06333808 -0.4648654 1645090 female
-1.53588 0.5912634 -0.5500191 0.5925122 0.7044543 0.3907343 9868958 female
-1.478813 -0.08060713 -0.5861462 0.9035599 -0.02649477 0.4276419 2104609 female
-1.720979 0.2841243 -0.7942361 -0.8635989 0.1517357 -0.4808047 6643562 female
-1.662157 0.5560544 -0.8549083 -0.8941836 0.4396684 -0.08442403 15790335 female
-1.534806 0.5825589 -0.8389435 0.7897933 0.4863934 -0.3736951 15922171 female
-1.519719 0.2605545 -0.9458067 -0.8024117 -0.2724944 0.5309258 8290695 female
-1.476852 -0.2208983 -0.6784182 0.7416949 0.2126384 -0.6361396 2106409 female
-1.955654 -0.6366802 -0.7331669 -0.1881505 0.9325142 0.3082478 15786717 female
-1.603522 0.4580266 -0.5231177 -0.8289196 -0.3569486 -0.4306739 14407909 female
-1.483738 0.1009081 -1.038925 0.1939745 0.213566 -0.9574776 14017004 female
-1.489058 -0.2488284 -0.5787648 0.3990815 -0.08875783 0.9126095 1841948 female
-1.524126 0.1940832 -0.5608489 0.55085 0.3103178 0.7747691 7038569 female
-1.91385 -0.7008309 -0.7898499 -0.1478685 -0.2897188 -0.9456204 1050632 female
-1.512437 0.2219504 -0.729575 0.8624026 0.363842 -0.351967 14609399 female
-1.670335 0.3590582 -0.8377762 -0.4827974 -0.1547384 -0.8619528 14343914 female
-1.56641 0.821048 -0.8066095 0.3510179 0.1136978 -0.9294403 3025958 female
-1.687094 0.6995621 -0.7553144 -0.4944202 -0.5425101 -0.6791402 15455686 female
-1.62756 0.01650944 -0.8840062 0.2210684 -0.2239982 -0.9491858 2368809 female
-1.693387 0.1261125 -0.5903598 -0.6065493 -0.2650985 0.749547 7633548 female
-1.83203 -0.5244253 -0.7322693 0.1258504 -0.1649841 0.9782341 1841436 female
-1.722813 0.1414483 -0.843853 -0.7826184 0.201089 -0.5891278 12238794 female
-1.480641 0.5439489 -0.667879 0.9605122 0.2512685 -0.1195014 15067638 female
-1.479461 -0.3965523 -0.6759411 -0.8879526 -0.4183418 -0.1911293 2170913 female
-1.732167 0.4389577 -0.6815415 -0.9854867 0.03328539 0.166457 13752288 female
-1.802361 -0.1014751 -0.8098496 -0.8282682 0.04140947 -0.5587997 1973278 female
-1.825673 -0.4363394 -0.7281334 -0.3928514 0.07881938 0.9162179 1973534 female
-1.668907 0.2449854 -0.583413 -0.4492196 0.1949825 0.8718851 6777207 female
-1.802985 -0.02471218 -0.7629969 -0.9677089 0.2253817 0.1128824 2697257 female
-1.611149 0.1416681 -0.5376014 -0.2522569 0.0875673 0.96369 12239310 female
-1.748338 -0.3623261 -0.7413719 0.7498329 -0.1290368 0.6489223 2434346 female
-1.658094 0.7587492 -0.7880968 -0.3278119 -0.1463464 -0.9333392 13220269 female
-1.478772 0.4416685 -0.6694443 0.9830044 -0.1804765 -0.03362506 4737363 female
-1.58045 0.6134132 -0.5754036 -0.2713223 0.9426552 0.1943846 14474725 female
-1.65176 -0.004579562 -0.6807597 -0.6817694 0.069459 -0.7282622 1907741 female
-1.962163 -0.6444607 -0.7208996 0.0376619 0.6865652 0.7260922 15319737 female
-1.658492 0.8872863 -0.7403582 -0.4080069 0.8939872 -0.1852492 2696225 female
-1.660868 0.006772535 -0.5624737 -0.802456 -0.04083493 0.5953123 2303531 female
-1.898214 -0.6164083 -0.7856467 -0.4686903 0.1154925 -0.8757802 1841436 female
-1.57157 0.2945378 -0.5734012 0.3022422 0.1568012 0.9402462 15726591 female
-1.485686 0.4640825 -0.6176766 0.8954865 -0.1597806 0.4154204 15460080 female
-1.556271 0.6896548 -0.7207308 0.9762526 0.009700754 0.2164181 6575699 female
-1.487311 -0.01939203 -1.042104 0.9082329 -0.157327 -0.3877645 986895 female
-1.534192 0.6206803 -0.7561744 0.8801892 0.430071 -0.2007633 14859178 female
-1.388947 -0.5509752 -0.7122914 -0.7853525 -0.3136897 -0.5336855 1842977 female
-1.670493 0.6812843 -0.7426143 -0.3988204 -0.7296944 -0.5554172 13022629 female
-1.725085 0.2972242 -0.7818878 -0.8759465 0.1082022 -0.4701169 14806527 female
-1.758584 0.08176627 -0.7630808 -0.8662894 0.4500685 0.216751 3223356 female
-1.810588 -0.5174504 -0.7393098 0.5180967 -0.3218414 0.7924607 2170913 female
-1.629308 0.7830726 -0.8139325 -0.5691619 -0.7889128 -0.2316705 10785926 female
-1.606495 0.429952 -0.9119153 -0.853847 -0.5197107 -0.02908821 14606319 female
-1.716478 0.4834808 -0.6690317 -0.8542573 0.5161497 0.06191801 15200759 female
-1.528473 0.7577251 -0.7541783 0.8748184 -0.4226632 -0.236746 6840927 female
-1.58831 0.8075128 -0.8118477 0.1451166 -0.02234992 -0.9891621 2696225 female
-1.349535 -0.6125901 -0.7297416 -0.4308606 0.04417595 -0.9013366 1448220 female
-1.530098 0.8261671 -0.7805303 0.8207785 0.2133167 -0.5299231 5459531 female
-1.614057 0.1802659 -0.5454259 -0.2542625 0.1950305 0.9472665 10332079 female
-1.578959 0.6851795 -0.6875669 0.6245342 0.05173716 0.7792819 13350311 female
-1.528327 -0.02480667 -1.041343 -0.9515744 0.1633921 -0.2604018 16373200 female
-1.377523 -0.6901857 -0.6308175 -0.0576305 0.7687647 0.6369298 12953244 female
-1.744333 -0.2747258 -0.7127643 0.250748 -0.2233419 0.9419362 1776155 female
-1.391888 -0.3307951 -0.6647199 0.8318215 0.5406172 -0.1257217 2368805 female
-1.554081 0.03156333 -0.8496979 0.6886634 -0.2695782 -0.673105 3158584 female
-1.500531 0.5655745 -0.5861023 0.9043869 0.3196742 0.282653 12039863 female
-1.520039 0.2756502 -0.7148226 0.8657545 -0.05411382 -0.4975348 7960197 female
-1.669332 0.01446066 -0.5749794 -0.8800896 -0.02718878 0.4740285 2500910 female
-1.639987 0.6070971 -0.8014159 -0.7361892 0.5863511 -0.3379613 16571595 female
-1.733629 0.09389818 -0.717883 -0.9608158 -0.05074745 0.2725026 13685731 female
-1.445091 -0.3372522 -0.7114143 0.008616915 0.3469152 -0.9378569 2171174 female
-1.53756 0.03639032 -0.8316471 0.7760403 -0.3086657 -0.5499881 2764594 female
-1.502982 -0.1798651 -0.5680426 0.4793204 -0.09704836 0.8722578 1382685 female
-1.342134 -0.6936566 -0.7267219 -0.3861636 -0.7795388 -0.4931501 1051664 female
-1.404719 -0.3165192 -0.6703897 0.7447745 0.5958076 -0.3005401 2698281 female
-1.724934 -0.2908791 -0.788591 0.9330149 -0.2917944 -0.2105688 1580065 female
-1.693025 0.278034 -0.3141375 0.2451053 0.2748207 0.9297296 11120308 female
-1.745793 0.2166253 -0.7730874 -0.9264062 0.1609026 -0.3404142 11910091 female
-1.36797 -0.7219973 -0.6008214 0.6140532 -0.5153314 0.5978062 10849669 female
-1.592905 0.8334388 -0.6586704 0.2074658 0.2533266 0.9448723 2170401 female
-1.716989 0.4124105 -0.612577 -0.7988607 -0.5193819 0.3034206 5392727 female
-1.661296 -0.06346333 -0.5981805 -0.9248645 -0.3039927 0.2285042 2434342 female
-1.570598 0.6553345 -0.6834524 0.3146277 0.5848176 0.7476615 11245705 female
-1.730562 0.08348347 -0.8520083 -0.7046384 0.2301884 -0.6711914 1052177 female
-1.697073 0.1025081 -0.6011066 -0.6409852 -0.2831065 0.7134344 13159896 female
-1.634763 0.480979 -0.5661757 -0.1903182 0.06793292 0.9793692 13026767 female
-1.644676 -0.05438345 -0.6776885 -0.6964071 -0.2222708 -0.6823584 2698288 female
