# .PCD v0.7 - Point Cloud Data file format
VERSION 0.7
FIELDS x y z normal_x normal_y normal_z rgb label
SIZE 4 4 4 4 4 4 4 4
TYPE F F F F F F U U
COUNT 1 1 1 1 1 1 1 1
WIDTH 171
HEIGHT 1
VIEWPOINT 0 0 0 1 0 0 0
POINTS 171
DATA ascii
-3.075387 -0.1238303 -0.466366 -0.8035054 -0.1615175 0.5729669 14079966 female
-3.173967 0.03117023 -0.5034841 0.03103072 -0.6115385 -0.790606 1579291 female
-3.010371 0.8005443 -0.2869023 0.205126 -0.4277052 0.8803361 9734788 female
-3.085129 -0.1203338 -0.4816799 -0.9111698 -0.1529674 0.3825841 2106409 female
-3.242052 0.01628134 -0.3298416 -0.7032446 -0.06311627 0.7081409 2040359 female
-3.005334 0.564735 -0.5787157 -0.3186615 0.03880163 -0.9470741 11646400 female
-2.921185 0.4434563 -0.5466409 0.7671781 -0.1982079 0.6100422 15199223 female
-2.997174 0.3847196 -0.3490289 0.687831 0.06069229 0.723329 5656411 female
-3.012848 0.5708295 -0.3672831 0.6593246 0.3523791 0.6641687 15725309 female
-3.214238 0.6197274 -0.3951595 -0.7633761 0.5613447 -0.3196079 16054524 female
-3.001449 0.5728644 -0.5788176 -0.2826548 0.1551162 -0.9465967 14739183 female
-3.000623 -0.2191181 -0.5729306 0.2641978 -0.02427895 -0.9641629 1842463 female
-3.184441 -0.3219705 -0.4069288 0.8144849 -0.4744177 0.3339793 1644825 female
-2.931066 0.1042422 -0.476398 0.9284158 0.1676652 0.3315606 12567760 female
-3.245286 -0.09718487 -0.3525729 -0.8040549 -0.1259718 0.5810567 2170657 female
-3.267456 -0.2536035 -0.4043478 -0.9571928 0.19825 0.2109003 1841956 female
-3.266758 -0.4961933 -0.4248999 0.1592058 -0.3062913 0.9385303 2631470 female
-3.023224 -0.1297908 -0.4295728 -0.2465999 -0.1948916 0.9493186 2171172 female
-3.064657 0.07670251 -0.3544454 0.4279279 -0.5641237 0.7061459 12238802 female
-2.953742 0.7651132 -0.3481776 0.9861649 -0.08244646 0.1438105 16309454 female
-3.340126 0.3177001 -0.3744632 -0.8739142 -0.003129924 -0.4860701 13817312 female
-2.986444 0.4151312 -0.5608803 -0.7277805 -0.3133783 0.6100243 1184015 female
-2.918859 0.04062972 -0.4988392 0.9990347 0.03045759 0.03165447 1775387 female
-3.244889 -0.1761269 -0.4478792 -0.7421134 0.02775916 -0.6696993 2499878 female
-3.166541 -0.2348684 -0.3484626 0.4371245 -0.3072801 0.8452817 2697515 female
-2.982035 0.3176256 -0.6095749 -0.9618427 -0.2513235 -0.1081444 9473689 female
-3.028196 -0.1523222 -0.5816147 -0.1816118 -0.1141147 -0.9767267 2171945 female
-3.294849 -0.5397496 -0.4402501 -0.4700785 -0.2119328 0.8568025 2170913 female
-3.146721 0.6337181 -0.3262487 0.2656783 0.6591756 0.7034932 11180953 female
-3.06384 -0.324641 -0.57363 -0.7486379 0.2575354 -0.6109147 2172459 female
-2.923695 -0.7208412 -0.4682444 0.01878302 -0.996947 0.07578862 921102 female
-3.064408 0.1717806 -0.3088536 0.2067966 -0.2754895 0.9387974 13685481 female
-3.009023 -0.1520098 -0.5823775 0.1046146 -0.1227965 -0.9869026 2171430 female
-3.002618 0.236196 -0.5870317 0.3184102 0.4163644 -0.8516194 12304337 female
-3.040793 0.6877726 -0.3391496 -0.1194296 -0.5828383 0.8037636 16508372 female
-3.278524 -0.06916381 -0.2649989 -0.5566168 -0.8173295 0.1488291 2039583 female
-3.286746 -0.3423787 -0.4853841 -0.6056197 0.375498 -0.7015883 2499878 female
-2.940911 0.458073 -0.5269948 0.2999941 -0.371574 0.878599 14870265 female
-3.224114 -0.06468792 -0.3229098 -0.5915605 -0.1470615 0.7927352 2170913 female
-3.077369 0.3796322 -0.3056402 0.1567005 -0.1307922 0.9789476 13224665 female
-3.106422 0.3009839 -0.3093251 -0.08253556 0.02656902 0.9962339 9210773 female
-3.082909 0.323808 -0.3066949 -0.03608675 -0.04333438 0.9984087 3880507 female
-2.949259 0.2526106 -0.4267343 0.974053 0.08761128 0.2086744 14805746 female
-3.030271 -0.476384 -0.5011513 0.03986857 -0.1282356 0.9909421 2301731 female
-2.932478 0.03103231 -0.4484567 0.8642532 0.05244751 0.5003156 2434605 female
-3.020157 0.6532323 -0.3785748 0.8969507 -0.2227499 0.3819189 16773346 female
-2.94998 0.1129031 -0.5783789 0.7744068 0.147098 -0.6153506 11645625 female
-2.893332 0.3265599 -0.5945485 0.7990214 0.3461713 0.4916607 3684417 female
-3.050037 -0.0678198 -0.580807 -0.4465024 -0.1065238 -0.888419 2171944 female
-3.067276 -0.3431719 -0.5765317 -0.755614 0.2145015 -0.6188995 2237738 female
-3.204325 0.6305639 -0.3278611 -0.5147138 0.7726429 0.3716082 14212323 female
-2.970371 -0.1927321 -0.4527016 0.5881027 -0.2181408 0.778813 2106152 female
-3.299091 0.1754199 -0.2902325 0.3464932 0.1915625 0.9182844 15660798 female
-3.027494 -0.6779209 -0.5663642 0.2915359 0.05476439 -0.9549909 5920082 female
-3.086248 0.09611094 -0.6193237 -0.2519072 -0.03788557 -0.9670095 2500910 female
-3.01706 0.6460343 -0.5293441 -0.002160479 0.7538369 -0.657058 13948130 female
-2.966733 0.3226961 -0.5799252 -0.4595739 -0.205318 0.8640812 8290442 female
-3.217527 0.4440025 -0.3419759 0.8974069 -0.4249882 -0.1185154 986383 female
-3.130502 0.05767787 -0.2998462 0.3649729 0.07502027 0.9279907 3092791 female
-3.178323 0.6366826 -0.3220797 -0.05978469 0.824158 0.5631956 15001319 female
-2.917697 0.4032009 -0.5641968 0.8140393 -0.145069 0.562401 15197175 female
-2.932927 0.2322681 -0.5691535 -0.6337515 -0.1773038 0.7529426 9145239 female
-2.929985 -0.01095235 -0.5484393 0.9094157 -0.1073363 -0.4017985 2171945 female
-3.184196 -0.2888538 -0.4669184 0.5288497 -0.1348022 -0.8379417 2171170 female
-3.219057 -0.7175664 -0.3260362 0.329481 0.007210021 0.9441347 16242638 female
-2.909904 0.3847383 -0.5910906 0.9637589 0.06371433 0.2590545 3749954 female
-2.956056 0.4005959 -0.6345159 -0.03633692 0.1865347 -0.9817761 15067126 female
-3.137733 0.2029529 -0.5720593 -0.5408421 0.3940214 -0.7431265 8884636 female
-2.999394 0.8490142 -0.4455812 0.5297941 0.1476077 -0.8351828 2565671 female
-3.132418 0.2945863 -0.3112538 -0.1640495 0.06194542 0.9845052 15134462 female
-3.324791 0.09051766 -0.2929162 -0.8532277 -0.118421 0.5079163 5396314 female
-3.225596 0.08460999 -0.5247826 -0.6107543 -0.2293813 -0.7578677 2699321 female
-3.04353 0.6948606 -0.4432189 0.421351 0.4152753 -0.8062319 14204849 female
-2.993638 0.7321715 -0.4037511 0.5659112 -0.4518681 -0.6896083 13943731 female
-3.189315 0.399782 -0.4706257 -0.7749163 -0.07164503 -0.6279902 9012894 female
-3.208482 -0.3934562 -0.4855447 0.8543056 -0.0829592 -0.5131079 2105384 female
-3.250072 0.01378257 -0.3395172 -0.7772455 -0.07019336 0.6252699 2236706 female
-3.261166 0.3505374 -0.3577231 0.9385908 -0.339922 0.05916363 14146023 female
-3.151573 0.171196 -0.5748432 -0.600947 0.264382 -0.7542976 14606323 female
-2.951803 0.2478934 -0.414584 0.9640144 0.06681293 0.2573177 15726591 female
-3.07235 0.6878197 -0.4522724 -0.1796937 0.6982981 -0.6928853 16309455 female
-3.013171 -0.1119981 -0.4247564 -0.1197184 -0.2033179 0.9717661 2170914 female
-3.314076 -0.7151329 -0.410615 -0.807138 -0.5902032 0.01373039 1184013 female
-3.200184 -0.3501169 -0.4753614 0.8241199 -0.02873003 -0.5656862 2170913 female
-3.17768 -0.005394723 -0.2959603 -0.1575651 -0.06871429 0.9851151 3816509 female
-3.276755 -0.2781836 -0.4391152 -0.8604445 0.4330016 -0.2685977 2236708 female
-2.987017 0.5755701 -0.5819435 -0.2613642 0.2328472 -0.9367342 13225175 female
-3.035534 -0.1133527 -0.5838057 -0.2798698 -0.06463514 -0.9578597 2499625 female
-3.103065 0.2958231 -0.3089882 -0.07205746 0.03716826 0.9967077 14344687 female
-3.18903 0.6505198 -0.3675629 -0.6181601 0.7860093 0.008214051 14674419 female
-3.226425 0.6090772 -0.378128 -0.8515481 0.4795813 -0.2118196 15725567 female
-3.20917 0.4714661 -0.3432058 0.8646938 -0.4285991 -0.2619302 526600 female
-3.076115 -0.3153716 -0.5306572 -0.9905317 0.1365022 -0.01463695 2170145 female
-3.290955 -0.6680816 -0.4314999 -0.4355506 0.6665017 0.6050382 16179414 female
-2.950467 0.4350349 -0.5351851 0.01504778 -0.3548519 0.9348014 14803440 female
-3.29606 0.1656497 -0.2895039 0.4366933 0.2039359 0.8761901 10724791 female
-2.960932 -0.2282232 -0.5420062 0.8943018 -0.09892019 -0.4363934 1841948 female
-3.019549 0.3199542 -0.5614716 0.2479346 0.1630764 -0.9549526 14540011 female
-3.284607 -0.6881134 -0.5269152 0.7631329 -0.2525982 -0.5948297 2959141 female
-3.134842 0.2661438 -0.5361928 -0.5349868 0.4785818 -0.6962389 14609399 female
-3.162837 0.3991982 -0.3144459 -0.5313699 -0.4081899 0.742312 15724543 female
-3.119153 0.8614413 -0.3791372 -0.9514197 0.2822317 0.1230688 3025958 female
-3.004913 0.8178482 -0.2804174 0.1554865 -0.003730789 0.987831 12891306 female
-3.260423 0.001591851 -0.4373136 -0.8754532 -0.2001809 -0.4398969 2434085 female
-3.257986 -0.7105678 -0.3469457 0.1858976 0.9391604 0.2888248 10457231 female
-3.138977 -0.1264821 -0.3283228 0.5690446 -0.3066 0.7630102 2369065 female
-3.111424 0.1435493 -0.3102713 0.1538925 -0.2397866 0.9585508 13027797 female
-3.08448 0.590794 -0.5462106 -0.5353733 0.4084758 -0.7392719 15067638 female
-3.05112 -0.3996384 -0.4960135 -0.3156296 -0.04847848 0.9476433 1776155 female
-2.957336 0.4536443 -0.3516021 0.5108427 -0.0008838926 0.8596737 14609916 female
-3.180193 -0.0490648 -0.3004869 -0.1534911 -0.1455434 0.9773728 2697001 female
-3.262699 -0.506677 -0.4315271 0.3387682 -0.3127027 0.8873856 2170146 female
-2.946476 0.2765686 -0.4742652 0.9942067 0.1051888 -0.02209987 14606311 female
-3.094343 -0.06537439 -0.4117974 0.9305644 -0.265091 -0.2525405 1776416 female
-2.950655 0.1564319 -0.5689061 0.7896374 0.1328828 -0.5990117 2302755 female
-3.304804 -0.3669224 -0.476443 -0.8607888 0.2556801 -0.44008 2105121 female
-3.031254 0.7311359 -0.295005 -0.2135288 -0.3306232 0.9192898 16178637 female
-3.095698 0.4892469 -0.5589895 -0.5125338 -0.03099723 -0.8581074 4737363 female
-2.967122 0.633047 -0.5309843 0.3376321 0.8470746 -0.41045 12896462 female
-3.084667 -0.05760057 -0.4558516 -0.803584 -0.177529 0.5680987 15395821 female
-3.292229 -0.6773245 -0.4229496 -0.412986 0.7211252 0.5562562 15649477 female
-3.008788 0.9032885 -0.3217088 0.1722758 0.8311104 0.5287501 2696225 female
-2.936855 0.03808697 -0.442589 0.8156762 0.07476372 0.5736574 2499625 female
-3.314834 -0.5939996 -0.4805278 -0.9616251 0.05531952 0.268732 1775643 female
-2.984207 0.3702672 -0.5408287 0.648676 -0.07784692 -0.7570729 9869215 female
-2.951958 0.3694889 -0.448169 0.9978043 -0.02609085 0.06087672 11251128 female
-3.0883 0.7317476 -0.4282942 -0.6746795 0.09366274 -0.7321441 2893604 female
-3.314924 0.1002064 -0.2810197 -0.5584626 -0.04157209 0.8284873 14407899 female
-3.14209 0.6493872 -0.3408007 0.01656906 0.6161188 0.7874789 15584961 female
-3.032846 -0.5701615 -0.5129182 -0.3173435 -0.03621893 0.9476188 1777185 female
-3.049363 0.6957363 -0.3368928 -0.2863344 -0.5323929 0.7965993 13943475 female
-3.101626 0.2819034 -0.3079017 -0.06363783 0.08516324 0.9943326 7895943 female
-3.18117 0.04810179 -0.2982959 -0.1965095 0.01932853 0.9803114 3551544 female
-3.278447 -0.4612217 -0.5135732 -0.208731 0.02384374 -0.9776824 2369324 female
-3.055926 0.7172817 -0.3183265 -0.6156038 -0.5890036 0.5235521 13417645 female
-3.235871 0.4110641 -0.3233051 0.7811606 -0.4312951 0.4514119 10659504 female
-3.077432 0.4068852 -0.2790143 0.196922 -0.7582033 0.6215702 13356513 female
-3.09114 0.780052 -0.441375 -0.5576786 -0.418633 -0.7167572 3486769 female
-3.11677 0.8453504 -0.3585286 -0.9403721 0.1220447 0.3174986 2696225 female
-3.04907 -0.6675795 -0.5296711 -0.8522237 0.03888971 0.5217302 1842462 female
-3.111013 0.8685054 -0.4221004 -0.7851406 0.4042116 -0.4692199 5459531 female
-2.931923 0.1899632 -0.49191 0.994674 0.08813209 0.05344446 3684928 female
-3.032748 0.7124578 -0.4342128 0.4238963 0.08096752 -0.9020844 13350311 female
-3.326781 0.08579525 -0.3123142 -0.9341931 -0.009573766 -0.3566394 6382699 female
-2.989217 -0.6430397 -0.5035591 0.6983461 0.610863 0.3730403 2959662 female
-3.151367 -0.2562385 -0.4332616 0.924132 -0.3244143 -0.2018299 2170913 female
-2.984407 -0.4604346 -0.575405 0.8184372 -0.1276759 -0.5602315 1973791 female
-3.270761 0.1184964 -0.4398356 -0.9822342 0.1445617 -0.1196573 7172989 female
-3.02127 0.5863562 -0.5694198 -0.2086732 0.2492605 -0.9456874 14673143 female
-3.113014 0.3336308 -0.5330477 -0.7112281 -0.03517301 -0.7020808 14605809 female
-3.008821 0.06030519 -0.4073434 0.09910719 -0.01361915 0.9949836 2697260 female
-3.11697 0.6038365 -0.3161235 0.3582739 0.4278628 0.8298032 12961745 female
-3.206194 0.1892206 -0.3178504 -0.4978038 0.1298173 0.857519 7698301 female
-3.063961 -0.2290952 -0.5518938 -0.713422 -0.03591606 -0.6998136 2171945 female
-3.267937 0.07393569 -0.464447 -0.9211713 -0.1346655 -0.3651146 2631721 female
-2.971062 -0.1515782 -0.5648958 0.6458084 -0.1351017 -0.7514513 1908257 female
-3.018738 -0.6803311 -0.4905606 -0.6822168 0.04602678 0.7296997 9077376 female
-3.03334 -0.3551616 -0.5982429 -0.1523089 0.1628941 -0.9748167 2238505 female
-3.22363 -0.2511727 -0.4662172 -0.3481188 0.1217009 -0.9295172 2039585 female
-2.862936 0.1477709 -0.5878659 0.5825999 -0.04602133 -0.8114551 4209473 female
-3.042582 0.2339312 -0.3102 0.3467953 0.01922684 0.9377438 7829122 female
-2.886215 -0.7146139 -0.4711628 0.1948956 -0.9788623 -0.06200215 2893092 female
-2.960697 0.8431913 -0.3989311 0.9051996 0.03526583 -0.423521 2698281 female
-2.916008 0.4561222 -0.3965052 0.9416575 0.07122263 0.3289507 11513533 female
-2.982515 -0.01364663 -0.4095926 0.3100574 -0.0909356 0.9463589 2434342 female
-3.028802 0.6804502 -0.4394691 0.7573535 0.379747 -0.5312324 12165524 female
-3.149555 0.1074325 -0.3016593 0.1696569 0.1538448 0.9734209 13751010 female
-3.069931 0.0471196 -0.4053023 0.4895274 -0.8379706 0.2411811 1842207 female
-2.938315 0.5620599 -0.4607621 0.8190121 0.07508621 0.568842 12568269 female
-3.0796 -0.09881531 -0.4647719 -0.817983 -0.1940419 0.541527 5723226 female
-3.11855 0.5931118 -0.5029945 -0.7350467 0.3729356 -0.5662378 15725823 female
