# .PCD v0.7 - Point Cloud Data file format
VERSION 0.7
FIELDS x y z normal_x normal_y normal_z rgb label
SIZE 4 4 4 4 4 4 4 4
TYPE F F F F F F U U
COUNT 1 1 1 1 1 1 1 1
WIDTH 170
HEIGHT 1
VIEWPOINT 0 0 0 1 0 0 0
POINTS 170
DATA ascii
-2.199816 -0.08767751 -0.4937081 -0.06820504 -0.3035353 -0.950376 1709850 female
-2.11754 -0.2002411 -0.5728576 0.3736404 -0.08509651 0.923662 2631464 female
-2.230401 0.8072289 -0.4490093 -0.8767709 0.3591301 -0.3198411 14140342 female
-2.239105 -0.1384133 -0.4679164 -0.2256833 -0.2626016 -0.9381405 7894910 female
-2.263393 -0.03911937 -0.67686 -0.6823098 -0.1400613 -0.7175208 4145220 female
-2.059128 0.573797 -0.3676917 0.3147541 0.7326959 0.6033959 11909053 female
-2.313943 -0.3282865 -0.324035 -0.7481576 0.1014477 0.6557199 2105892 female
-2.267748 0.4035923 -0.444313 -0.9518455 -0.1949534 0.2366077 5197657 female
-2.257487 0.486007 -0.4743514 -0.6527256 0.5934237 0.4709539 15660798 female
-2.130902 0.5887945 -0.6570255 0.6155637 0.4722115 -0.6309498 15857403 female
-2.027161 0.5476327 -0.3697737 0.7683302 0.5297222 0.3592536 12566727 female
-2.188701 -0.1425776 -0.3286585 0.4667497 -0.187022 0.8643885 2170145 female
-2.113651 -0.3334909 -0.6244859 -0.1524164 -0.6443691 0.7493715 2106151 female
-2.137248 0.0681849 -0.3341623 0.06834509 0.1968039 0.9780579 5330009 female
-2.212135 -0.1147612 -0.6966848 -0.4074002 -0.1922201 -0.8927915 2170915 female
-2.158024 -0.2525159 -0.6959265 -0.4682846 -0.1326175 -0.8735685 2170913 female
-2.02579 -0.4726289 -0.7480662 -0.7587844 -0.4959309 -0.4222543 1777188 female
-2.288763 -0.1306091 -0.4420843 -0.6918718 -0.04378973 -0.7206913 1974307 female
-2.304661 0.09811619 -0.5200575 -0.9421451 -0.3319132 -0.04686409 14672368 female
-2.193262 0.7309633 -0.3754918 -0.324068 -0.1643104 0.9316555 16571342 female
-2.30449 0.3666208 -0.8184506 -0.2081015 -0.0851997 -0.9743894 5065039 female
-2.073002 0.5035262 -0.3081493 -0.3566496 0.1604678 0.9203538 14607336 female
-2.208903 0.09967115 -0.3713112 -0.6414741 0.4122131 0.6469862 8817817 female
-2.080433 -0.2185802 -0.6006179 0.7968836 0.1738755 0.5785704 2368292 female
-2.155839 -0.3187675 -0.6722364 -0.7601572 -0.4544493 -0.4643671 1842980 female
-2.031913 0.3751417 -0.3908599 -0.7620016 -0.3782591 -0.5256174 724242 female
-2.344732 -0.5874238 -0.3104072 -0.6623304 0.1897438 0.7247866 2039584 female
-2.056856 -0.430808 -0.6948605 -0.6179098 -0.6475541 0.4459384 2170403 female
-2.179842 0.6281282 -0.5210242 -0.8427323 0.381561 -0.3797545 14928826 female
-2.234091 -0.3190177 -0.3937259 0.7685035 -0.04501322 -0.6382604 2499878 female
-2.429426 -0.7019729 -0.3097282 -0.2222 -0.8132868 -0.5377656 8681844 female
-2.31724 0.1645476 -0.5408417 -0.9906557 -0.05432516 -0.1251006 12503004 female
-2.339781 -0.6076618 -0.3041236 -0.2925119 0.1213813 0.948527 2170913 female
-2.0734 0.2445303 -0.4195365 0.8665504 0.1108116 0.4866323 15000559 female
-2.190587 0.6276683 -0.4840272 -0.9953265 0.001910571 -0.09654764 16774119 female
-2.077809 0.588675 -0.5628534 0.8996239 0.3824141 -0.2107992 15528956 female
-2.039068 -0.4264627 -0.7591217 -0.5620652 -0.2242199 -0.7961207 1973798 female
-2.310022 -0.3145379 -0.3196317 -0.6198382 0.05646478 0.7826955 2170913 female
-2.216543 -0.07339737 -0.7012279 -0.3529941 -0.1521856 -0.9231656 2171430 female
-2.274615 0.3523085 -0.5882499 -0.8851059 0.1034599 -0.453744 4998989 female
-2.274607 0.2614488 -0.6131415 -0.8286247 0.2070515 -0.5201064 14870771 female
-2.288982 0.3305379 -0.5612847 -0.9262897 0.1245089 -0.3556471 8224137 female
-2.259382 0.2395202 -0.4154652 -0.6192824 0.1247667 0.7751919 15001587 female
-2.338624 -0.537595 -0.3476796 -0.9501229 0.09565235 -0.2968452 1973540 female
-2.224499 0.0408896 -0.3456324 -0.4833549 0.3503216 0.8022736 4012610 female
-2.15272 0.6191433 -0.4284746 -0.3411851 -0.1870346 0.9212007 16773089 female
-2.163681 -0.000579935 -0.3196339 0.0565715 0.05940301 0.9966298 2236706 female
-1.965763 0.2340044 -0.3711096 -0.9710434 -0.2314314 0.05928068 15199223 female
-2.072829 0.007375766 -0.3625848 0.7180936 -0.1709044 0.6746356 2368296 female
-2.237229 -0.3680375 -0.4005063 0.6619079 -0.02443635 -0.7491868 2172457 female
-2.188798 0.6261647 -0.6035725 -0.4132332 0.9001872 0.1374823 12501449 female
-2.287919 -0.1898927 -0.3201889 -0.3604043 0.09514164 0.9279315 1908257 female
-2.555853 0.3488749 -0.692052 -0.5776128 0.2396293 -0.7803469 4537660 female
-2.318938 -0.6995503 -0.3111598 0.6596489 0.045815 0.7501762 13151655 female
-2.024083 0.03880501 -0.4519826 0.979776 -0.1598742 0.12033 2500910 female
-2.036288 0.5765663 -0.4052258 0.7683073 0.6069885 0.2031471 13948130 female
-1.997949 0.3100297 -0.3963335 -0.7848104 -0.364446 -0.5012502 8947342 female
-2.231751 0.4006455 -0.731289 -0.3059388 -0.5055991 0.8067037 7039343 female
-2.300158 -0.003963297 -0.6056311 -0.9962662 -0.08466794 0.01687864 2698032 female
-2.082842 0.63063 -0.5079319 0.8043966 0.5382825 -0.2513921 15650496 female
-2.319993 -0.3387762 -0.331741 -0.8880455 0.09920572 0.4489248 2303015 female
-1.956837 0.2298806 -0.3987942 -0.6961852 -0.3564228 -0.6231284 856084 female
-2.198822 -0.05636157 -0.3162137 -0.002183494 -0.002597109 0.9999942 1908259 female
-2.018425 -0.3128572 -0.7101095 0.6419274 0.7245877 -0.2508026 2303016 female
-1.853102 -0.6053837 -0.8037459 0.313832 0.6241801 -0.7154779 16438477 female
-1.928713 0.319982 -0.4018871 0.7599663 0.2011753 -0.618045 6841454 female
-1.943549 0.3652842 -0.3974109 0.8403026 0.3105524 -0.4443521 13948904 female
-2.038314 0.1496453 -0.5216191 0.9192862 0.2979772 -0.2571429 8884636 female
-2.059371 0.7554445 -0.4130099 0.8059326 -0.3112214 0.503601 3223593 female
-2.279311 0.2169182 -0.6248076 -0.8061515 0.2714926 -0.5257486 13686763 female
-2.578022 0.3282993 -0.7030227 -0.363702 -0.110087 -0.9249874 10062729 female
-2.111171 0.03191958 -0.6833505 0.6136445 -0.1601414 -0.7731721 2697257 female
-2.090777 0.6604012 -0.4841296 0.9552516 0.2069476 -0.211346 16177615 female
-2.207031 0.6897147 -0.3974737 -0.4957598 -0.3872585 0.7773372 16443089 female
-2.074788 0.2099243 -0.5619961 0.8596502 0.409775 -0.3050999 9343905 female
-1.982681 -0.4162872 -0.6680099 0.4424345 -0.1263261 0.8878589 1776161 female
-2.17457 0.465066 -0.6832228 0.246894 -0.7170123 0.6518717 526344 female
-2.219251 0.520954 -0.6367742 -0.645708 -0.659131 -0.3854965 855309 female
-2.033946 0.1168941 -0.5325221 0.93893 0.1621826 -0.303492 14606323 female
-2.27291 0.2004416 -0.4210347 -0.7064101 0.1090755 0.6993479 15200255 female
-2.086342 0.6400036 -0.457762 0.8449509 0.4616497 0.2700696 15519939 female
-2.273215 -0.1114235 -0.4586308 -0.6015501 -0.1272368 -0.7886369 2236194 female
-1.991449 -0.7190883 -0.8043883 0.2473843 -0.9464489 -0.2074494 1249811 female
-2.017271 -0.3770348 -0.6494913 0.2895558 -0.1133626 0.9504243 1973793 female
-2.288919 -0.03369303 -0.5823181 -0.9321113 -0.2050153 0.2985585 2369065 female
-2.174464 -0.2505631 -0.6863781 -0.5854868 -0.2557475 -0.7692844 2301475 female
-2.043919 0.4871666 -0.3045149 0.06518964 0.1391149 0.9881282 9145745 female
-2.127329 -0.1094498 -0.3934036 0.8759864 -0.4705163 0.1061235 2434601 female
-2.292195 0.2595309 -0.5741834 -0.9092388 0.2207828 -0.352902 5329244 female
-2.162062 0.6357624 -0.5730349 -0.4246773 0.8946545 -0.1387177 14599093 female
-2.132583 0.5956074 -0.6526107 0.5622091 0.5378938 -0.628165 14673647 female
-2.230243 0.5221434 -0.6539455 -0.7551908 -0.5438118 0.3659994 13289943 female
-2.123839 -0.03507606 -0.3330595 0.4831614 -0.1971084 0.8530552 1776155 female
-1.956671 -0.6506419 -0.7678905 -0.8233434 0.5654468 -0.04874029 16707812 female
-2.326854 -0.2994049 -0.3749523 -0.9306477 -0.179736 -0.3187318 2170403 female
-2.554877 0.3555584 -0.6816061 -0.0005397265 0.9884508 0.1515412 16241614 female
-2.284399 -0.2014442 -0.3175583 -0.2886225 0.07704778 0.9543378 1908257 female
-2.093586 0.1818791 -0.3644819 0.4640249 0.298386 0.8340544 7038569 female
-1.850995 -0.6416425 -0.7948706 0.5144826 -0.7964286 -0.3178195 526344 female
-2.035714 0.3708149 -0.4455648 0.8964204 -0.4059926 0.1777652 9802912 female
-2.281509 0.4153579 -0.6124532 -0.6380359 -0.3153219 -0.7024829 6908789 female
-2.102197 0.8276474 -0.5145593 0.2030731 0.3911637 -0.8976371 3553333 female
-2.233086 0.695575 -0.4627404 -0.8891725 -0.2146249 -0.4041143 15653577 female
-2.164292 -0.02271366 -0.7093015 0.2465459 -0.05668411 -0.967472 2170406 female
-2.251821 0.03823828 -0.4862053 -0.7109648 -0.6594703 0.2441887 2237224 female
-2.224021 -0.2035034 -0.6131676 -0.8207227 -0.5059974 0.265294 2237222 female
-2.287675 0.136529 -0.6405972 -0.8784419 0.03191518 -0.4767821 14081518 female
-2.032459 0.4805002 -0.5175719 0.8130381 0.2570791 -0.5223786 15726591 female
-2.30835 -0.4402698 -0.400564 -0.6124562 -0.04648538 -0.7891365 1579291 female
-2.272565 0.3961486 -0.4685635 -0.9237229 -0.1907711 0.3321784 15001341 female
-2.19478 -0.1011536 -0.7033252 -0.2255495 -0.1441938 -0.9635017 1841948 female
-2.028286 -0.465312 -0.7067823 -0.5929314 -0.6428546 0.4849434 2039073 female
-2.233809 0.1800498 -0.3894083 -0.5439084 0.1003964 0.8331171 13819374 female
-2.230657 -0.1299348 -0.5654329 -0.5629864 -0.4314944 0.7048822 1973536 female
-2.108338 0.1135515 -0.3467163 0.3035521 0.1371781 0.9428883 2302755 female
-2.031316 -0.3178352 -0.6506057 0.7338474 0.4019786 0.5476141 2236706 female
-2.203001 0.7092923 -0.4962882 -0.3989124 -0.2441585 -0.8838866 15128519 female
-2.010572 0.4511715 -0.4424489 0.9798806 -0.186833 0.07019647 11186105 female
-2.060997 0.5516434 -0.3393592 0.170789 0.7742482 0.6094019 11317167 female
-2.208112 -0.02838309 -0.5045779 -0.2618671 -0.1022773 -0.9596692 789260 female
-1.966548 -0.6647953 -0.7617675 -0.7851743 0.6034622 0.1390496 16377304 female
-2.174927 0.873853 -0.4264295 -0.3485763 0.9349918 0.06545874 2696225 female
-2.230347 0.05224041 -0.3555316 -0.5686788 0.4084989 0.7139559 2960431 female
-1.980031 -0.5359841 -0.7568464 -0.8096609 -0.5142965 -0.2827517 2434597 female
-2.110606 0.3368748 -0.3822886 0.2860155 -0.1147517 0.9513292 14803434 female
-2.240425 0.316558 -0.411624 -0.5412763 0.09963677 0.8349206 6512230 female
-2.088822 0.6832838 -0.4682991 0.9848948 -0.1722479 -0.01769394 3025446 female
-2.58904 0.3277369 -0.697622 -0.4790839 0.2117697 -0.8518405 4210496 female
-2.237417 0.5208993 -0.6265529 -0.9008793 -0.2651388 -0.3436828 2697773 female
-2.348891 -0.5737149 -0.3295653 -0.9619213 0.2714716 -0.03178773 2301989 female
-2.194507 0.6664932 -0.4793151 -0.7986194 -0.262389 -0.5416263 14600893 female
-2.289187 0.2746993 -0.5748842 -0.9165174 0.1822868 -0.356044 14870521 female
-2.298352 0.002367455 -0.5898467 -0.9801785 -0.07264584 0.1843171 2633522 female
-1.952875 -0.4139021 -0.7441324 0.8255641 0.4197459 -0.3771702 2631722 female
-2.173499 0.7620263 -0.510955 -0.5835862 0.07581528 -0.8085043 12888995 female
-2.256521 0.4060701 -0.765826 -0.9152268 0.0775203 0.3954118 8685458 female
-2.265323 0.5062795 -0.5974627 -0.8651296 0.3375129 -0.3709931 14014430 female
-2.065336 0.7223856 -0.4613907 0.7973634 -0.5943755 -0.1045436 1710362 female
-2.127971 0.819398 -0.5193577 -0.03602335 0.305456 -0.9515246 2696998 female
-2.338785 -0.6606467 -0.354458 -0.1516373 -0.00854453 -0.9883993 1974308 female
-2.057401 0.8162896 -0.493454 0.7839993 0.283814 -0.5520821 5459531 female
-2.062791 0.3032322 -0.4329798 0.8522221 -0.3235768 0.4111149 15065845 female
-2.113471 0.6736164 -0.4222554 0.6108218 -0.2933702 0.7354118 7628130 female
-2.596848 0.2997669 -0.711055 0.07620001 -0.8737965 -0.4802845 1382685 female
-2.427841 -0.6805518 -0.2510733 0.07476126 0.900181 0.4290513 14401462 female
-2.070623 -0.3085896 -0.6107947 0.4510206 -0.2456111 0.8580534 1776929 female
-2.281854 -0.5248399 -0.3038724 0.401636 -0.1911481 0.8956288 2171429 female
-2.1512 0.1200733 -0.6946211 0.2644174 0.1223756 -0.9566126 9475743 female
-2.096713 0.607007 -0.4088244 -0.09122568 0.653575 0.7513438 15453113 female
-2.088436 0.2920933 -0.5444388 0.8563198 -0.1597681 -0.4911115 12304332 female
-2.225177 0.03045288 -0.3414997 -0.4521725 0.3206216 0.8323111 3748921 female
-2.113106 0.6017022 -0.411205 -0.2159091 0.5202348 0.8262802 16440520 female
-2.294904 0.1619425 -0.6173866 -0.9081194 0.07827442 -0.4113299 15463163 female
-2.200982 -0.22074 -0.4168626 0.7839823 -0.4261782 -0.4513799 2171945 female
-2.12105 0.1163334 -0.6839268 0.4697903 0.124628 -0.8739365 12502225 female
-2.181387 -0.08913237 -0.3201219 0.2586455 -0.1499486 0.9542631 1974307 female
-2.364545 -0.7136503 -0.3430473 -0.5744162 -0.6183888 -0.5363221 1051664 female
-2.252352 -0.4681358 -0.3084132 0.6105407 -0.1828717 0.7705829 1908257 female
-2.063033 -0.2587532 -0.6482648 0.9314489 0.3468787 -0.1099005 2565676 female
-1.919677 0.1812428 -0.320308 0.06654552 0.01661617 0.997645 12041418 female
-2.310119 0.2332229 -0.5170664 -0.9850346 0.167674 0.03990348 6908787 female
-2.439763 -0.7033442 -0.2325247 -0.1319091 -0.9351523 0.3287707 4276543 female
-2.135421 0.7981061 -0.3617183 0.07883884 -0.05638167 0.9952917 2895148 female
-2.248305 0.3713424 -0.4272241 -0.8386918 -0.3115115 0.4467175 15200255 female
-2.273068 -0.09040858 -0.328497 -0.4790479 0.1507916 0.8647398 2169889 female
-2.206735 0.6646149 -0.4605103 -0.5766404 -0.7047026 -0.4133765 14140848 female
-2.259697 0.01992223 -0.6870559 -0.6121811 -0.01898801 -0.7904896 2303530 female
-2.262209 0.04922995 -0.4822405 -0.7071104 -0.6388656 0.3030604 11843013 female
-2.132806 0.4445079 -0.3551514 -0.06344034 -0.4040453 0.9125364 10395812 female
-2.205581 -0.05461575 -0.5011024 -0.1989917 -0.1741878 -0.9643967 855309 female
