# .PCD v0.7 - Point Cloud Data file format
VERSION 0.7
FIELDS x y z normal_x normal_y normal_z rgb label
SIZE 4 4 4 4 4 4 4 4
TYPE F F F F F F U U
COUNT 1 1 1 1 1 1 1 1
WIDTH 170
HEIGHT 1
VIEWPOINT 0 0 0 1 0 0 0
POINTS 170
DATA ascii
-2.472677 -0.03091312 -0.4042314 -0.1991912 -0.1252044 -0.9719294 723723 female
-2.413313 0.01117797 -0.4618796 0.3920476 -0.856607 0.3354447 1775387 female
-2.53799 0.7095814 -0.4235466 -0.356228 -0.660101 -0.6613383 14206127 female
-2.479655 -0.0918778 -0.3880491 -0.3211563 -0.2361752 -0.9171041 14937076 female
-2.595424 0.1203905 -0.5176711 -0.8495847 0.4778968 -0.2232048 12962778 female
-2.479301 0.626866 -0.2930008 -0.6312983 0.7752288 0.02197321 12961232 female
-2.526967 0.4540256 -0.1253378 -0.9745704 0.2239419 0.007910484 7435136 female
-2.583481 0.4761126 -0.4022585 -0.9581857 0.2364453 -0.1611639 7171705 female
-2.536966 0.5500405 -0.4433168 -0.8274487 0.5561206 -0.07783653 11051682 female
-2.346769 0.6040131 -0.4635006 0.9011416 0.4286135 0.06507222 15858175 female
-2.46607 0.6346878 -0.2745311 -0.4323212 0.8939852 0.1178516 13752027 female
-2.389837 -0.2050936 -0.2685075 0.7900889 -0.01264039 0.612862 1907749 female
-2.64804 -0.3190995 -0.4590051 -0.2732461 -0.09178574 0.9575552 1644825 female
-2.485567 0.0777607 -0.2266393 -0.2861883 0.1203989 0.9505789 1051664 female
-2.65993 -0.05478482 -0.5179197 -0.9133707 0.155304 -0.3763438 2170921 female
-2.610565 -0.2791221 -0.5560217 0.5090526 0.1556607 -0.8465431 2171173 female
-2.685384 -0.5605266 -0.5470779 -0.115092 -0.1290598 -0.9849352 1579291 female
-2.477654 -0.1733083 -0.3685877 -0.4797603 -0.1738581 -0.860002 2961461 female
-2.607296 0.2252607 -0.3929968 -0.9835505 0.07722379 0.1632935 9738402 female
-2.54247 0.7775757 -0.3430251 -0.689923 -0.01754754 0.7236699 16571342 female
-2.289606 0.2548579 -0.6238655 -0.8542141 -0.3197629 0.4099633 7763067 female
-2.485799 0.4644041 -0.1943465 -0.3698891 -0.601113 -0.7084104 526346 female
-2.492066 -0.0008980293 -0.2236422 -0.2871442 -0.01361346 0.9577906 2236706 female
-2.561125 -0.2091302 -0.4933788 0.9177013 -0.3796937 -0.116863 2303529 female
-2.692906 -0.2399992 -0.5126632 -0.9048476 0.06402899 -0.4208933 1777187 female
-2.505842 0.3663266 -0.1078979 -0.1914223 -0.6160729 -0.7640757 10592681 female
-2.372234 -0.155472 -0.3029014 0.9946133 -0.05560385 0.08747907 2171945 female
-2.711982 -0.5466868 -0.5368201 -0.7553476 0.0216396 -0.654967 2499627 female
-2.407831 0.6484931 -0.5117612 0.008005262 0.92068 -0.390236 12958907 female
-2.356545 -0.3192843 -0.3363447 0.7559066 0.3840325 -0.5302114 2172459 female
-2.418931 -0.7102181 -0.3076445 -0.2942095 -0.7312508 -0.6153966 8089710 female
-2.588978 0.2154724 -0.4887133 -0.8944483 0.1173878 -0.4314884 4672081 female
-2.375184 -0.1893772 -0.302037 0.9944222 -0.02623805 0.1021568 2303016 female
-2.392504 0.2317436 -0.2652265 0.5518906 0.4047576 0.7291009 11710917 female
-2.495823 0.674848 -0.4249774 -0.7832195 -0.116074 -0.6108143 15782344 female
-2.296041 0.1065811 -0.6740907 -0.7935851 0.5993641 0.1048106 14605287 female
-2.594089 -0.3043939 -0.480811 0.8740601 -0.05346534 0.4828669 2236706 female
-2.520732 0.4848159 -0.1644671 -0.9926093 0.04290337 -0.1135176 6119009 female
-2.647281 -0.02611328 -0.5313846 -0.8402221 0.1634651 -0.5170166 2170913 female
-2.488721 0.3479665 -0.5417249 -0.2108571 0.07149875 -0.9748986 15659774 female
-2.528368 0.2662294 -0.5448024 -0.5030197 0.3287032 -0.7993281 10329509 female
-2.549333 0.3301772 -0.505947 -0.7251457 0.1490693 -0.6722664 14081005 female
-2.577019 0.2156883 -0.3197316 -0.7701052 0.03433743 0.636992 14146800 female
-2.40135 -0.5018438 -0.3452215 -0.8338816 -0.2436161 -0.4952703 1907229 female
-2.552858 0.04871846 -0.2833225 -0.9253079 0.1255965 0.357814 2500910 female
-2.490572 0.6589823 -0.3611075 -0.775485 -0.07307979 0.6271223 16773603 female
-2.44654 0.01815345 -0.2175713 0.05737423 -0.01813994 0.9981879 2302499 female
-2.533785 0.4075077 -0.06166261 -0.8623244 0.469667 -0.189234 11844553 female
-2.366826 -0.03432054 -0.2919098 0.9613506 -0.2153373 0.1715663 2434086 female
-2.349893 -0.3365427 -0.3396263 0.7707842 0.3460549 -0.5349184 2237738 female
-2.363282 0.6073674 -0.5384009 0.7535747 0.5449833 -0.3675846 14738416 female
-2.510101 -0.2096679 -0.3076705 -0.9533802 -0.2781191 -0.1171155 2170401 female
-2.246773 0.1744445 -0.6887996 0.3985032 0.2556854 -0.8808065 9476773 female
-2.327309 -0.6928464 -0.3133319 0.7369764 0.150654 0.6589151 13151655 female
-2.335056 0.1382045 -0.4190768 0.9657949 0.08729297 -0.2441724 14079983 female
-2.53654 0.7700406 -0.3390035 -0.5562688 -0.1361264 0.8197772 16768206 female
-2.508384 0.3306132 -0.0612584 0.4473825 -0.8268952 -0.3407247 7566205 female
-2.398015 0.4893239 -0.5952694 -0.7323608 -0.4415328 -0.5183595 15724535 female
-2.607442 0.1009805 -0.4806214 -0.8663703 0.4723594 0.1621083 2501936 female
-2.4501 0.6079352 -0.5489922 -0.7298369 0.6346699 -0.254032 15790327 female
-2.527428 0.448705 -0.1161471 -0.9588379 0.2745309 0.07254516 14144743 female
-2.569309 0.2929282 -0.01863272 -0.06150635 -0.7835699 -0.6182517 9605783 female
-2.451762 -0.008020769 -0.2185203 0.03230082 -0.05806958 0.9977899 1777187 female
-2.585615 -0.360298 -0.5374919 0.9444488 -0.06748173 -0.3216561 2499878 female
-2.703133 -0.6642377 -0.5502039 0.06101473 0.1655084 -0.9843192 14992835 female
-2.469162 0.4119153 -0.06095055 0.6927271 0.1990096 0.6931986 13948638 female
-2.476955 0.4337413 -0.06595008 0.4749686 0.4877827 0.732443 7895166 female
-2.323319 0.1011931 -0.3518357 0.9942441 -0.0702026 0.08093347 11251132 female
-2.404144 0.8027327 -0.3244518 0.5095003 -0.1789522 0.8416564 3223593 female
-2.502483 0.2785883 -0.5522745 -0.2794968 0.3274719 -0.9025761 12898780 female
-2.262045 -0.00819174 -0.7050663 -0.1983437 -0.1287816 0.9716353 1381653 female
-2.397846 0.2064001 -0.5506293 0.6963178 0.2892268 -0.6568785 13752551 female
-2.403989 0.6957386 -0.383849 0.9585478 0.2055569 0.1973134 16177615 female
-2.558566 0.7627081 -0.3757208 -0.9167163 0.1248554 0.3795293 14928826 female
-2.355894 0.4099584 -0.4634696 0.9385877 -0.2608671 -0.2258348 14542318 female
-2.61859 -0.3548273 -0.4630682 0.3232546 -0.06167459 0.9443002 1973793 female
-2.57233 -0.02876257 -0.5831661 -0.2490988 -0.1218825 -0.960778 2105635 female
-2.297787 0.3762987 -0.5554581 -0.1447322 -0.364546 0.9198689 12960203 female
-2.329476 0.07051294 -0.3677268 0.9679423 -0.2364305 -0.08478376 2500910 female
-2.566315 0.2740232 -0.3228117 -0.7324263 0.1338102 0.6675677 15659258 female
-2.413386 0.6793136 -0.3554734 0.6389817 0.5256042 0.5616426 15519939 female
-2.520171 -0.1273149 -0.3443379 -0.8127573 -0.2641886 -0.5192592 2171430 female
-2.788316 -0.6840736 -0.5267465 -0.09943248 -0.9942036 0.04089544 526344 female
-2.636753 -0.3197198 -0.4573691 -0.05366914 -0.107239 0.9927837 1776155 female
-2.625722 0.05191018 -0.5276374 -0.8553081 0.3096129 -0.415437 3552823 female
-2.674034 -0.1724842 -0.5264234 -0.8058285 0.08077908 -0.5866133 1645090 female
-2.409675 0.5377203 -0.2003954 0.9568678 -0.04504115 0.2870112 9671835 female
-2.373484 -0.1476974 -0.3217095 0.9815223 -0.05109486 -0.1843998 2237225 female
-2.53941 0.2965243 -0.5272941 -0.6516044 0.2116052 -0.728447 15594751 female
-2.413235 0.6393028 -0.5273792 -0.07579279 0.9053079 -0.4179392 14212577 female
-2.331327 0.5505645 -0.464566 0.9924617 0.1177327 -0.03404006 11579066 female
-2.32576 0.4109791 -0.5477355 -0.3415723 -0.4843251 0.8054549 13224400 female
-2.394907 -0.314906 -0.3597614 0.2780032 0.2103412 -0.9372677 2170145 female
-2.740554 -0.6142175 -0.5221822 -0.560629 0.536507 -0.6307579 1842206 female
-2.507004 0.449548 -0.1709904 -0.6196316 -0.4601808 -0.6358383 5593181 female
-2.250948 0.2086783 -0.6819572 0.3165135 0.2069436 -0.9257394 15199215 female
-2.503216 -0.2330173 -0.2836229 -0.9184617 -0.2511528 0.3055332 2565672 female
-2.405799 0.2117568 -0.2465824 0.3921499 0.2777678 0.8769627 7038569 female
-2.708649 -0.6901395 -0.5255772 -0.1499872 -0.9876989 -0.04421392 1052688 female
-2.380488 0.4050152 -0.283863 0.6856731 -0.32399 0.6518304 14606319 female
-2.467451 0.3790515 -0.5442512 -0.05972393 -0.006457672 -0.998194 4541006 female
-2.391796 0.8474211 -0.442002 0.6417354 0.1701995 -0.747802 3025958 female
-2.529018 0.7508506 -0.4483691 -0.415155 -0.1790183 -0.8919634 16244430 female
-2.450866 0.001845213 -0.5641797 0.5369685 -0.5293519 -0.6568495 2302499 female
-2.575844 0.1910915 -0.3161192 -0.764696 -0.1092521 0.6350622 6777464 female
-2.659542 -0.494588 -0.4777552 0.05496761 -0.2006561 0.9781184 1841436 female
-2.530622 0.173045 -0.5751399 -0.4831932 0.2057617 -0.8509914 10131362 female
-2.345812 0.5374553 -0.3248796 0.9823858 0.1843069 0.03080833 15726591 female
-2.420124 -0.3359527 -0.3603497 -0.3761322 -0.09206369 -0.9219809 1775899 female
-2.584167 0.4664786 -0.4178256 -0.9947362 0.09989034 -0.02284285 14214389 female
-2.61908 -0.07541451 -0.56152 -0.4759077 -0.02115559 -0.8792408 2170145 female
-2.666544 -0.4068056 -0.4692243 -0.4862326 -0.02567348 0.8734522 1973534 female
-2.546141 0.1946716 -0.2855575 -0.6677427 0.02171232 0.7440754 12041672 female
-2.649475 0.00972683 -0.4949803 -0.9597014 0.2788059 -0.03521997 2697257 female
-2.476746 0.1673202 -0.2359165 -0.2716818 0.1448863 0.9514184 5790562 female
-2.601611 -0.3234835 -0.4706169 0.687216 -0.07502782 0.7225684 2434346 female
-2.485023 0.73174 -0.4481132 0.01669121 -0.3590636 -0.9331638 13482669 female
-2.34365 0.5139946 -0.3134858 0.978371 0.02551727 0.2052779 14736875 female
-2.501073 0.6055496 -0.289561 -0.7699237 0.6377763 0.02142419 15461627 female
-2.512971 0.01288913 -0.3933448 -0.4670366 0.04147106 -0.883265 1580065 female
-2.758542 -0.6187559 -0.5023662 -0.4910851 0.8679606 0.07402499 2696226 female
-2.500712 0.9112023 -0.4054543 -0.3204731 0.9157024 -0.2424585 2696225 female
-2.528438 0.009475321 -0.2423755 -0.6231104 0.01637092 0.7819626 2303015 female
-2.706151 -0.5918152 -0.5416045 -0.3990537 0.09670172 -0.9118142 1841436 female
-2.46192 0.3490307 -0.2620363 -0.06756308 -0.09026539 0.9936234 6974833 female
-2.37831 0.4573734 -0.2648459 0.6658404 -0.2438149 0.7051317 14342889 female
-2.408379 0.72079 -0.3724993 0.8905898 -0.1397564 0.4328025 3025446 female
-2.267807 -0.01769887 -0.7136323 -0.980026 -0.03811612 -0.1951827 3157549 female
-2.386333 0.6579592 -0.4568993 0.6634385 0.7270291 -0.176856 15848128 female
-2.397081 -0.5428763 -0.3244965 -0.9661977 -0.1665882 -0.1967499 1907490 female
-2.509432 0.7038609 -0.4260429 -0.2576835 -0.6477929 -0.7169126 13285801 female
-2.544811 0.2834187 -0.5264202 -0.6687532 0.2390442 -0.7040078 12106433 female
-2.586576 0.09906609 -0.441043 -0.8293442 0.2398091 0.5046582 2829619 female
-2.638847 -0.484344 -0.4822285 0.4801169 -0.2916093 0.827316 2170913 female
-2.471523 0.7992834 -0.4605478 -0.1118324 -0.02983452 -0.9932791 12692387 female
-2.38586 0.4608188 -0.5807977 -0.8243209 -0.5388462 -0.1736083 7040371 female
-2.590209 0.4589778 -0.4672371 -0.9975286 -0.009673784 0.06959261 10525859 female
-2.373602 0.7797223 -0.3851838 0.90408 -0.4254231 0.04067751 6840927 female
-2.410707 0.8348903 -0.4552945 0.4675484 0.04551904 -0.8827947 2696225 female
-2.364401 -0.6466553 -0.3493138 -0.2692232 0.04833833 -0.9618639 1645082 female
-2.36639 0.8497071 -0.4050131 0.9512112 0.2269364 -0.2090389 5459531 female
-2.496731 0.2014028 -0.2502318 -0.4348587 0.1943873 0.8792676 10332079 female
-2.451091 0.7168925 -0.3407232 0.2249895 -0.153037 0.9622679 7628130 female
-2.253663 -0.01475291 -0.7106714 0.9804531 -0.08393701 0.1779504 1709850 female
-2.414502 -0.6691039 -0.2792757 -0.2148467 0.877755 0.4282371 15193042 female
-2.611842 -0.2400415 -0.4377772 0.1372312 -0.237305 0.9616932 1776155 female
-2.356539 -0.4586518 -0.2667869 0.3209515 -0.1257271 0.9387134 1973791 female
-2.38343 0.05403105 -0.5389087 0.7939422 -0.2945111 -0.5319012 3158584 female
-2.401459 0.5680115 -0.2196537 0.8258371 0.2212569 0.5186893 11053233 female
-2.371044 0.2630146 -0.4192174 0.9138062 0.3685521 -0.170668 9013138 female
-2.538818 0.03221733 -0.255414 -0.7557427 0.07653612 0.6503808 2500391 female
-2.478773 0.6291897 -0.4600882 -0.6828899 0.6094822 -0.4027319 14729399 female
-2.577599 0.1736726 -0.5054545 -0.9443638 0.07183486 -0.3209622 13554148 female
-2.388147 -0.231052 -0.3420545 0.8658432 0.04476863 -0.4983084 2171945 female
-2.369993 0.05329291 -0.5124578 0.8562278 -0.3841248 -0.3454304 3027510 female
-2.41369 -0.1307441 -0.2427454 0.4232237 -0.1142994 0.8987866 1908261 female
-2.383801 -0.6828426 -0.3409344 -0.5003333 0.009219738 -0.8657838 7695470 female
-2.336463 -0.3480271 -0.302005 0.9464051 0.2891822 0.1438441 2238505 female
-2.583586 -0.2409084 -0.5289224 0.8843969 -0.2022504 -0.4206386 2697773 female
-2.623712 0.2607456 0.08196273 0.6467657 -0.009445915 0.7626303 9080215 female
-2.589492 0.2472133 -0.4790943 -0.878688 0.1744534 -0.4443797 7304060 female
-2.418267 -0.7257797 -0.2293187 0.1435573 -0.9565556 0.2537572 10388093 female
-2.493063 0.847159 -0.3173313 -0.3395095 0.08600704 0.9366622 2698281 female
-2.599438 0.451315 -0.3381973 -0.9957494 -0.08876888 -0.02455984 6053223 female
-2.553364 -0.03004504 -0.2880779 -0.9597744 -0.1222407 0.2527652 2303014 female
-2.52506 0.695601 -0.4019419 -0.3949423 -0.9103075 -0.1239394 15325640 female
-2.566793 0.1279712 -0.5589775 -0.6778898 0.3428961 -0.6502981 9869730 female
-2.569147 0.1708796 -0.3111745 -0.7566925 -0.1878366 0.6262059 8488080 female
-2.551215 0.4857419 -0.2726129 -0.5552142 0.1892449 0.8098911 6185062 female
-2.487701 0.0002077746 -0.4033422 -0.2926783 -0.06326129 -0.954116 526344 female
