# .PCD v0.7 - Point Cloud Data file format
VERSION 0.7
FIELDS x y z normal_x normal_y normal_z rgb label
SIZE 4 4 4 4 4 4 4 4
TYPE F F F F F F U U
COUNT 1 1 1 1 1 1 1 1
WIDTH 169
HEIGHT 1
VIEWPOINT 0 0 0 1 0 0 0
POINTS 169
DATA ascii
-1.335088 -0.114976 -0.794064 -0.2136283 -0.207402 -0.9546452 2039847 female
-1.373412 -0.08743808 -0.8483149 0.8049353 -0.3406412 0.4858423 2171174 female
-1.436039 0.7522778 -0.7930796 -0.8926029 -0.1866233 -0.4104045 16310479 female
-1.33973 -0.1265567 -0.790066 -0.2675494 -0.1815598 -0.9462839 1974308 female
-1.48618 0.09976193 -0.9429007 -0.81339 0.2167759 -0.5398192 395526 female
-1.220829 0.5896841 -0.6654531 0.7553394 0.4770758 0.4492894 16250879 female
-1.254343 0.365099 -0.58118 -0.9374692 -0.1375612 0.3197316 14737648 female
-1.437582 0.4497376 -0.7462648 -0.9808981 -0.07093197 0.1811282 11975877 female
-1.413104 0.5431926 -0.7941484 -0.8419375 0.3850265 0.3780156 4998477 female
-1.277545 0.5927104 -0.9546293 0.72186 0.2588845 -0.6417919 15593983 female
-1.226653 0.5978988 -0.6656029 0.6863894 0.5442212 0.4823826 14080226 female
-1.283187 -0.1233286 -0.6544302 0.5259717 -0.1640045 0.8345396 1645602 female
-1.45399 -0.3082046 -0.8681564 -0.1169085 -0.5729535 0.8112069 1973534 female
-1.328709 0.1005362 -0.6478452 -0.2826467 0.2607564 0.9231018 13618391 female
-1.521805 -0.007735145 -0.916539 -0.8926355 0.09051384 -0.4415984 2235938 female
-1.447412 -0.2420806 -0.944701 0.2533466 0.6887756 -0.679267 2565417 female
-1.386584 -0.3994005 -0.9316112 -0.3998303 -0.6928318 0.6000999 2039329 female
-1.402279 -0.1214182 -0.6851608 -0.9515725 -0.08572827 0.2952293 1907749 female
-1.453808 0.1219408 -0.7939211 -0.9441229 -0.2948412 0.1473115 13292775 female
-1.397286 0.7694437 -0.70263 -0.3282983 -0.1255234 0.9361967 16571342 female
-1.280329 0.3225575 -1.113372 0.6849879 0.1034416 -0.7211736 14079966 female
-1.247779 0.4484765 -0.6606649 -0.4453588 -0.4491235 -0.7745603 526344 female
-1.351985 0.04386639 -0.6407752 -0.3409416 0.1634561 0.925765 2696233 female
-1.405231 -0.1485839 -0.8460613 0.8174083 -0.2205388 0.5321714 1974566 female
-1.532481 -0.2699224 -0.8890799 -0.8502843 -0.4289562 -0.3049805 1777187 female
-1.204952 0.2831158 -0.6015353 0.148667 -0.4563042 -0.8773167 11776704 female
-1.24599 -0.0896035 -0.6835202 0.8596339 -0.2357072 0.4532899 2170145 female
-1.338621 -0.4621452 -0.9804588 -0.7245768 -0.6888704 0.02112099 2565160 female
-1.281053 0.6733946 -0.8447633 0.6743023 0.6641016 -0.3229325 16769488 female
-1.342894 -0.5944315 -0.7449042 -0.7068919 -0.07442003 -0.7033957 1776929 female
-1.402861 -0.7129665 -0.6494137 -0.1771474 -0.977531 -0.1142449 591624 female
-1.467829 0.2390403 -0.8073328 -0.9813485 0.1427563 0.1287467 9145499 female
-1.245732 -0.1113141 -0.701197 0.9511433 -0.205703 0.230245 2171430 female
-1.209422 0.2131473 -0.6961204 0.7482412 0.2438177 0.6169993 6315103 female
-1.397244 0.700117 -0.7925874 -0.5273107 -0.6545956 -0.5417084 13680298 female
-1.239155 0.592631 -0.8459331 0.9461113 0.2874009 -0.1492455 15726335 female
-1.404974 -0.2574645 -0.8967069 0.7217413 0.6224107 0.302811 2697257 female
-1.259899 0.374026 -0.6004773 -0.9627289 -0.2666197 -0.0454638 12039363 female
-1.489931 -0.01585594 -0.9556355 -0.6395671 -0.04589981 -0.7673638 2171430 female
-1.412051 0.3654726 -0.9251844 -0.7324086 0.03462363 -0.6799845 13949412 female
-1.432133 0.2781849 -0.9237462 -0.7911037 0.2867835 -0.5402871 15197161 female
-1.457255 0.2643008 -0.8705338 -0.9481247 0.2285549 -0.2209575 15200764 female
-1.368636 0.2560632 -0.6944467 -0.3727911 0.1454674 0.916442 15726591 female
-1.361085 -0.487859 -0.739463 -0.9411038 -0.08643737 -0.3268825 2104352 female
-1.342937 -0.01392589 -0.6336252 -0.1961787 0.02919516 0.9801334 2565415 female
-1.367641 0.6551617 -0.7655322 -0.7193538 -0.2171337 0.6598356 16312535 female
-1.263861 0.05702906 -0.6424861 0.3116417 0.05337263 0.9486995 2171429 female
-1.236419 0.3232006 -0.5389503 -0.8766311 0.337082 0.3433564 14871033 female
-1.215268 -0.01992872 -0.7116383 0.9227238 -0.3515829 0.1580199 2367526 female
-1.348722 -0.6289731 -0.7382492 -0.5473511 0.06999639 -0.8339708 1579291 female
-1.409414 0.5872025 -0.9579647 -0.9859911 0.1657447 0.01871351 14278637 female
-1.28582 -0.2288823 -0.6670834 0.7419539 -0.06598257 0.6671962 1907745 female
-1.386174 0.1521271 -1.145181 -0.9156812 0.3277569 -0.232601 6052968 female
-1.312544 -0.6877801 -0.7278382 0.9766685 0.06697004 0.204043 16308176 female
-1.209066 0.164227 -0.8686957 0.8523346 0.1536556 -0.4999157 15132414 female
-1.389715 0.7623418 -0.7020745 -0.1596573 -0.2352738 0.9587261 16768206 female
-1.21664 0.2763187 -0.5971105 -0.2180285 -0.456178 -0.862766 9935007 female
-1.340376 0.4169945 -1.007927 -0.5995419 -0.4703086 0.6475796 13684704 female
-1.487412 0.1117064 -0.8523869 -0.8273913 0.404046 0.3900903 9671583 female
-1.345599 0.6560562 -0.9211665 -0.3405125 0.9065946 -0.2492743 12234923 female
-1.267152 0.4144886 -0.592795 -0.9010915 -0.07486881 0.4271167 11580097 female
-1.241015 0.2054313 -0.5517597 -0.4832433 -0.380969 -0.7882503 3947840 female
-1.295469 -0.06165291 -0.6374731 0.2896734 -0.1270536 0.9486552 2040095 female
-1.396991 -0.2557171 -0.923604 0.6590949 0.7514214 -0.03098013 2434603 female
-1.335094 -0.6604221 -1.01626 0.236478 -0.6599528 -0.7131202 7759469 female
-1.177316 0.3670731 -0.5770881 0.9068084 0.1819222 0.3802667 11910854 female
-1.211375 0.379923 -0.5530668 0.09215552 0.4086844 0.9080112 9803157 female
-1.20177 0.2148592 -0.8281552 0.8715344 0.3022754 -0.3860795 12832216 female
-1.28265 0.8295086 -0.7172909 0.6746046 -0.05891544 0.7358245 2697257 female
-1.41691 0.2748639 -0.9434743 -0.6363629 0.3562001 -0.684225 15200511 female
-1.37274 0.1063769 -1.169325 -0.217185 0.1307833 -0.9673296 12040894 female
-1.2422 0.06077007 -0.8858602 0.6853987 -0.6005176 -0.411834 2499622 female
-1.282943 0.6985893 -0.7799895 0.9227741 0.2640571 0.2806455 16770519 female
-1.336908 0.743784 -0.7196462 0.4195419 -0.4269313 0.8010707 14010036 female
-1.254512 0.3534504 -0.9010211 0.8967332 -0.1665665 -0.4100307 14736616 female
-1.390432 -0.3006413 -0.8801197 0.5028526 0.08915555 0.8597618 1973793 female
-1.285713 0.4781917 -0.980775 0.7857699 -0.2313921 0.5736055 13883112 female
-1.327558 0.4907339 -0.9665044 -0.1020589 -0.5598643 0.8222748 657927 female
-1.212591 0.1635145 -0.8747382 0.8530716 0.1438509 -0.5015733 14408947 female
-1.365873 0.2783218 -0.6988614 -0.3663269 0.1402801 0.9198511 15264244 female
-1.272712 0.6745177 -0.7675049 0.606634 0.7432277 0.2821487 15192000 female
-1.391221 -0.1129037 -0.6614265 -0.7779032 -0.0769425 0.6236557 2172969 female
-1.250734 -0.5818539 -1.052478 0.18448 -0.1923315 -0.9638339 789262 female
-1.426958 -0.2941899 -0.8627052 0.3052655 -0.2157429 0.9275063 1776155 female
-1.489491 0.0803867 -0.839379 -0.7866855 0.3404339 0.5150056 2698289 female
-1.540749 -0.2211861 -0.8942951 -0.8826227 -0.2084564 -0.421335 1974310 female
-1.204185 0.5474455 -0.6537226 0.971741 0.2011081 0.1235923 12237770 female
-1.243001 -0.04458395 -0.6679537 0.7332945 -0.2484791 0.6328803 2170145 female
-1.442686 0.2975552 -0.8880215 -0.9352592 0.1907681 -0.2981574 13553634 female
-1.365578 0.6443437 -0.9031156 -0.6602694 0.7508711 -0.01539099 10719628 female
-1.296758 0.6095518 -0.9659187 0.5771455 0.4550562 -0.6781054 14673136 female
-1.405725 0.5423561 -0.9467252 -0.9084272 -0.4084231 -0.08916642 11251644 female
-1.306053 -0.2878285 -0.7548094 0.4713553 0.04576829 -0.8807551 2302501 female
-1.256776 -0.527566 -1.036467 -0.4737305 0.1375733 -0.8698581 2170913 female
-1.268626 0.4058211 -0.6151474 -0.9377594 -0.3088019 -0.1588985 12500943 female
-1.388452 0.1454343 -1.13639 -0.9362959 0.2679342 0.2270709 13819626 female
-1.272465 -0.2567237 -0.7002882 0.9838774 0.01054124 0.1785336 2499622 female
-1.203503 0.2047849 -0.701612 0.8030087 0.1972506 0.5623781 13225951 female
-1.225225 -0.5785736 -0.9988456 0.6307287 -0.6848668 0.3648819 526344 female
-1.207471 0.3589295 -0.8075951 0.9417091 -0.1738719 -0.2880148 15197175 female
-1.39089 0.4149783 -0.9457253 -0.4381978 -0.3132155 -0.8425431 13883367 female
-1.306303 0.8472965 -0.8503292 0.240376 0.1654345 -0.9564783 3354154 female
-1.440107 0.8159751 -0.7752466 -0.9127612 -0.3925678 0.1129497 9143169 female
-1.357912 0.01353323 -0.9766178 0.3875 -0.4716611 -0.792073 2302499 female
-1.323646 -0.6413611 -0.981998 -0.7557891 0.6354923 0.1578999 16443872 female
-1.505873 -0.1206579 -0.817564 -0.4575105 -0.0598537 0.8871875 2169889 female
-1.478183 0.1380763 -0.8609764 -0.9118404 0.3118203 0.2670489 10330797 female
-1.190785 0.5352638 -0.7820582 0.9398952 0.1754728 -0.292927 11711677 female
-1.357985 -0.3646906 -0.7516493 -0.8296395 0.03238349 -0.5573595 2105120 female
-1.436684 0.4381316 -0.7485024 -0.95295 -0.2340837 0.1925905 14674167 female
-1.485468 -0.04902295 -0.9554155 -0.546955 -0.0975451 -0.8314597 1841948 female
-1.380101 -0.3659949 -0.8987634 -0.03825303 -0.5028223 0.863543 1973534 female
-1.313296 0.2758667 -0.6819572 -0.1348321 0.1326944 0.9819432 14737897 female
-1.475111 -0.0132465 -0.8034256 -0.4336378 -0.01030436 0.9010284 1973278 female
-1.24069 0.1471648 -0.6649407 0.4812144 0.1113361 0.8695039 460807 female
-1.387988 -0.3262129 -0.9986913 -0.04743389 0.2202465 -0.9742903 1514272 female
-1.429502 0.7160694 -0.7825708 -0.78867 -0.3778157 -0.4850309 15192769 female
-1.188784 0.4882909 -0.7819924 0.9773551 -0.08427723 -0.1940988 15068661 female
-1.271012 0.6133034 -0.6541693 -0.0165525 0.8601339 0.5097995 10988460 female
-1.351697 -0.03277879 -0.8076042 -0.4465613 -0.1359942 -0.8843577 1118484 female
-1.276994 -0.5573021 -1.026269 -0.7536613 0.297711 -0.5859716 9732736 female
-1.394103 0.9093815 -0.764542 -0.4549237 0.8904281 -0.01349836 2696225 female
-1.354419 0.0009293333 -0.6364553 -0.314591 0.07158436 0.9465243 3158065 female
-1.331067 -0.4694915 -0.9855179 -0.7435677 -0.6626534 -0.08942924 2895148 female
-1.272174 0.342951 -0.6889089 0.2910821 -0.07313471 0.9538986 15593213 female
-1.400685 0.3443067 -0.7197129 -0.5811702 0.06333637 0.8113136 8552843 female
-1.282312 0.7098237 -0.7924283 0.9889979 0.1477474 -0.007341765 11575446 female
-1.376832 0.1108684 -1.167382 -0.2751941 0.1428646 -0.9507144 8093830 female
-1.368393 0.6504368 -0.8486047 -0.8745527 0.3931764 -0.2838484 15059644 female
-1.361181 -0.5303513 -0.7183597 -0.999302 -0.0161742 -0.03367468 1908004 female
-1.389021 0.7003391 -0.8007475 -0.7040028 -0.4406216 -0.5569853 13943475 female
-1.44442 0.3073698 -0.8741454 -0.9456858 0.1497018 -0.2885614 14936567 female
-1.467221 0.05040573 -0.9750388 -0.5513558 0.02523731 -0.8338884 2500136 female
-1.294575 -0.3927909 -0.9521332 0.8401986 0.2965498 0.4540094 2499370 female
-1.423662 0.7364497 -0.8058414 -0.6988676 -0.2587289 -0.6668159 15915721 female
-1.350834 0.4177194 -1.054441 -0.9475945 -0.07512484 -0.3105174 15659774 female
-1.453026 0.4588839 -0.7898396 -0.8758101 0.01504586 0.4824213 14608627 female
-1.272015 0.760374 -0.7842518 0.8355542 -0.5493434 0.008422364 3486510 female
-1.341481 0.8643285 -0.8488567 -0.09264401 0.3464167 -0.9334948 2433825 female
-1.345489 -0.6560702 -0.7427701 -0.5008383 0.07669763 -0.862136 2169889 female
-1.268174 0.8611408 -0.8246084 0.7652427 0.3297092 -0.5528973 5459531 female
-1.210246 0.3655198 -0.7392019 0.8949893 -0.2039363 0.3967418 12829389 female
-1.302538 0.7221313 -0.7496939 0.7543975 -0.1425944 0.6407427 6313302 female
-1.342626 0.09608663 -1.162303 0.8884807 0.007590803 -0.4588511 7567743 female
-1.36898 -0.6370349 -0.6805925 -0.2181723 0.5311339 0.8187171 2303531 female
-1.451548 -0.1682213 -0.8148935 0.3018874 -0.1468638 0.9419634 2302499 female
-1.342578 -0.5391755 -0.6796364 -0.4216127 -0.05364613 0.9051878 1974566 female
-1.35319 0.05893793 -0.9951509 0.2209549 -0.2181011 -0.9505845 2698289 female
-1.236282 0.616528 -0.6777337 0.5512723 0.6921304 0.4658911 12304329 female
-1.199264 0.4258171 -0.744299 0.9262875 -0.3078146 0.2173516 3222835 female
-1.396511 0.07505377 -0.6987206 -0.8943412 0.2806178 0.3484357 2699313 female
-1.420656 0.5552503 -0.9008499 -0.9519636 0.2909772 -0.09538127 15200247 female
-1.472647 0.1848856 -0.877016 -0.9983078 0.02270618 -0.05353452 11250622 female
-1.342177 -0.423371 -0.7707558 -0.5172408 -0.03262617 -0.8552178 2170913 female
-1.299151 0.05218817 -0.9709998 0.5757706 -0.3780907 -0.7249383 2828843 female
-1.279336 -0.1802271 -0.667815 0.706857 -0.1518249 0.6908708 1842209 female
-1.405321 -0.671582 -0.6896191 -0.752129 0.3780467 -0.5397988 14205376 female
-1.33912 -0.5707012 -0.6813442 -0.1705807 -0.08248175 0.9818854 2434088 female
-1.436521 -0.2365656 -0.8802702 0.9279477 0.3618529 -0.08930586 2237738 female
-1.233188 0.119615 -0.4780732 0.9570323 -0.2540132 0.1398801 15200249 female
-1.45361 0.2768161 -0.7913303 -0.9435257 0.1221645 0.307953 15200255 female
-1.4278 -0.70596 -0.5735489 0.2699996 -0.9277597 0.2576085 1841433 female
-1.319713 0.8654634 -0.7020812 0.2963236 0.3481842 0.8893594 1907741 female
-1.415265 0.4302737 -0.6867724 -0.7299907 -0.3687704 0.5754321 14080999 female
-1.360831 -0.09807203 -0.6386849 -0.338119 -0.0790976 0.9377735 2169889 female
-1.37665 0.6811472 -0.7627068 -0.5112805 -0.5199268 0.6843014 16706523 female
-1.462266 0.1272859 -0.9606605 -0.6955912 0.2244987 -0.6824611 723724 female
-1.328605 -0.6434778 -0.9984674 -0.7125342 0.6887043 0.1340946 15649215 female
-1.347357 0.517995 -0.6693578 -0.615818 0.08046693 0.7837687 4474188 female
