# .PCD v0.7 - Point Cloud Data file format
VERSION 0.7
FIELDS x y z normal_x normal_y normal_z rgb label
SIZE 4 4 4 4 4 4 4 4
TYPE F F F F F F U U
COUNT 1 1 1 1 1 1 1 1
WIDTH 171
HEIGHT 1
VIEWPOINT 0 0 0 1 0 0 0
POINTS 171
DATA ascii
-3.092335 -0.1167094 -0.4366088 -0.9612561 -0.2060942 0.1830625 14079966 female
-3.186291 0.02881304 -0.538879 0.3216254 -0.6485767 -0.6898589 1579291 female
-3.107762 0.7923921 -0.2975263 -0.1583319 0.152997 0.9754604 14469045 female
-3.101196 -0.09073585 -0.4620085 -0.9601241 -0.2742965 -0.05406638 1908773 female
-3.311387 0.02211509 -0.3984954 -0.9018438 -0.0448007 0.4297331 2040359 female
-2.988016 0.6115483 -0.5385241 0.4096645 0.5388177 -0.736105 16250879 female
-2.93995 0.419169 -0.484865 0.3774101 -0.06458911 0.9237911 15724543 female
-3.041419 0.475617 -0.3356528 0.2342492 0.2545811 0.9382514 15330552 female
-3.043847 0.608255 -0.4067241 0.5534992 0.4025928 0.72908 15659771 female
-3.258612 0.5677785 -0.495108 -0.6644946 0.1772301 -0.7259728 4934735 female
-2.997359 0.6265802 -0.5297539 0.4069224 0.6644456 -0.6268383 15462395 female
-2.940224 -0.05765995 -0.4581133 0.993208 -0.1113017 -0.0339089 1776155 female
-3.232853 -0.3182575 -0.4341312 0.6836112 -0.4270981 0.5918301 1644825 female
-2.943603 0.07887589 -0.4593337 0.9582784 0.1416091 0.2482929 3026990 female
-3.29293 -0.09655054 -0.3844621 -0.8156632 -0.1322955 0.5631975 1973536 female
-3.312032 -0.2512305 -0.4621105 -0.9745142 0.199424 -0.1027232 1841956 female
-3.308571 -0.4950112 -0.4560543 -0.1038436 -0.2092902 0.9723241 2631470 female
-3.080806 -0.1529404 -0.4192246 -0.9337444 -0.1418976 0.3286131 2961461 female
-3.156897 0.1262207 -0.3436841 -0.05123275 -0.2882479 0.9561842 14605295 female
-3.026778 0.7690966 -0.337433 0.9018787 -0.09167778 0.4221493 16309454 female
-3.347184 0.1958949 -0.3859228 0.9955775 -0.08212189 0.04562183 12632785 female
-2.998516 0.4305705 -0.51947 -0.9410455 -0.2346022 0.2437112 526344 female
-2.97823 0.0935956 -0.4058269 0.6329075 0.2971806 0.7149208 2763058 female
-3.205262 -0.2151618 -0.5015438 0.5730326 -0.02465673 -0.8191616 2171687 female
-3.233851 -0.2271598 -0.3789039 0.1431281 -0.2482664 0.9580595 2697515 female
-2.982571 0.3275998 -0.5390787 -0.975857 -0.1751857 -0.1304342 12237762 female
-2.997408 -0.266199 -0.4933232 0.03728012 0.134825 -0.9901679 2105896 female
-3.331719 -0.5404036 -0.4736052 -0.6859451 -0.1349824 0.7150239 2170913 female
-3.229413 0.6599241 -0.4471272 -0.5052866 0.7367112 -0.4493796 13555683 female
-3.016495 -0.3606021 -0.5127669 -0.325274 0.1094406 -0.9392655 2171944 female
-2.941294 -0.7083619 -0.3395571 0.004531188 -0.9972336 0.07419311 723723 female
-3.148629 0.2270163 -0.3190699 -0.1138739 0.007292387 0.9934685 10132395 female
-2.996431 -0.2453871 -0.4929377 0.1098318 0.01456636 -0.9938435 2500910 female
-2.979515 0.2305466 -0.5472218 0.7807186 0.3281981 -0.531756 6315103 female
-3.113995 0.6928632 -0.3532242 -0.3661089 -0.5652802 0.739204 16508372 female
-3.367833 -0.04269409 -0.3333033 -0.5811328 -0.01306603 0.8137038 3025449 female
-3.309779 -0.3482727 -0.5352828 -0.3868857 0.2947049 -0.8737668 2499878 female
-2.955714 0.4320152 -0.4795263 0.03875579 -0.1396325 0.9894447 4211272 female
-3.297161 -0.05743253 -0.3818056 -0.8242229 -0.1183054 0.5537693 2170913 female
-3.247304 0.3454437 -0.3796124 -0.8058883 0.01857959 0.5917761 14607604 female
-3.21974 0.252976 -0.3456436 -0.4666968 0.1466116 0.8721807 13554654 female
-3.178446 0.3495579 -0.3323627 -0.3926603 -0.05409536 0.9180913 8224137 female
-3.007302 0.2593848 -0.3967057 0.8383082 0.1062133 0.5347504 14805746 female
-3.018643 -0.4624227 -0.4255116 -0.4577285 -0.154158 0.8756254 2301731 female
-2.989626 0.07254462 -0.3901735 0.5027122 0.2761335 0.8191647 2829099 female
-3.086565 0.6587453 -0.3798336 0.698056 -0.2493813 0.6712129 16312535 female
-2.946722 0.08664721 -0.5324155 0.9307587 0.0662481 -0.3595823 2697773 female
-2.906804 0.3274608 -0.4905304 0.4740674 0.5151418 0.714065 3684417 female
-2.962349 0.03884851 -0.5563783 0.7503033 -0.1472993 -0.6444749 2170406 female
-3.034225 -0.5184075 -0.468458 -0.9839426 -0.1741374 -0.03915358 1710875 female
-3.308036 0.6034046 -0.3562898 -0.6001764 0.7226673 0.3428416 11776179 female
-3.026777 -0.17656 -0.3673914 -0.3030194 -0.09121155 0.9486094 2170401 female
-3.367199 0.1949915 -0.3563477 0.2321733 0.2364103 0.9435072 5063757 female
-2.98039 -0.6715329 -0.4905329 0.7165207 0.1702228 -0.6764779 16308176 female
-3.150356 0.2140097 -0.5861788 -0.2580022 0.3774085 -0.8893805 9541537 female
-3.030378 0.6461281 -0.5241738 0.2526564 0.7300925 -0.6349249 13948130 female
-2.966981 0.2821558 -0.5334139 -0.6669391 -0.4746991 -0.5743284 7566205 female
-3.280933 0.465093 -0.3812702 0.8005838 -0.4773059 0.3622769 2894901 female
-3.216932 0.06691904 -0.3346257 0.02810981 0.1225542 0.9920636 3092791 female
-3.224987 0.5636488 -0.3333489 0.1334826 0.09384649 0.9865978 15461114 female
-2.949962 0.3983053 -0.4854807 0.05305156 -0.1405462 0.9886518 14804215 female
-2.953302 0.2054716 -0.4697684 -0.6703128 -0.5692347 -0.4760806 11907773 female
-2.945573 -0.1202313 -0.4345542 0.9954981 -0.07292058 0.06054946 1908000 female
-3.214673 -0.2902125 -0.4942114 0.7495402 -0.1966463 -0.6320757 2171170 female
-3.34394 -0.6298174 -0.5216239 -0.9408547 0.1399988 -0.3085331 2039327 female
-2.908493 0.37398 -0.5175316 0.8723566 0.2074308 0.442681 10528428 female
-2.907034 0.3793842 -0.5379143 0.9625784 0.19766 -0.1854005 3684152 female
-3.079109 0.1575096 -0.6185563 0.03935514 0.160417 -0.9862645 9935534 female
-3.047159 0.8412898 -0.4513399 0.6877628 0.02241987 -0.7255892 2697257 female
-3.219064 0.3180312 -0.3539279 -0.5132827 0.05362461 0.8565426 15133437 female
-3.383964 0.0739234 -0.3789623 -0.5599243 -0.06050587 -0.8263316 14739952 female
-3.221064 0.0830856 -0.5813602 -0.258604 -0.2806058 -0.9243292 2501428 female
-3.085128 0.6981344 -0.452989 0.6530364 0.3993359 -0.6434861 14204849 female
-3.049314 0.7360342 -0.4017223 0.7348597 -0.4660058 -0.4927675 13943731 female
-3.263979 0.4246578 -0.4661869 -0.9023064 -0.2728902 -0.3337276 14343404 female
-3.235136 -0.3976215 -0.508874 0.961648 -0.1154736 -0.2487948 2105384 female
-3.319236 2.395129E-05 -0.422546 -0.9763914 -0.09525342 0.1938727 2302499 female
-3.308094 0.3816094 -0.4234154 0.9401113 -0.3402377 -0.02071668 11184560 female
-3.10219 0.1404652 -0.6188596 -0.1374528 0.08611885 -0.9867575 15199231 female
-3.013975 0.2549483 -0.3860341 0.8113239 0.0864149 0.5781746 15726591 female
-3.109643 0.691076 -0.4703048 0.05071208 0.6886685 -0.7233008 16309455 female
-3.092633 -0.1026328 -0.4248048 -0.925828 -0.2096795 0.314447 5724001 female
-3.357145 -0.7145694 -0.4336661 -0.7887668 -0.5974812 -0.1444412 1184013 female
-3.229279 -0.3531413 -0.5012101 0.9484625 -0.06748565 -0.3096199 2170913 female
-3.145818 0.0462951 -0.3698272 0.7940308 0.06356093 0.6045453 2368807 female
-3.311577 -0.2792217 -0.4952405 -0.7437908 0.392011 -0.5413895 2236708 female
-2.975768 0.5726237 -0.5580237 0.1622421 0.2174246 -0.9624988 14870258 female
-2.97384 -0.06286908 -0.5251612 0.5769657 -0.2489473 -0.7779047 2171174 female
-3.192869 0.2864797 -0.3397386 -0.4035349 0.1023482 0.9092219 5329244 female
-3.243031 0.6553953 -0.3919069 -0.2765967 0.8684741 0.4113965 12432303 female
-3.273191 0.5634934 -0.4794677 -0.7880275 0.07224122 -0.6113868 4343890 female
-3.277893 0.4824519 -0.4149443 0.9047952 -0.4007787 -0.1439519 526601 female
-3.056362 -0.2972258 -0.4576305 -0.9529148 -0.07024673 -0.2949896 1907741 female
-3.329826 -0.6684702 -0.4514489 -0.567859 0.703748 0.4269366 16179414 female
-2.989014 0.4565449 -0.4887661 -0.7157987 -0.2504984 0.6518303 1841956 female
-3.370357 0.1876596 -0.3535184 0.0826547 0.2511108 0.9644229 14870772 female
-3.001005 -0.1988133 -0.3639148 0.1212858 -0.04573094 0.9915636 2565672 female
-2.983182 0.2232098 -0.5551264 0.7427983 0.2914963 -0.6027275 13225951 female
-3.309165 -0.7080148 -0.5148056 0.1955137 -0.9803353 -0.02677985 920843 female
-3.122365 0.3077855 -0.555957 -0.3550888 0.159056 -0.9212021 11843012 female
-3.233813 0.4211167 -0.3336408 -0.6886728 -0.5201428 0.5051547 13358043 female
-3.175099 0.8667919 -0.4149063 -0.9430627 0.2931491 -0.1571511 3025958 female
-3.105778 0.8184816 -0.2907501 -0.4053611 -0.04937323 0.9128224 15127237 female
-3.292145 0.002246952 -0.5048716 -0.672061 -0.2345774 -0.7023585 2434085 female
-3.319447 -0.7049282 -0.3586111 0.03110115 0.97319 0.2278902 10457231 female
-3.215507 -0.1180953 -0.3554298 0.2793547 -0.2599725 0.9243242 2369065 female
-3.225432 0.1521727 -0.3478576 -0.242029 -0.03094978 0.9697753 13356768 female
-3.078297 0.6194262 -0.5489196 -0.1619994 0.5105028 -0.844478 14476276 female
-3.053637 -0.3215025 -0.4422616 -0.9763137 -0.1097992 0.1864288 1775899 female
-3.054809 0.4724587 -0.3320255 0.2103878 0.178769 0.961134 15199223 female
-3.263443 -0.04005122 -0.3468508 -0.4735163 -0.101582 0.8749077 2697001 female
-3.302949 -0.506027 -0.4601901 0.08329943 -0.2172665 0.9725515 2170146 female
-2.987804 0.282869 -0.4421573 0.9419357 0.1164458 0.3149563 14737897 female
-3.145435 -0.06049439 -0.4214512 0.9603137 -0.2638113 0.0905612 1776416 female
-2.95495 0.1618337 -0.4711025 0.9530721 0.1692667 0.2510027 6842481 female
-3.32994 -0.3722256 -0.5290859 -0.7059724 0.1958526 -0.6806208 2105121 female
-3.121376 0.7501692 -0.3066813 -0.5398846 -0.2551209 0.8021458 16244174 female
-3.072135 0.4652219 -0.5754114 0.02123509 -0.1393257 -0.9900189 8422028 female
-2.967813 0.6149438 -0.5213529 0.5136599 0.6449777 -0.5658244 12566216 female
-3.111133 -0.05175566 -0.4440543 -0.9564694 -0.2218003 0.1896602 15395821 female
-3.320101 -0.6764467 -0.4331755 -0.3870137 0.8105327 0.4396102 16043975 female
-3.08545 0.9079348 -0.328322 0.02191962 0.832938 0.5529319 2696225 female
-3.069262 0.08025946 -0.3886581 -0.2707138 0.07054696 0.9600714 3092276 female
-3.250376 -0.4392036 -0.474585 0.8053402 -0.2811167 0.52192 1973534 female
-2.99123 0.3330467 -0.4946771 0.9614419 0.1329236 -0.2407506 13685209 female
-3.041018 0.3476349 -0.3586177 0.6863152 0.06055393 0.7247791 5921380 female
-3.132391 0.7360153 -0.4527718 -0.423779 0.08684161 -0.901593 2893604 female
-3.366032 0.06759534 -0.3752922 0.6805414 -0.2625321 -0.6840617 10986920 female
-3.220689 0.6681081 -0.4048051 -0.3939761 0.8420388 0.3684474 14073781 female
-3.004141 -0.526388 -0.4287488 -0.4232871 -0.07090777 0.9032165 1907490 female
-3.122708 0.7009737 -0.3537547 -0.52151 -0.5143256 0.6808058 13943475 female
-3.193453 0.3000912 -0.3411784 -0.4085185 0.05310037 0.9112042 14870521 female
-3.265225 0.05628961 -0.3494561 -0.5167477 0.05660791 0.8542643 3551544 female
-3.303868 -0.4832207 -0.5466872 -0.06157821 -0.05282094 -0.9967036 2303531 female
-3.133922 0.7226551 -0.3380779 -0.7490146 -0.5780668 0.3237529 13417645 female
-3.330231 0.4115732 -0.3751594 0.1414288 -0.2468195 0.9586855 15725567 female
-3.15749 0.4162615 -0.3003851 0.1817206 -0.693275 0.6973861 12370900 female
-3.13114 0.7845232 -0.4662383 -0.3313307 -0.4258711 -0.8419346 3486769 female
-3.178949 0.8508565 -0.3944354 -0.9904413 0.1337847 0.03357971 2696225 female
-3.014307 -0.6434577 -0.4700634 -0.9984551 0.01561775 -0.05332409 2169889 female
-3.154853 0.8733876 -0.4535868 -0.6128523 0.4079095 -0.6767731 5459531 female
-3.046805 0.3866862 -0.5614371 0.3744435 -0.1131432 -0.9203209 9013391 female
-3.065988 0.753952 -0.4371527 0.6276121 -0.2498543 -0.7373438 1117449 female
-3.39103 0.09724615 -0.3719794 -0.9032891 -0.1439381 -0.4041665 13685977 female
-2.97598 -0.6261633 -0.4130712 0.5318758 0.5008117 0.6828585 2303531 female
-3.180497 -0.2051082 -0.4433952 0.9666279 -0.2434337 0.07981569 2236194 female
-2.943687 -0.4276472 -0.4776151 0.9600893 -0.08087839 -0.2677449 1776669 female
-3.30026 0.09946755 -0.522838 -0.8488056 0.07132723 -0.5238717 2697265 female
-3.002623 0.6372907 -0.521073 0.4112189 0.7511006 -0.5164754 12304329 female
-3.107419 0.3933106 -0.565062 -0.219556 -0.07629361 -0.9726122 14606837 female
-3.017197 0.09545403 -0.3887703 0.2377003 0.3152328 0.9187638 2698289 female
-3.168524 0.6209718 -0.3595979 0.05715023 0.4810159 0.8748472 13947094 female
-3.218247 0.1821921 -0.3407162 -0.3409472 -0.09578312 0.9351901 13489900 female
-3.044839 -0.2503046 -0.4792543 -0.4402221 -0.1866275 -0.8782794 2500138 female
-3.267048 0.07215258 -0.5565724 -0.5524539 -0.2324204 -0.8004845 2828843 female
-2.935834 0.00734713 -0.4837285 0.9943824 -0.06010173 -0.08712894 1710875 female
-3.003226 -0.6642294 -0.3913483 -0.8948265 0.2986516 0.3318023 14205376 female
-2.948451 -0.4812695 -0.4452144 0.9352799 -0.1154666 0.334543 2170913 female
-3.227526 -0.2872559 -0.5043405 0.4625169 -0.07334336 -0.8835717 2303017 female
-2.906277 0.1620011 -0.4158743 0.9089983 -0.2629777 -0.323365 4209473 female
-3.139737 0.2519007 -0.3210109 -0.0431175 0.0572221 0.99743 15134462 female
-2.923019 -0.70402 -0.3094418 0.02808249 -0.9971784 -0.06961745 1841433 female
-3.024792 0.8548717 -0.4138907 0.9265143 0.156344 -0.3422392 2170401 female
-3.003495 0.482697 -0.3542496 0.529022 0.4044082 0.7460494 6579306 female
-3.023118 0.009321877 -0.364776 0.06304667 0.09999257 0.9929887 2303014 female
-3.072418 0.683576 -0.4446539 0.8885517 0.3637172 -0.279617 12165524 female
-3.235145 0.1155995 -0.3452514 -0.1775663 0.196749 0.9642407 13751010 female
-3.119106 0.06207036 -0.3991676 0.1350871 -0.8523484 0.5052263 2566189 female
-2.981924 0.533879 -0.4294264 0.8003269 -0.06858103 0.5956286 3685184 female
-3.098947 -0.09253854 -0.4418161 -0.9566785 -0.2447322 0.15771 5723226 female
-3.146069 0.6549695 -0.4954019 -0.3553691 0.4869414 -0.7978728 15133438 female
