# .PCD v0.7 - Point Cloud Data file format
VERSION 0.7
FIELDS x y z normal_x normal_y normal_z rgb label
SIZE 4 4 4 4 4 4 4 4
TYPE F F F F F F U U
COUNT 1 1 1 1 1 1 1 1
WIDTH 170
HEIGHT 1
VIEWPOINT 0 0 0 1 0 0 0
POINTS 170
DATA ascii
-0.5654213 -0.1887805 0.125958 0.722032 0.08584142 -0.6865138 2170662 female
-0.5351713 -0.09044525 0.09346116 0.2893065 -0.2948834 0.9106841 2171174 female
-0.7264825 0.6754025 0.1560706 -0.7403111 -0.6224902 0.2538612 16507607 female
-0.5771115 -0.2447167 0.1058987 0.5563666 0.08399572 -0.8266807 1974307 female
-0.6370662 0.09996514 -0.02154644 -0.7259157 0.2747899 -0.6305053 12962778 female
-0.5737249 0.5840482 0.3300452 0.4905739 0.4229747 0.7618593 15791103 female
-0.6062787 0.3258754 0.3467716 -0.6786316 -0.281595 -0.6783535 14804730 female
-0.6912112 0.3486981 0.1534095 -0.9817851 0.1362025 -0.1324651 15134462 female
-0.6828914 0.5454344 0.2049091 -0.8819411 0.4197364 -0.214479 10920873 female
-0.4570612 0.5570962 0.09174238 0.995339 0.03762095 0.08879728 4211787 female
-0.5956692 0.6021996 0.3283863 0.2769396 0.6137865 0.7393042 14607343 female
-0.6300832 -0.03014467 0.3017371 -0.3490161 -0.2549019 0.9017831 2171688 female
-0.537319 -0.3110409 0.03011795 -0.5567476 -0.5662341 0.6077921 1710618 female
-0.6813896 0.04079339 0.2682078 -0.8408695 0.06066309 0.5378276 3354935 female
-0.5667082 -0.05922068 -0.06513219 0.02188424 -0.03994425 -0.9989622 2170915 female
-0.6155578 -0.1679689 -0.04556059 -0.6547014 -0.1840048 -0.7331496 2237222 female
-0.3022386 -0.4496246 0.02802816 0.5541331 0.06818533 -0.8296309 1579291 female
-0.64193 -0.1527519 0.1134627 -0.2944468 0.04626123 -0.9545475 1974566 female
-0.7027376 0.1670002 0.1323624 -0.975187 -0.1998321 -0.09527582 12237762 female
-0.7410571 0.7389491 0.1987589 -0.8213078 -0.254906 0.510369 16571342 female
-0.3503124 0.300126 0.02434614 0.9701266 -0.05831713 0.2354854 7565685 female
-0.5597501 0.4462436 0.358782 0.9356611 0.2158243 0.2792099 7171439 female
-0.6803735 0.05800365 0.1662918 -0.8060236 0.2830449 -0.5198187 2697777 female
-0.5420629 -0.1786863 0.06415578 0.3192262 -0.09805063 0.9425926 2302243 female
-0.524352 -0.2950847 -0.0564345 -0.08880127 -0.285939 -0.9541243 2236714 female
-0.5596839 0.236886 0.3597722 0.810455 -0.2531762 -0.5282655 15131630 female
-0.6156195 -0.1207084 0.271189 -0.09405547 -0.3888511 0.916487 2171172 female
-0.3279182 -0.4662891 0.02011785 0.03382412 -0.4477926 -0.8934974 2499627 female
-0.5385381 0.6693258 0.1386321 0.5468491 0.8368403 -0.02558246 16506576 female
-0.5432772 -0.5468012 0.07990434 0.8926911 0.03848181 -0.449023 1842210 female
-0.6649366 -0.7196581 0.06409341 0.02248486 -0.9325013 -0.3604659 591624 female
-0.6929547 0.2085869 0.08726449 -0.8987545 0.01993988 -0.4379986 7237501 female
-0.5964375 -0.1398908 0.2613021 0.1517929 -0.3666314 0.9178999 2170658 female
-0.5362017 0.2881175 0.2967595 0.4594459 -0.0005179992 0.8882056 13685728 female
-0.6461101 0.6770024 0.1288542 -0.3156923 -0.239124 -0.9182364 16375760 female
-0.5252053 0.6353682 0.191702 0.7644388 0.4779668 0.4326443 14213619 female
-0.5212235 -0.2637778 0.04156695 0.2588978 0.2768403 0.9253818 2170913 female
-0.5840825 0.3815081 0.3240291 0.2441811 -0.1860659 -0.9517117 855309 female
-0.5557785 -0.01976766 -0.06483455 0.09892721 -0.01826132 -0.9949271 2171430 female
-0.6150309 0.3644919 0.04521945 -0.4280272 -0.01552229 -0.9036325 8816017 female
-0.6191464 0.3341315 0.04715725 -0.4668156 0.05340263 -0.8827409 14014692 female
-0.6511095 0.2744256 0.05655818 -0.6365005 0.1899941 -0.7475088 14608116 female
-0.6761474 0.2447973 0.2377142 -0.8686737 0.1015649 0.4848613 12041412 female
-0.5900337 -0.4586013 0.07161142 -0.3261283 0.07325662 -0.9424828 1579291 female
-0.6856413 0.05003252 0.1724527 -0.853703 0.2769712 -0.4409966 2698289 female
-0.6602682 0.6371301 0.1680668 -0.9203566 -0.3865269 -0.05950258 16376792 female
-0.6392007 0.02776191 0.30905 -0.5084564 -0.0946309 0.8558721 2566443 female
-0.6294365 0.2459715 0.4056287 -0.7988037 0.04780802 0.5996891 3157808 female
-0.537081 -0.1380777 0.206163 0.9521251 -0.2006323 0.2306611 2172201 female
-0.5414243 -0.5278487 0.08538283 0.9136393 0.004115093 -0.406505 2434089 female
-0.5372888 0.611371 0.01154339 -0.3647659 0.7229142 -0.5868058 15396594 female
-0.6868094 -0.2236117 0.1520423 -0.9620267 -0.07881475 -0.2613293 2499880 female
-0.412974 0.1833672 -0.0278752 -0.9839761 -0.02965243 0.1758172 14541301 female
-0.5526017 -0.6680343 0.08062879 0.6472685 -0.08835125 0.7571245 2302243 female
-0.4476304 0.1887168 0.191433 0.9274362 0.2927484 0.2327241 9541537 female
-0.7344759 0.7331827 0.2043556 -0.6903498 -0.3365133 0.6404498 16768206 female
-0.5851465 0.2516878 0.3457199 -0.04596492 -0.05198817 -0.9975893 5263445 female
-0.4604076 0.4164573 0.008530471 -0.7160097 -0.3682173 -0.5930818 15725567 female
-0.6555369 0.07386322 0.00605084 -0.9246657 0.2081663 -0.3188418 2501936 female
-0.5068233 0.6479224 0.1274898 0.6845931 0.7166629 0.1331409 12437206 female
-0.6212997 0.3349307 0.3622797 -0.9175466 -0.2919712 -0.2699281 6316906 female
-0.6098631 0.09590315 0.3707643 0.882479 -0.4145967 -0.2221272 6776682 female
-0.6625879 -0.1390944 0.245351 -0.5356047 -0.3110197 0.7851079 1973537 female
-0.4077725 -0.2927234 -0.01784694 0.6884902 0.5214733 -0.5040307 1973537 female
-0.6879864 0.788767 0.09827687 -0.01334227 0.1269766 -0.991816 9077883 female
-0.6116579 0.3607218 0.4031659 -0.5474222 0.06576978 0.8342681 12699082 female
-0.6198887 0.3696419 0.3965566 -0.6955356 -0.002611603 0.7184869 13290194 female
-0.4558746 0.167142 0.2412616 0.8995023 0.2670813 0.3457791 10988476 female
-0.6760602 0.8471461 0.2529867 -0.1948025 0.3237437 0.9258736 2566439 female
-0.6155351 0.2966018 0.03756471 -0.5219129 0.1830171 -0.8331336 15265018 female
-0.3701401 0.05458219 -0.04261221 0.3162684 -0.2396334 0.9179053 12427941 female
-0.4251069 0.06871152 0.07718779 0.9617686 -0.2719191 -0.03257394 2237738 female
-0.5943418 0.6922951 0.2172804 0.4645511 0.3635322 0.8074879 16770519 female
-0.5726947 0.4280829 0.3237112 0.5586171 -0.130837 -0.8190413 1053459 female
-0.462746 0.2538839 0.1655913 0.8817124 0.4043635 0.2430504 9146012 female
-0.6215469 -0.2107494 0.0236742 -0.7706761 -0.3531751 0.5304014 1973793 female
-0.467644 0.4717675 0.07804267 -0.4904604 -0.394437 0.7770895 658186 female
-0.4977463 0.4895963 0.05464983 -0.6905253 -0.5289515 0.4933408 526602 female
-0.4457747 0.1080999 0.2376769 0.9420673 -0.01360366 0.3351479 15199231 female
-0.6673347 0.2647777 0.2476426 -0.8581682 0.07964359 0.507153 13751518 female
-0.5914566 0.6686079 0.2341578 0.1738996 0.790159 0.587714 15192000 female
-0.6953648 -0.1464435 0.1606247 -0.9447895 -0.09501527 -0.3135997 2171688 female
-0.2053809 -0.5216702 0.07006536 0.9286507 -0.3105681 -0.2028677 658446 female
-0.5811685 -0.2821262 0.02086031 -0.5368138 -0.5474361 0.641985 1973278 female
-0.6297569 0.02451956 -0.04282873 -0.5722667 0.09826922 -0.8141585 3552823 female
-0.5919202 -0.208469 -0.06035187 -0.3108081 -0.1650453 -0.9360333 1645090 female
-0.6949798 0.547457 0.3391828 -0.961581 0.2044105 0.1832439 12963285 female
-0.588737 -0.02389261 0.3119834 0.03196585 -0.3206404 0.9466615 1974566 female
-0.6461241 0.3019451 0.05923062 -0.5785986 0.1205695 -0.8066515 10462387 female
-0.5243259 0.6614074 0.1298472 0.5833752 0.8110614 0.04304481 15257015 female
-0.4546916 0.5704508 0.07603527 0.973962 0.1974398 0.1114251 6844278 female
-0.5484859 0.540512 0.00602297 -0.682285 -0.3951545 -0.6150937 10527661 female
-0.5573082 -0.4141348 0.08017274 0.4373136 0.1822273 -0.8806532 1776412 female
-0.2622608 -0.5586219 0.02493328 -0.09285831 0.4463581 -0.8900235 14402490 female
-0.6428217 0.3911393 0.354162 -0.9531491 -0.288392 -0.09130677 10264237 female
-0.4105437 0.1770712 -0.02192889 -0.8910766 -0.1342853 0.4335319 12171721 female
-0.5655283 -0.2945729 0.1898499 0.8134013 0.06621119 0.5779224 2236709 female
-0.5392926 0.3114052 0.2956893 0.4091367 -0.01494354 0.9123508 15199231 female
-0.2727315 -0.5449864 0.09394664 -0.3072803 -0.1748174 0.9354239 10392207 female
-0.4874291 0.2871991 0.2317621 0.9645539 0.02713636 0.262487 14806783 female
-0.5597001 0.4030495 0.02576094 0.09176552 -0.3131715 -0.9452527 15724543 female
-0.5925351 0.8424555 0.140825 0.7613119 0.2786496 -0.5854558 3354154 female
-0.706647 0.6684184 0.1431851 -0.0824591 -0.9765981 -0.1986367 14208189 female
-0.4801299 0.05937844 -0.02813001 0.6981145 -0.02379858 -0.7155905 2105128 female
-0.339116 -0.6662485 0.03099542 -0.9041461 0.2094307 0.3723687 14661552 female
-0.6391047 -0.1457434 0.02050526 -0.9203385 -0.2629496 0.2895423 2169889 female
-0.6569614 0.1478602 0.04561483 -0.7951176 -0.1710393 -0.5818363 8357779 female
-0.5840783 0.61725 0.3087053 0.3618325 0.6536485 0.6646961 14804722 female
-0.6099512 -0.3655503 0.09442043 -0.4262646 0.1395594 -0.8937683 1908253 female
-0.7295601 0.4358356 0.1848675 -0.9430107 0.08249255 -0.3223751 13225178 female
-0.5450152 -0.05183748 -0.06131236 0.2208822 -0.047338 -0.974151 1841948 female
-0.4564262 -0.3713952 0.0505025 -0.6031864 -0.6042874 0.5205794 1973534 female
-0.6310332 0.2782171 0.2906422 -0.5723923 0.04172631 0.8189176 14608367 female
-0.6557924 -0.03400652 -0.007682275 -0.9523471 -0.08278123 -0.2935681 2434085 female
-0.6425844 0.1266841 0.3069803 -0.6390773 0.04302435 0.7679383 6842481 female
-0.4977033 -0.2793261 0.04980134 -0.02198864 0.3100154 0.9504772 2434346 female
-0.7222155 0.7721262 0.108231 -0.5850583 0.04533744 -0.809723 12628392 female
-0.4894294 0.4608017 0.2608305 0.9053662 -0.04447457 0.4222962 15265783 female
-0.6440584 0.6266904 0.2749918 -0.770287 0.6113766 0.1813191 14869997 female
-0.5702668 -0.09519404 0.1223299 0.4482616 -0.03054034 -0.8933805 1842980 female
-0.2715831 -0.555756 0.02719947 -0.1971762 0.3894546 -0.8996925 14863041 female
-0.7240472 0.8819987 0.1473605 -0.4908385 0.8008518 -0.3430946 2696225 female
-0.685413 0.04368692 0.1677654 -0.8427557 0.2694779 -0.4659877 2369324 female
-0.2883579 -0.4842289 0.03329396 0.2333503 -0.05131689 -0.9710377 1841436 female
-0.6088017 0.2883741 0.3014674 -0.3380005 0.05229723 0.9396918 13487821 female
-0.651185 0.3177893 0.2699255 -0.7740449 -0.03294556 0.632273 13093589 female
-0.5876011 0.7045894 0.2079429 0.7168742 0.2862904 0.6357115 11575446 female
-0.3862571 0.06369358 -0.04467282 -0.5672421 -0.3259643 0.756296 3222569 female
-0.6070226 0.6280897 0.1040912 -0.6096387 0.4051316 -0.681329 16703189 female
-0.6129901 -0.4706213 0.08722158 -0.7592208 -0.003226429 -0.6508251 2235682 female
-0.6226298 0.8343858 0.1123482 0.4800344 0.1746592 -0.8596866 2894635 female
-0.6573356 0.3133661 0.06920078 -0.656222 0.08508688 -0.7497553 14608379 female
-0.6514083 0.08922534 0.001721686 -0.8882713 0.2508169 -0.3847921 3223356 female
-0.3786748 -0.3874318 0.07727617 -0.009297643 0.04322395 0.9990221 2170913 female
-0.7082741 0.6717934 0.1311897 -0.06827061 -0.8309721 -0.5521092 14994874 female
-0.4449668 0.3798264 0.02384796 -0.8567008 -0.4476378 -0.2562893 14606065 female
-0.6276426 0.3963278 0.03788052 -0.2811342 -0.7543715 -0.5932007 8291470 female
-0.5935927 0.7566645 0.2176625 0.7128782 -0.4125781 0.5670837 3486510 female
-0.6228741 0.8533167 0.1185342 0.4655474 0.4026268 -0.7881353 2433825 female
-0.5635445 -0.6507705 0.04737961 0.225814 0.2629966 -0.9379983 2169889 female
-0.5827334 0.859971 0.1841893 0.867115 0.4950868 0.05477848 5459531 female
-0.6652584 0.155318 0.2773096 -0.8528554 -0.0004644474 0.5221469 4672081 female
-0.6433604 0.7511039 0.2389248 0.1672204 -0.3958012 0.9029832 2235682 female
-0.37562 0.08454042 -0.06635338 0.6294764 0.0452464 -0.7757011 14079958 female
-0.6249589 -0.6424018 0.07830174 -0.767021 0.3836697 0.5142726 2303531 female
-0.5875489 -0.2106326 0.0565256 -0.4034307 -0.2400916 0.8829494 2038815 female
-0.5594646 -0.2550681 0.1671454 0.9995894 -0.01749692 0.02269133 2763826 female
-0.4602853 0.116504 -0.006344318 0.7250479 0.1793529 -0.6649346 10001056 female
-0.5632782 0.4995368 0.3323081 0.4567414 -0.1422886 0.8781465 12239308 female
-0.4870879 0.3218004 0.2378794 0.9536436 -0.1320544 0.2704171 6448245 female
-0.6641701 0.05072966 0.1466524 -0.6047045 0.2762448 -0.7470081 3618368 female
-0.5980409 0.6020131 0.07072216 -0.6855369 0.4406425 -0.5795459 13026511 female
-0.5883576 0.2105519 -0.01320028 -0.3906756 0.2730917 -0.8790867 15725567 female
-0.5457578 -0.4053721 0.09054893 0.6898598 0.1891873 -0.6987858 2170145 female
-0.4448745 0.07572268 0.009575405 0.8614531 -0.07961801 -0.5015571 2500651 female
-0.6601328 -0.05284333 0.2778539 -0.5683835 -0.2272006 0.7907718 2367780 female
-0.6417227 -0.6722541 0.04084239 -0.1894103 0.5088359 -0.8397676 14205376 female
-0.5506272 -0.2005088 0.1806626 0.9770922 -0.1892293 0.09738163 2106409 female
-0.5216046 -0.2443242 0.02783253 0.6474226 0.4317611 0.6280338 2237738 female
-0.6154204 0.1622276 0.408418 0.001446682 -0.1972641 0.9803493 6710888 female
-0.6957162 0.2217972 0.1000654 -0.9364765 0.09597439 -0.3373435 9277083 female
-0.7368242 -0.7230905 0.09928681 0.04135468 -0.9983697 0.03934068 1841433 female
-0.7004856 0.8459517 0.2446545 -0.4073383 0.3170801 0.856467 1907741 female
-0.6821594 0.5577365 0.2334864 -0.9247463 0.3500818 -0.1492881 15856891 female
-0.704717 -0.08612586 0.1929318 -0.9962201 -0.0845977 -0.01971576 2500142 female
-0.6725291 0.6608902 0.1691429 -0.7439371 -0.6384055 0.197474 16706523 female
-0.6173033 0.1401535 -0.0167224 -0.662484 0.2917736 -0.6899152 14476792 female
-0.3160535 -0.6136724 0.0548796 -0.876609 0.2623174 0.4034182 13940911 female
-0.6929737 0.566792 0.3174962 -0.9135697 0.4035397 -0.05045847 15527676 female
-0.5807217 -0.1763621 0.1150033 0.4466062 0.117173 -0.887025 2171937 female
