# .PCD v0.7 - Point Cloud Data file format
VERSION 0.7
FIELDS x y z normal_x normal_y normal_z rgb label
SIZE 4 4 4 4 4 4 4 4
TYPE F F F F F F U U
COUNT 1 1 1 1 1 1 1 1
WIDTH 172
HEIGHT 1
VIEWPOINT 0 0 0 1 0 0 0
POINTS 172
DATA ascii
0.3275988 0.01321515 1.384598 0.9796206 -0.1478403 -0.1359658 2433573 female
0.3886858 0.03682659 1.354319 0.6625392 -0.04801166 0.7474869 2698289 female
0.2141749 0.7452325 1.263891 -0.9713179 -0.2177322 0.09557267 13943731 female
0.3242897 -0.0043955 1.358991 0.9817587 -0.02227844 -0.1888219 2171175 female
0.2265151 0.0654847 1.241359 -0.9141099 -0.138048 -0.3812424 12632790 female
0.1161511 0.4598567 1.406501 -0.8148447 -0.1950987 0.5458613 14080990 female
0.03444581 0.336375 1.457506 0.8936596 -0.3021746 0.3317576 6776171 female
0.1722701 0.5554562 1.255302 -0.09525868 0.3624122 -0.9271371 5659738 female
0.2275526 0.5340983 1.235999 0.04371017 0.4305118 -0.901526 7368567 female
0.388872 0.5175369 1.409062 0.1043335 -0.3616302 0.9264654 14015981 female
0.1005988 0.4546028 1.335467 -0.9944109 -0.09524165 -0.04556289 723211 female
0.1598309 -0.1148692 1.318685 -0.8961404 -0.4166267 0.152822 2170913 female
0.3482594 -0.2870345 1.462846 -0.9073721 -0.3373525 0.2507375 1644825 female
0.1502497 0.08558983 1.355418 -0.8127751 0.3065549 -0.4953995 4145480 female
0.3690163 -0.1228643 1.293052 0.3744209 -0.5604048 -0.7387526 2170657 female
0.373527 -0.2204856 1.367129 0.1214975 -0.5234931 -0.8433228 2433061 female
0.3807733 -0.4024696 1.482856 -0.9687978 -0.2476122 -0.01090683 2105377 female
0.2092307 -0.1253963 1.220045 -0.3964173 0.2077868 -0.8942472 2170403 female
0.1404932 0.1422215 1.351505 -0.9327748 -0.3067054 -0.1893751 10265266 female
0.2434948 0.764267 1.189792 -0.379941 0.1123537 -0.918162 16242120 female
0.5465155 0.2850813 1.394991 -0.3471411 -0.8681994 0.3545741 10066853 female
-0.04928786 0.03357785 1.481826 0.8439517 -0.06422763 -0.5325602 13214881 female
0.1380402 -0.04662034 1.36289 -0.947264 -0.2921576 0.1316615 2104352 female
0.4238194 -0.1500989 1.405442 0.984524 0.1127471 0.1341662 2499878 female
0.3052747 -0.215292 1.392719 -0.8083369 -0.4891655 -0.3275798 2697516 female
-0.01892033 0.2307953 1.497239 0.5693148 -0.08383073 0.8178344 13553622 female
0.1738152 -0.03961707 1.451204 -0.5892485 -0.4968961 0.6370875 1974050 female
0.3983595 -0.4843497 1.492777 -0.9418525 -0.2652023 -0.206353 2301989 female
0.3348128 0.6556706 1.329093 0.604924 0.697706 -0.3837619 15124666 female
0.332654 -0.4946271 1.181979 0.7839682 -0.297819 0.5446995 2698031 female
0.2943109 -0.63283 1.020596 0.7277937 -0.4019708 -0.55564 8089710 female
0.1964218 0.1011254 1.255474 -0.5538567 -0.5015655 -0.6645861 6843000 female
0.1756045 -0.06432696 1.428002 -0.5891868 -0.560284 0.5821862 2105895 female
0.2259931 0.3112485 1.46741 0.002090188 0.1062958 0.9943323 6776944 female
0.259688 0.6461314 1.258371 -0.1348328 -0.3856078 -0.9127578 16708069 female
0.2575378 0.5877251 1.41445 -0.07744563 0.3382841 0.9378518 15725823 female
0.47327 -0.3188995 1.479928 0.9231103 0.3303072 0.196887 2499878 female
0.04376528 0.3518744 1.439444 0.901929 -0.4302118 0.03797291 7763065 female
0.3344178 -0.1020689 1.26536 0.08496752 -0.6163917 -0.7828422 2170913 female
0.2768281 0.2901495 1.211882 -0.01791909 0.09892815 -0.9949332 15199995 female
0.2357499 0.3822677 1.223248 -0.2887201 0.03807605 -0.9566561 10000809 female
0.2500907 0.4658725 1.208359 -0.1336011 0.1984151 -0.9709697 14214122 female
0.1362586 0.2579771 1.410795 -0.9539974 0.09830892 0.283239 11185072 female
0.3096313 -0.3129987 1.175864 0.4082292 0.3617425 -0.8381475 1907741 female
0.1455424 -0.07623891 1.319444 -0.9595309 -0.278257 -0.04328197 2499622 female
0.2399607 0.6714939 1.258957 -0.6035883 -0.2761483 -0.747946 16375248 female
0.133592 0.02047477 1.425144 -0.9415405 -0.177819 0.2861501 1906973 female
-0.07418221 0.1786568 1.476904 -0.9487069 0.1318863 -0.2873344 4605000 female
0.1914652 -0.0776505 1.426783 -0.4356378 -0.626368 0.6464385 2170913 female
0.3155061 -0.4710968 1.212438 0.4142963 -0.4728766 0.7776543 2302761 female
0.3968159 0.625837 1.349002 0.2449644 0.9463468 -0.2107611 12763590 female
0.264933 -0.2750909 1.287308 -0.03495006 -0.2443124 0.9690666 2171945 female
0.6656921 0.2843825 1.312833 -0.02761678 0.6739112 -0.738296 13159901 female
0.315667 -0.6554718 1.1134 -0.5079765 -0.4033398 0.7611024 12757665 female
0.3581897 0.2223487 1.419194 0.744962 0.4405178 0.5009748 5526623 female
0.1346931 0.644828 1.348736 -0.4866695 0.8347632 0.2575331 13948130 female
-0.03695014 0.1943176 1.505099 0.3837282 -0.03992646 0.9225826 11909826 female
0.4596385 0.4756013 1.336594 0.1423755 -0.1954008 -0.9703339 12699345 female
0.2879285 -0.005115635 1.20194 -0.2755702 -0.417024 -0.8661132 2762539 female
0.322436 0.6454732 1.390814 0.1268949 0.6664115 0.7347064 11508880 female
0.04046011 0.3454367 1.440846 0.8951444 -0.4454681 -0.01657426 9473684 female
-0.07202426 0.1374936 1.473319 -0.7351419 -0.159697 -0.6588347 8553602 female
0.1964812 0.05891505 1.511903 -0.401924 -0.1623107 0.9011728 13027278 female
0.3838383 -0.241743 1.501528 -0.005609069 0.1631921 0.9865783 2171170 female
0.321751 0.7666727 1.194148 0.4666242 0.07895275 -0.8809247 15324609 female
0.02911654 0.4667323 1.335196 -0.6266303 -0.2923271 -0.7224122 11646654 female
0.03802767 0.4691642 1.326818 -0.4754242 -0.4082626 -0.7792904 13554653 female
0.3424487 0.1905215 1.465315 0.7089379 0.3906338 0.5872073 15134462 female
0.251218 0.9006212 1.268318 -0.479394 0.8770365 -0.03143641 2434853 female
0.2015555 0.2984826 1.224118 -0.4665844 0.01701244 -0.884313 5196632 female
0.7432135 0.1919638 1.303331 -0.03816151 -0.6169474 0.7860786 15133167 female
0.4197787 0.115326 1.230255 0.8536028 0.1340703 -0.503376 11777211 female
0.2537535 0.7219377 1.34194 -0.3179808 0.1697646 0.9327745 3749167 female
0.3111421 -0.05638358 1.298898 0.8940428 0.148912 -0.4225075 1776675 female
0.3736968 0.3472691 1.349847 0.9107013 -0.01555854 0.4127723 9934499 female
0.3008412 -0.1778208 1.430876 -0.8579406 -0.1206448 0.4993823 1973793 female
0.3760908 -0.04202807 1.231461 0.4774219 -0.4642379 -0.7460238 2302499 female
0.4245152 0.4454398 1.367102 -0.6420168 -0.4849995 -0.5937929 658186 female
0.3656566 0.1832769 1.436893 0.7945191 0.337356 0.5049063 15198207 female
0.1383347 0.2808289 1.413465 -0.9350183 0.07529636 0.3465129 4736323 female
0.252158 0.6920105 1.353468 -0.1621406 0.5590265 0.813142 15256255 female
0.1741635 -0.1564624 1.266821 -0.9474909 -0.2897018 -0.1354024 1973536 female
0.4188756 -0.6178461 1.559948 -0.6239039 -0.03964197 0.7804949 2106406 female
0.3533537 -0.26522 1.487307 -0.7841435 -0.1499789 0.6021838 2302499 female
0.3155563 -0.05650073 1.229674 -0.06096648 -0.5364888 -0.8417023 2697001 female
0.2987262 -0.1742045 1.346581 -0.6206095 -0.635248 -0.459678 2697257 female
0.06257486 0.5572106 1.379106 -0.32397 0.511712 0.7957351 6119275 female
0.3244546 -0.2367746 1.239894 0.9768219 -0.1214925 0.1762343 2039586 female
0.2478127 0.426067 1.207348 -0.3330465 -0.2891795 -0.8974716 15067635 female
0.3320165 0.6623253 1.362608 0.4119567 0.8514326 0.3245829 16375245 female
0.3913931 0.5790807 1.416755 0.2805109 0.2488638 0.9270278 14673647 female
0.4457317 0.431357 1.356313 -0.4865174 -0.3943268 -0.7796199 986895 female
0.3185833 -0.289087 1.259177 0.8140364 0.1625448 0.5576054 2172459 female
0.3470244 0.7814887 1.227921 0.9622366 -0.05990168 -0.2655417 11050382 female
0.05484788 0.3762458 1.42663 0.9391087 -0.3302106 0.0950575 3487549 female
0.6718584 0.2809681 1.309934 -0.01462027 0.6936588 -0.7201554 9868707 female
0.215711 -0.2642093 1.250488 -0.9060529 -0.3308434 0.2638385 1842721 female
0.216396 0.3288995 1.463095 -0.1011863 0.02795225 0.9944747 14146285 female
0.4290753 -0.6685227 1.493062 -0.1166352 0.5313001 -0.8391165 16111309 female
0.1461274 0.3910514 1.424675 -0.7546475 0.003336892 0.656122 1709850 female
0.309903 0.3316411 1.222929 0.2465267 0.019853 -0.9689326 13817313 female
0.3531238 0.8529802 1.312779 0.883725 0.3143883 0.3466844 2697766 female
0.2201272 0.7275611 1.227724 -0.9365292 -0.2502259 -0.2455609 16442580 female
0.3905325 0.1273253 1.198949 0.6558499 0.0789412 -0.7507524 9804195 female
0.4345617 -0.7239119 1.489903 0.3677681 -0.8727839 0.3209281 526600 female
0.2792158 -0.1202254 1.403034 -0.8518124 -0.04713009 0.5217226 1645601 female
0.3790444 0.2171227 1.207051 0.624535 0.2881635 -0.7258911 14606311 female
0.1748975 0.5330075 1.446133 -0.1708429 0.1348877 0.9760215 7039863 female
0.3142731 -0.1782085 1.222689 0.7518205 0.3464509 -0.5610148 2169889 female
0.1377238 0.4668093 1.226969 -0.5842929 0.298159 -0.7547867 14736872 female
0.2854868 -0.08757751 1.263629 -0.3844256 -0.5936174 -0.7069904 2697001 female
0.4190742 -0.5240827 1.485062 -0.4344054 -0.3862455 -0.8136992 2236962 female
0.1332846 0.1919057 1.43157 -0.9635478 0.08723094 0.2529159 6185317 female
0.2587498 -0.07622307 1.277247 -0.7113642 -0.5127005 -0.4807278 2697257 female
0.133846 0.1208637 1.445693 -0.9860596 0.01374129 0.1658238 15133437 female
0.4805863 -0.3480333 1.468744 0.9844948 0.1254341 -0.1226228 2105121 female
0.2524268 0.7275829 1.192117 -0.4913652 -0.5834921 -0.6466044 12032398 female
0.2874215 0.4059979 1.43178 0.5825556 -0.217252 0.783218 15726079 female
0.09710586 0.4805185 1.371519 -0.9290788 -0.2949161 0.2232425 592393 female
0.3118995 0.005235801 1.330243 0.8516322 0.1965154 -0.4859057 1973793 female
0.3511245 0.7861311 1.246056 0.9766225 -0.1703091 -0.1311611 4736831 female
0.3132016 0.8905331 1.21861 0.3832373 0.7956489 -0.4691182 2696225 female
0.1433758 -0.07049092 1.329408 -0.9560916 -0.293034 0.004467597 2170403 female
0.3914951 -0.4370688 1.515893 -0.9279832 -0.1744647 0.3292557 1645085 female
0.188059 0.3288771 1.456803 -0.3751002 0.02433836 0.9266647 9867414 female
0.2078283 0.2240356 1.215579 -0.42358 0.04907878 -0.9045282 13489385 female
0.2515397 0.7431273 1.339817 -0.4732236 -0.2250562 0.8517095 3025961 female
0.7366065 0.1897946 1.296822 -0.4763265 -0.8576714 0.1936825 14014173 female
0.4006484 0.5519237 1.279906 0.5371678 0.2384764 -0.809061 14144992 female
0.31313 -0.363669 1.15624 0.2680182 0.3423374 -0.9005395 1973278 female
0.2828023 0.6409092 1.265897 0.4106183 -0.2928695 -0.8634929 16773602 female
0.2368885 0.4415863 1.208732 -0.2189325 -0.1064582 -0.969915 15329010 female
0.3264531 -0.008822082 1.20053 0.0306736 -0.4250747 -0.9046384 1843236 female
0.4698423 -0.4461369 1.528857 0.7826861 0.09305529 0.6154211 2303531 female
0.2913767 0.7706999 1.177517 0.8679653 0.1630524 -0.4690951 14599093 female
0.4974987 0.434642 1.350652 0.4708615 0.1041926 -0.8760328 9342363 female
0.3910231 0.4504192 1.239984 0.9047608 -0.0314282 -0.424759 6250604 female
0.2795148 0.8114333 1.368368 -0.07454149 -0.01144096 0.9971523 7892325 female
0.3456128 0.800917 1.328434 0.8311677 -0.2097828 0.5149285 3157804 female
0.3289306 -0.5841552 1.091496 0.8584746 0.3568383 -0.3683582 1645082 female
0.3089345 0.8513831 1.360708 0.2853236 0.3335843 0.8985053 5459531 female
0.1293232 0.1592565 1.395052 -0.9884279 -0.1515259 -0.007080342 10790583 female
0.2171588 0.7121202 1.297228 -0.9857978 0.08019284 0.1475528 10587784 female
0.7286462 0.2553016 1.294184 0.6131959 0.7897607 -0.01639522 10595252 female
0.2332478 -0.627924 1.028194 -0.6970486 0.6170762 0.3651578 12953244 female
0.3643538 -0.2239335 1.496811 -0.332815 0.06247177 0.9409205 1842209 female
0.265875 -0.2134242 1.31547 0.1532394 -0.5154644 0.8430979 2368300 female
0.4053232 0.1856973 1.225449 0.8174399 0.1621492 -0.5527204 14870258 female
0.1049874 0.4333273 1.331817 -0.9722794 -0.2329998 -0.01958864 8882319 female
0.1247318 0.4053288 1.389652 -0.9308559 -0.1715919 0.322589 1051664 female
0.1383106 -0.04943009 1.32385 -0.9752135 -0.1756577 -0.1345472 2697261 female
0.254404 0.6286051 1.264958 -0.01489484 -0.241135 -0.9703773 15783111 female
0.3856814 0.22256 1.216439 0.6882355 0.330505 -0.6458316 12303299 female
0.346157 -0.4364349 1.174955 0.9954298 -0.07370472 -0.06072164 1842980 female
0.4218649 0.187698 1.264462 0.9370653 0.2350942 -0.258146 4539983 female
0.163294 -0.03217069 1.443715 -0.6945634 -0.4499493 0.561362 2236706 female
0.3315002 -0.6334028 1.057386 0.7104762 0.1204103 -0.6933434 8223604 female
0.236878 -0.1268169 1.388716 -0.004574141 -0.6284022 0.7778751 2171174 female
0.4202151 -0.1888941 1.450303 0.8654973 0.280311 0.4151388 2302505 female
-0.01394536 0.3157906 1.485403 -0.1377336 0.3044605 0.9425144 6842221 female
0.1413753 0.1924757 1.280619 -0.8839778 -0.1021755 -0.4562274 6118753 female
0.2121733 -0.6636093 1.011446 -0.2731891 -0.9481269 -0.1625521 8677731 female
0.2161489 0.8207205 1.23505 -0.951565 0.03457769 -0.3054969 4210231 female
0.1104499 0.4643842 1.265507 -0.9537197 0.05255453 -0.2960689 9671318 female
0.2524017 -0.01100572 1.264634 0.3090185 0.335725 -0.8898293 2237479 female
0.2291862 0.6944197 1.340255 -0.530971 0.5994307 0.5989597 16243144 female
0.2489382 0.0562074 1.207302 -0.7376137 -0.1115668 -0.6659421 15068661 female
0.4290351 -0.7276158 1.486728 0.3509735 -0.8926595 0.2828016 526600 female
0.1035751 0.6171139 1.362854 -0.6261584 0.6570222 0.4198184 15198199 female
0.2848833 0.06289724 1.343726 0.5766169 0.1952109 -0.7933509 1908259 female
0.1689511 0.5700389 1.434693 -0.1597636 0.3667343 0.9165051 15331067 female
-0.03313706 0.07309198 1.482435 0.7192057 -0.5486087 0.4263468 4470840 female
