# .PCD v0.7 - Point Cloud Data file format
VERSION 0.7
FIELDS x y z normal_x normal_y normal_z rgb label
SIZE 4 4 4 4 4 4 4 4
TYPE F F F F F F U U
COUNT 1 1 1 1 1 1 1 1
WIDTH 171
HEIGHT 1
VIEWPOINT 0 0 0 1 0 0 0
POINTS 171
DATA ascii
0.04358466 -0.007459434 1.621203 0.4755692 0.2786759 0.8343702 1710625 female
-0.05554647 -0.02420538 1.66329 -0.4525401 -0.8067646 -0.3799188 1579291 female
0.04941312 0.7375754 1.566014 0.7652276 -0.01817049 0.6435034 15786191 female
0.01870771 -0.0287117 1.636393 0.2479543 0.1978641 0.9483504 2698281 female
0.1022773 0.07344009 1.7561 0.713127 0.3157372 0.6259073 1843236 female
-0.1513169 0.5666286 1.439621 0.1102847 0.7089581 -0.6965743 13488854 female
-0.089187 -0.3784648 1.628587 0.6046459 -0.5400712 -0.5854283 2171945 female
0.0876248 0.3242605 1.606558 0.9584493 0.2768306 -0.06884564 13620965 female
-0.0241094 0.5562118 1.519817 0.5962819 0.3649552 -0.7150214 15724543 female
-0.1203599 0.506955 1.698061 -0.8692808 0.2695636 0.4143506 11841979 female
-0.1261139 0.5674042 1.445579 0.490768 0.6008701 -0.630953 15396090 female
-0.08204335 -0.2211645 1.553021 -0.4547036 -0.3402451 -0.8230904 1842209 female
0.2222609 -0.3749165 1.597758 0.2690121 0.05274615 -0.9616914 1711393 female
0.02504011 -0.01192881 1.443482 0.3559648 -0.2310661 -0.9054819 3026990 female
0.06315252 -0.03494998 1.780974 0.1422119 -0.282843 0.948565 2170406 female
0.2206524 -0.1985883 1.657208 0.8945398 0.1212659 0.4302246 1974310 female
0.3048766 -0.4955332 1.6338 0.8553784 0.2765676 -0.4379932 2631464 female
0.02325371 -0.1265006 1.642168 0.5887374 -0.04723356 0.8069431 1908003 female
0.09907681 0.2691353 1.593876 0.9718311 0.1934592 -0.1346025 10396080 female
0.004390012 0.718956 1.459809 0.1763516 -0.1235954 -0.9765369 16309454 female
0.03884861 0.3066808 1.865567 0.9448071 0.09989133 -0.3120276 15726591 female
-0.1729326 0.4387018 1.515526 0.6504453 -0.2028465 0.7319659 526344 female
0.07193343 0.02466191 1.472183 0.8120254 -0.01629699 -0.5833945 13751010 female
0.1131049 -0.2561469 1.626539 -0.8692847 -0.4901555 0.06396639 2500142 female
0.2123777 -0.2121331 1.587954 0.5353183 0.08481321 -0.8403815 1973534 female
-0.1850499 0.3517761 1.51475 0.7664698 -0.1717822 0.6188821 3223350 female
-0.1133184 -0.2061794 1.585905 -0.9330121 -0.03564868 -0.3580748 2171172 female
0.3195391 -0.5719995 1.6648 0.5669478 0.06866807 0.8208866 1775899 female
0.06396116 0.57347 1.68308 0.7079709 0.4423903 -0.5505162 16054265 female
-0.2095172 -0.418101 1.730779 -0.7436349 0.361954 0.5621356 2499879 female
-0.2002078 -0.6866888 1.777423 0.2511823 -0.1889017 0.9493279 11049364 female
-0.02643813 0.3006483 1.472622 0.2630188 0.07913264 -0.96154 14672879 female
-0.1054559 -0.2132894 1.572882 -0.8086171 -0.1610332 -0.565868 2171171 female
-0.1060293 0.1867851 1.475486 -0.7056054 0.3254842 -0.6294291 8618902 female
0.01308917 0.6331595 1.578598 0.9948123 -0.1006395 0.01483767 16771805 female
0.06653932 0.08336936 1.908448 0.7889357 0.09375428 0.6072814 7367534 female
0.1485655 -0.3574823 1.648611 -0.9827858 -0.1845262 0.009069418 2303273 female
-0.07098044 -0.3616307 1.633419 0.6531957 -0.6534117 -0.3826075 1776929 female
0.1810325 -0.08886583 1.703082 0.7920752 0.04711961 0.6086022 1973278 female
0.01916468 0.3633083 1.726286 0.5332277 -0.03344548 0.8453103 12962258 female
0.05550479 0.3352571 1.69338 0.8183662 0.1362592 0.55831 13028571 female
0.04711301 0.2991421 1.711901 0.7110388 0.2287232 0.6649132 14608375 female
0.0653553 0.2071851 1.499903 0.662744 0.1709598 -0.7290701 15200255 female
-0.1840938 -0.5422647 1.750104 0.8158513 -0.1688274 0.5530677 2171174 female
0.08904091 0.02466259 1.519009 0.9869633 0.05972113 -0.1494552 3356220 female
-0.03530042 0.6134762 1.529296 0.1528241 -0.2547769 -0.9548474 16773603 female
-0.01441056 0.06483057 1.424195 0.04480592 -0.0158912 -0.9988693 7698046 female
-0.195222 0.3155434 1.478443 0.5556422 0.8195223 0.1401604 11185080 female
-0.07676975 -0.02529736 1.456065 -0.5872701 -0.2829912 -0.7583072 2170406 female
-0.2140122 -0.4529319 1.745792 -0.6291986 0.3503806 0.6937885 2499878 female
-0.05919373 0.5362712 1.75129 -0.4201352 0.1776044 0.8899118 8685713 female
-0.0122367 -0.2014074 1.666263 0.5018085 0.01129814 0.8649049 2368295 female
0.02523879 0.1471358 1.917631 -0.2212548 0.002603678 0.9752125 6316904 female
-0.275662 -0.6640809 1.752856 -0.6239511 0.04020053 -0.7804287 13611433 female
-0.1473378 0.04300861 1.567838 -0.9702279 -0.2347431 0.05961062 11646408 female
-0.1614768 0.5952785 1.537453 -0.6876292 0.7220318 0.07639486 13948130 female
-0.1947324 0.3760133 1.526917 0.4667355 -0.1593417 0.8699242 2762275 female
0.07763586 0.4886121 1.763121 0.9267044 -0.374575 -0.03020629 14146278 female
0.1226446 0.05406542 1.737568 0.7945343 0.3243021 0.5133647 2499625 female
0.04869191 0.6004677 1.718211 0.4495998 0.883253 0.1331321 13356236 female
-0.08915921 -0.3611793 1.616521 0.4028479 -0.5207036 -0.7527159 2105634 female
-0.1710227 0.2865445 1.50503 0.5457135 0.3515145 0.7606802 4540494 female
0.003399292 -0.07989335 1.461988 0.1871999 -0.4084479 -0.8933793 1777187 female
0.1875342 -0.408294 1.699898 -0.522665 -0.2647274 0.8103954 1973793 female
0.4413631 -0.6554082 1.620078 0.1412822 0.8823305 0.4489235 16573402 female
-0.2536398 0.3148872 1.456566 -0.6588378 0.08274025 -0.7477211 13158865 female
-0.2601159 0.3403215 1.490898 -0.9956753 0.05256973 -0.07659612 7368312 female
-0.1462055 0.1283439 1.591772 -0.982126 0.1605117 0.09830777 11055547 female
-0.09132051 0.8366591 1.501939 -0.6716979 0.5369586 -0.5103896 2170913 female
0.04358806 0.3352306 1.70896 0.7353379 0.1305618 0.665005 14607343 female
0.09817183 0.001954675 1.886695 0.9361358 0.301322 -0.1812591 16768984 female
-0.1058512 0.2122008 1.70913 -0.8746448 0.2684466 0.4036494 15201023 female
-0.08760372 0.6623346 1.585052 -0.9215738 0.3173358 0.2236064 16640219 female
0.04747751 0.6951611 1.481775 0.5578213 -0.3672325 -0.7442954 15387080 female
-0.1191055 0.2748954 1.630698 -0.9723573 -0.2282658 0.04915217 12370130 female
0.1702049 -0.3276413 1.59734 -0.4352548 -0.2501254 -0.8648644 1973534 female
0.1626584 -0.01026617 1.712112 0.8539396 0.2269159 0.4682908 2302499 female
0.004578267 0.2112986 1.857411 -0.2167336 -0.3361782 -0.916521 527368 female
-0.1476182 0.06626111 1.592202 -0.9785327 -0.1181288 0.1688764 13619935 female
0.0562077 0.2322059 1.499981 0.6211437 0.2174554 -0.7529234 12041922 female
-0.09554297 0.6449701 1.577246 -0.7916954 0.6109157 0.0007558214 15585732 female
0.0383854 -0.1812665 1.563095 0.8168068 -0.4958085 -0.2949587 2171174 female
0.3865088 -0.6780367 1.576733 -0.2535684 -0.8930457 -0.3717157 526600 female
0.1765378 -0.268307 1.579866 0.1611516 -0.1167649 -0.9799981 1974304 female
0.1246888 0.07921198 1.702466 0.8410119 0.5274462 0.1204135 3289402 female
0.2283586 -0.2064997 1.643989 0.9346375 0.1628326 0.3161301 2368554 female
-0.2220151 0.5215144 1.484278 -0.9501317 0.2511531 0.1848564 13290460 female
-0.1132759 -0.1498465 1.569212 -0.9670805 0.0195873 -0.2537156 2565161 female
0.05333376 0.316913 1.699587 0.7885003 0.1766608 0.5891165 14936051 female
0.08368433 0.554648 1.700567 0.8946404 0.1244801 -0.4290957 15329785 female
-0.08067925 0.581111 1.709387 -0.6609532 0.5458105 0.5150065 16251903 female
0.001090789 0.2510283 1.8451 -0.02915503 -0.2826306 -0.9587857 1051664 female
-0.112039 -0.2437651 1.664342 -0.8845229 0.3173162 0.3419499 2303273 female
0.3364798 -0.6455902 1.595825 -0.5043749 -0.0857176 -0.8592197 8418422 female
-0.0602509 -0.3388809 1.676868 0.7391341 -0.4075333 0.5362811 1841692 female
0.03078086 0.1255782 1.920008 -0.315226 0.04080469 0.948139 4737873 female
0.009848034 -0.2338158 1.641241 0.8278019 -0.2362916 0.5088323 2170401 female
-0.1099327 0.2431539 1.491201 -0.7384493 -0.04574637 -0.6727554 4867663 female
0.4234736 -0.6816902 1.625143 0.2033432 -0.9470614 0.2484481 592649 female
-0.1286886 0.2392013 1.583874 -0.9757733 -0.05943711 0.2105556 11843012 female
-0.04002301 0.2896874 1.742687 -0.1705135 0.08983852 0.9812513 1315860 female
-0.03976142 0.8219211 1.61865 0.06744774 0.3473901 0.9352919 3025958 female
0.02612064 0.7163968 1.586263 0.5644134 -0.175598 0.8065996 13482412 female
-0.02118609 0.001842473 1.787168 -0.3254239 -0.3244134 0.8881752 2368809 female
0.1051233 0.1021307 1.551797 0.8531253 -0.2917617 -0.4324956 8554641 female
0.228919 -0.4667236 1.603711 -0.1975994 -0.2337067 -0.9520167 1972766 female
-0.09305864 0.1812282 1.748892 -0.7190766 0.3044438 0.6246942 14541558 female
-0.1832833 0.5182478 1.59753 -0.8232419 0.2767963 0.4956376 15396603 female
-0.1431143 -0.4107436 1.742455 0.480571 0.02843083 0.8764948 1579291 female
0.07599911 0.3576861 1.597005 0.9202856 0.3430941 -0.1880447 16251903 female
0.182499 -0.1124668 1.701798 0.7429596 0.01235708 0.6692222 1973536 female
0.3044235 -0.4974318 1.63128 0.810965 0.270651 -0.5187329 2697257 female
0.007665748 0.2416597 1.470122 0.4222553 0.1808433 -0.8882545 14737897 female
0.1163861 -0.0226872 1.592822 0.3463788 0.1797939 -0.920704 2039329 female
0.04049118 0.117993 1.448112 0.6080341 0.02833452 -0.7934051 14607859 female
0.1539859 -0.3733352 1.631327 -0.9288931 -0.2317955 -0.2888396 2303017 female
0.02033496 0.7736182 1.600947 -0.1976855 -0.2152264 0.9563462 4143410 female
-0.1817045 0.464225 1.613785 -0.8738706 0.01639234 0.4858823 14080235 female
-0.09548436 0.5043252 1.447607 0.5501879 -0.04118257 -0.8340247 14540008 female
-0.09133945 0.7313359 1.503429 0.1729223 0.2352686 0.9564239 15319477 female
0.339518 -0.5969289 1.604768 0.1326022 0.3959207 -0.9086603 2170913 female
0.01680895 0.8623608 1.507134 0.4529789 0.8651102 -0.2153939 2696225 female
0.08961133 0.03450056 1.527539 0.9950848 0.04270111 -0.08934643 8949407 female
0.3361865 -0.5615866 1.632204 0.9228486 0.376526 -0.0811078 2499886 female
-0.06282391 0.2738088 1.466861 -0.2007295 0.1026838 -0.9742503 15726591 female
-0.1534254 0.3783016 1.490878 -0.6409721 -0.3708915 -0.6720076 526600 female
-0.0795022 0.7042361 1.592263 -0.7124354 -0.188737 0.6758803 2697249 female
0.09435872 0.00892493 1.894509 0.7877477 0.161007 0.5945842 13479594 female
-0.05342926 0.6170828 1.692437 -0.4480105 0.727968 0.5189887 12239827 female
-0.1970124 -0.6039237 1.767436 0.9061984 0.06422643 0.4179465 2171172 female
0.02503003 0.6594752 1.555306 0.6394211 -0.6075607 0.4711801 13285801 female
0.04326356 0.3037182 1.715007 0.6847801 0.2164491 0.6958635 5395806 female
0.1117177 0.09424385 1.696398 0.8174355 0.5760126 0.002968487 11646913 female
0.2536937 -0.5406285 1.622471 -0.5420677 -0.3513674 -0.7633502 1777185 female
0.3092581 -0.6036021 1.667207 -0.1094467 -0.08760878 0.9901243 2105120 female
0.05803052 0.4646991 1.749099 0.6906602 -0.5746412 -0.4390625 15658743 female
0.03033577 0.4566384 1.509807 0.7755077 0.4451097 -0.4477334 12832210 female
-0.09627275 0.7223721 1.57824 -0.7969437 -0.5074255 0.3277197 3551534 female
-0.01779496 0.8075929 1.61772 0.2801066 0.2055283 0.9377092 2696225 female
-0.2269832 -0.601061 1.788787 0.2462179 0.2787845 0.9282542 1382681 female
-0.08357172 0.8250957 1.608972 -0.5250227 0.407692 0.7470866 5459531 female
-0.1289446 0.2526614 1.517499 -0.9005537 -0.1491142 -0.4083723 14934770 female
-0.0764514 0.6520436 1.536958 -0.7721788 -0.04730862 -0.6336417 12297627 female
0.0926751 -0.01219111 1.89421 -0.237889 -0.3009084 0.9235058 3025450 female
-0.1864976 -0.6679515 1.737777 0.6787239 0.5480144 -0.4888907 15717326 female
0.1870151 -0.04091438 1.664044 0.955767 0.294124 0.0007183293 2434085 female
-0.1770073 -0.5198571 1.690895 0.4617706 -0.6061289 -0.6475922 2302499 female
-0.1110923 0.01462438 1.712691 -0.8451959 -0.4279847 0.3201142 2830387 female
-0.1364674 0.5858849 1.468253 0.1735555 0.8927496 -0.4157843 13817566 female
-0.156554 0.3218668 1.576858 -0.953194 -0.2719406 0.1321724 14606837 female
0.06192859 -0.06211971 1.488954 0.6955163 -0.3201506 -0.6432423 3223601 female
-0.02433787 0.6322048 1.685487 -0.04069502 0.8878454 0.4583388 15652035 female
0.02202035 0.153714 1.786691 0.3132414 0.228865 0.9216836 526344 female
-0.1281608 -0.3050642 1.69773 -0.3622248 0.6057942 0.7083831 2170146 female
-0.121935 0.03732439 1.710479 -0.8886874 -0.2990452 0.3475726 14080230 female
-0.0361198 -0.1673526 1.513024 -0.07217101 -0.5044419 -0.8604242 1907745 female
-0.2376698 -0.70599 1.735953 -0.4764388 -0.8137 0.3330142 527112 female
-0.1808803 -0.3444915 1.642581 -0.8164579 0.3740737 -0.4398469 2238505 female
0.1525056 -0.2018009 1.704945 0.08100533 -0.273241 0.9585288 2105381 female
-0.05710092 0.2322868 1.404004 -0.1960762 0.1997908 -0.9600196 4342083 female
0.007676463 0.2966488 1.48654 0.4780419 0.1284631 -0.868892 4078399 female
-0.2270207 -0.7161701 1.70238 -0.706593 -0.2752573 -0.6518894 12889512 female
-0.06796876 0.7798736 1.471264 -0.4823754 -0.1931551 -0.8544034 2500134 female
0.02714445 0.4299064 1.474369 0.7643886 0.3501485 -0.5413927 15461363 female
0.08050771 -0.07502838 1.547177 0.9637924 -0.2558498 -0.07513383 2303014 female
0.01555058 0.6451263 1.524016 0.1838532 -0.9754867 -0.1209284 14601405 female
0.06933721 0.004435258 1.78891 0.3195361 -0.07704709 0.9444366 2106152 female
0.1100298 0.1924193 1.557166 0.9233352 0.1178285 -0.3654703 12172752 female
-0.04257195 0.3781498 1.449464 -0.04082865 -0.5230778 -0.8513064 4605511 female
-0.1822415 0.4562259 1.519746 0.5044763 -0.2944802 0.8116558 986639 female
-0.1173701 0.593749 1.625814 -0.7462044 0.3895263 0.5398595 15199231 female
