# .PCD v0.7 - Point Cloud Data file format
VERSION 0.7
FIELDS x y z normal_x normal_y normal_z rgb label
SIZE 4 4 4 4 4 4 4 4
TYPE F F F F F F U U
COUNT 1 1 1 1 1 1 1 1
WIDTH 170
HEIGHT 1
VIEWPOINT 0 0 0 1 0 0 0
POINTS 170
DATA ascii
0.1211565 -0.1892174 0.7215419 0.7397159 -0.08556091 -0.6674576 2105378 female
0.1451884 -0.0954006 0.6377004 0.00956299 -0.4302744 0.9026475 1974048 female
0.04758859 0.7054598 0.5425537 -0.1081159 -0.3686033 -0.9232782 16772318 female
0.1312504 -0.1820243 0.7340776 0.8723826 -0.02132292 -0.4883585 2368036 female
0.1851741 0.06093613 0.5003693 0.3123698 0.2371488 -0.9198834 3684667 female
-0.02822695 0.6137248 0.750002 -0.5022746 0.8485368 0.1664496 11777975 female
-0.05885651 0.2679696 0.7782601 0.9457989 -0.323732 -0.02573208 10856116 female
-0.03843743 0.4440736 0.6038566 -0.488446 0.3606368 -0.7945827 14610423 female
0.06465568 0.5558529 0.6094207 -0.4086655 0.376403 -0.8314525 15658746 female
0.1840549 0.564923 0.7376576 0.3551309 0.4285783 0.8307844 15857149 female
-0.02905855 0.6033363 0.7718302 -0.3874783 0.7785963 0.4936075 12040898 female
-0.03465689 -0.1001023 0.7771685 -0.9079134 -0.2175659 0.3582714 2368292 female
0.115153 -0.3457292 0.4597236 -0.861908 -0.07045585 -0.5021461 1580065 female
-0.01586136 0.03359191 0.6601521 -0.6583152 -0.04244072 -0.751545 6710897 female
0.1503785 -0.1226821 0.4593995 0.2663452 0.08000834 -0.9605514 1973535 female
0.1844347 -0.2760584 0.4546116 0.6010205 0.1700388 -0.7809361 2696233 female
0.1265874 -0.4515988 0.4469863 -0.9012071 -0.03312121 -0.4321212 2105377 female
0.02167204 -0.2415565 0.8085351 -0.7798146 -0.1687743 0.6028304 2105120 female
0.02435922 0.08043543 0.5849868 -0.516927 -0.3438509 -0.7839343 13883362 female
-0.01994671 0.7304592 0.5979726 -0.9895177 -0.09696721 -0.107014 16571342 female
0.3568653 0.3049324 0.7070574 0.8641979 0.3279069 -0.3816268 12897239 female
-0.1447148 0.1072125 0.556836 0.5908498 -0.7969219 -0.1257457 986895 female
-0.04291728 -0.08294725 0.7643619 -0.9510228 -0.1955397 0.2394157 2104352 female
0.1203267 -0.2652753 0.5633597 -0.3062502 -0.3211239 0.896153 2170921 female
0.07831607 -0.2290389 0.4705035 -0.8996002 -0.06701934 -0.4315412 2171173 female
-0.0927659 0.2321905 0.7139403 0.7348563 0.1559807 -0.6600426 13552606 female
0.06978396 -0.2103845 0.8356143 -0.04270189 0.03306615 0.9985405 2170913 female
0.1177031 -0.4194647 0.4663374 -0.962886 -0.06965783 -0.260765 1973791 female
0.1817189 0.5857145 0.6044484 -0.07591327 0.6158 -0.7842368 13619415 female
0.2113409 -0.4605313 0.9660649 0.6950544 0.4764464 0.5384219 2697775 female
0.2351118 -0.6771858 0.9733638 0.7719674 -0.6311579 0.07553761 8550516 female
-0.005771671 0.2443145 0.5949073 -0.7264366 0.07230412 -0.6834193 14607351 female
0.02948488 -0.1785747 0.8282318 -0.5230134 -0.1130203 0.8447979 2170145 female
-0.0235907 0.1742298 0.8091091 -0.7416121 0.2036633 0.6391657 13555678 female
0.06533863 0.6549934 0.5947232 0.4050811 -0.7786612 -0.4791618 13680298 female
0.3926233 0.06975748 0.6675666 0.6383017 0.1749623 -0.7496393 16250879 female
0.2097914 -0.43581 0.4404641 0.7482131 0.02096728 -0.6631272 1645343 female
-0.05156371 0.2934262 0.788451 0.9692284 -0.2323437 0.08131752 13092816 female
0.1567684 -0.08504406 0.4645242 0.2940915 0.07113879 -0.9531262 1973536 female
0.1734644 0.2998162 0.5801046 0.5865365 0.1326714 -0.7989827 11187130 female
0.09872195 0.2795485 0.5586758 -0.001747114 0.1273638 -0.9918545 9210773 female
0.07408865 0.2833729 0.5592256 -0.05550365 0.09770668 -0.9936663 10000295 female
-0.04869483 0.2072661 0.7080207 -0.9962656 0.0811422 0.02950611 4475733 female
0.1233358 -0.4121358 0.8383721 -0.1283236 -0.6625938 -0.7379041 2235682 female
-0.0380938 -0.1132188 0.7487752 -0.9614863 -0.2685443 0.05854862 2170660 female
0.03930458 0.6187176 0.6374301 -0.8120932 -0.2207751 -0.5401509 16773346 female
-0.05271785 0.001032112 0.7678936 -0.9569718 -0.05917187 0.2840841 1906973 female
-0.1801854 0.1134627 0.6470994 -0.8261476 -0.3210364 0.4630505 12237501 female
0.0739714 -0.09339605 0.8373018 0.3013608 -0.0174708 0.9533501 2499881 female
0.1912499 -0.4302898 0.9615304 0.4985714 0.4730832 0.7263738 2434864 female
0.2343075 0.4914796 0.6871855 0.5463598 -0.267193 0.7937877 8291214 female
0.02747127 -0.3009285 0.7833296 -0.8958325 -0.4135621 0.1626359 2170147 female
0.3965963 0.1128642 0.7055277 0.9508983 0.1802916 0.2515695 9212055 female
0.2307698 -0.5848659 1.038857 -0.4107215 0.3878686 0.8251459 2302243 female
0.1836591 0.1420464 0.7799281 0.7417927 0.2519168 0.6215155 15132414 female
-0.01931061 0.7251343 0.6068761 -0.9823731 -0.1674211 0.08314696 16768206 female
-0.1183389 0.1593473 0.6987806 0.6955563 -0.6713108 0.2560141 11580352 female
0.2985547 0.447661 0.6345383 0.6808919 -0.2279356 -0.6960112 10394531 female
0.05889144 0.06481838 0.5674329 -0.9212713 0.04984043 -0.3857137 2960693 female
0.2142687 0.5339799 0.5778627 -0.1208071 0.1050484 -0.9871021 16185343 female
-0.05816901 0.2866015 0.7664924 0.8435525 -0.09078719 -0.5293173 12895692 female
-0.1503431 0.1469076 0.6186095 0.4429582 0.6455395 -0.622147 14146542 female
0.007168604 0.01497789 0.8413634 -0.4100204 -0.05850088 0.9101983 2171944 female
0.191599 -0.3846749 0.5352215 0.458613 -0.02742842 0.8882127 2237738 female
0.09408572 -0.6915712 0.2731909 0.2648495 -0.8453721 -0.4638975 527368 female
-0.1172099 0.4189286 0.770028 -0.991888 0.05729989 -0.1134673 5262418 female
-0.1132009 0.421769 0.7944332 -0.9166188 0.0946828 0.3883878 4802633 female
0.1404615 0.1892253 0.801099 0.6232864 0.3844086 0.6809877 10265261 female
0.02151213 0.8108633 0.6920726 -0.5856634 0.1478568 0.7969546 2697257 female
0.1296012 0.2635059 0.5540784 0.1212473 0.2005816 -0.9721451 12303815 female
0.3986355 -0.06911219 0.625761 0.6505401 0.07917515 -0.7553337 3158839 female
0.2481399 0.1926585 0.6504828 0.9187074 0.3673646 0.144983 14937083 female
0.0506498 0.6626046 0.7044469 -0.55924 0.4574695 0.6913553 14204849 female
0.006318872 0.7348771 0.6692095 -0.9956836 -0.07726537 -0.05142294 15254969 female
0.1824094 0.3661935 0.7434189 0.6668211 -0.154397 0.7290482 12238539 female
0.07569684 -0.2234926 0.5160207 -0.9543303 -0.2287366 0.1921802 1973534 female
0.1518469 -0.04207936 0.4671526 0.1969752 0.1258989 -0.9722912 2171172 female
0.2709518 0.3038647 0.7347649 -0.9416956 -0.3169205 0.1130076 12499649 female
0.1881923 0.1417339 0.7745273 0.744987 0.2421262 0.6215862 14408947 female
-0.0492606 0.1996453 0.7064639 -0.9974107 0.06858376 0.02163813 14148591 female
0.08072831 0.6497396 0.7244897 0.1271334 0.7314627 0.6699249 16704212 female
0.08952224 -0.1897191 0.6985232 0.3884437 -0.2298871 -0.892336 2369063 female
0.1715748 -0.7066848 0.370518 0.817072 -0.4543462 -0.3549125 789262 female
0.1283935 -0.3627371 0.5296112 -0.6254671 -0.1462226 0.7664268 2170913 female
0.07092288 0.04884149 0.5269682 -0.7894995 0.2966214 -0.537314 2698289 female
0.118801 -0.2015899 0.4468402 -0.1491017 0.06358674 -0.9867753 2040102 female
-0.04048155 0.4405521 0.7510743 0.7794785 -0.2660864 -0.5671079 526602 female
0.008006977 -0.02519644 0.8383296 -0.3870951 -0.1197558 0.9142297 2171688 female
0.08084462 0.2899714 0.5598627 -0.0189719 0.06955821 -0.9973975 15200255 female
0.193034 0.5153175 0.5748572 -0.01081071 0.01854158 -0.9997696 10328741 female
0.2076166 0.587984 0.7098561 0.5251933 0.5583897 0.6421627 15922171 female
0.2574709 0.3454044 0.7192312 -0.9340728 -0.3308454 0.1343475 3420212 female
0.1707606 -0.3276795 0.8623952 0.7965273 0.6005719 0.06969748 2172201 female
0.1794781 -0.663342 0.405607 0.7730526 0.2500739 -0.5829688 2170913 female
-0.04792964 0.3458822 0.7639892 0.8490443 -0.2047119 -0.487049 6183520 female
0.4023007 0.08926015 0.6956903 0.9936091 0.1056801 -0.03965691 3685184 female
0.03171275 -0.3076997 0.791432 -0.8950063 -0.3916433 0.2134931 2170148 female
-0.03973556 0.1689824 0.7842783 -0.898052 0.1499114 0.4135566 13817059 female
0.1201942 -0.7073916 0.406603 -0.5979995 -0.7451137 0.2953001 526601 female
0.1495892 0.2049425 0.7844277 0.6469532 0.381095 0.6604682 15199231 female
0.1753053 0.3887469 0.561528 0.6303314 -0.4265326 -0.6486542 10726065 female
0.1470479 0.8109905 0.6398326 0.9926703 0.1200215 0.01416423 3354154 female
0.05711512 0.7226112 0.5378532 0.07428549 -0.1612554 -0.984113 16242894 female
0.2576473 0.01056604 0.601104 0.952563 -0.301768 -0.03949409 2368549 female
0.05418428 -0.6846201 0.2996274 -0.4200347 0.8901695 0.1765481 15979718 female
0.1167092 -0.4512413 0.4859008 -0.9874836 -0.1355682 0.08060646 1842463 female
0.1700904 0.1544511 0.5253264 0.1524825 0.2660095 -0.951834 12238794 female
0.04563713 0.4821324 0.8294426 0.07937549 0.001093705 0.9968442 6974067 female
0.1457759 -0.3141973 0.7784277 0.8495951 -0.1809328 -0.4954306 1579292 female
-0.03279589 0.4675605 0.6135164 -0.4914013 0.5051603 -0.709463 12041156 female
0.1408444 -0.09421791 0.4592234 0.1443959 0.08915492 -0.9854954 1973278 female
0.117622 -0.4445716 0.4763848 -0.9913715 -0.1101535 -0.07105477 1907741 female
-0.03473213 0.2597883 0.7647591 -0.9070146 0.07490438 0.4143836 14608367 female
0.07170201 -0.03265985 0.4920519 -0.7535607 0.1160727 -0.6470498 2434085 female
-0.006919554 0.1071877 0.8283268 -0.5698495 0.05273614 0.8200551 11842751 female
0.2250659 -0.4168394 0.4800345 0.9989983 -0.0419706 0.01551623 1973535 female
0.04490947 0.6619601 0.5634295 0.2786478 -0.5859427 -0.7609379 15192256 female
0.1311338 0.4328398 0.7946522 0.5479555 -0.05500763 0.8346969 15790844 female
-0.04051346 0.5957174 0.7748337 -0.418235 0.7581599 0.5002731 11909573 female
0.119426 -0.09388879 0.6981202 0.759638 -0.1365106 -0.6358576 11119017 female
0.1550134 -0.666484 0.378484 0.5547451 0.6257196 -0.5483912 9732736 female
0.04861406 0.8616639 0.5585023 -0.0373418 0.7746738 -0.6312577 2696225 female
-0.04181769 -0.1013726 0.7355057 -0.9647055 -0.2536746 -0.07065713 2697257 female
0.1371225 -0.5297576 0.4272156 -0.7944455 0.04918937 -0.6053402 2697257 female
-0.04274783 0.2845343 0.7104523 -0.9964675 0.07947454 -0.0271358 15199223 female
-0.04226969 0.3185725 0.707851 -0.99899 0.01497494 -0.04236415 8223880 female
0.09552734 0.6889476 0.69968 0.4356487 0.2622253 0.8610739 5458249 female
0.3975841 -0.07782024 0.6274055 -0.08236981 -0.9131562 -0.3992005 2697257 female
0.115517 0.6439648 0.7168267 0.3912272 0.6540852 0.6473901 15913409 female
0.1975054 -0.4031987 0.8690473 0.8378273 -0.05920737 -0.5427154 1710363 female
0.1413158 0.8100073 0.6022131 0.9397941 0.1203204 -0.3198595 2303267 female
0.09311496 0.2778855 0.5584158 -0.01771202 0.129624 -0.9914051 14082023 female
0.21412 0.0369896 0.5098915 0.5895481 0.1307616 -0.7970787 2500136 female
0.1500426 -0.531104 0.4955477 -0.4291166 -0.3234651 0.8433441 2236452 female
0.08756727 0.7143146 0.5565413 0.6655242 -0.2732056 -0.6945763 16049619 female
0.2977819 0.4221109 0.6445982 0.5677946 -0.247449 -0.7850977 13618391 female
0.01886793 0.4727013 0.5900729 -0.3517903 0.4877795 -0.798946 13028307 female
0.08443566 0.7384948 0.7054675 0.1282386 -0.3854207 0.9137865 3486510 female
0.1393899 0.8205458 0.6026182 0.9125531 0.2311736 -0.3373508 2433825 female
0.2540263 -0.5676485 1.014979 0.9249189 0.314215 -0.2139949 2171945 female
0.1305506 0.8347686 0.6786499 0.719717 0.4224688 0.5509333 5459531 female
0.04927805 0.3419506 0.8222783 -0.0414034 -0.1640082 0.9855897 9013391 female
0.04117144 0.6969897 0.6902425 -0.4943234 0.04998546 0.8678398 6313302 female
0.3969239 -0.05174254 0.6281626 0.4019703 0.2071469 -0.8919137 4011321 female
0.1882302 -0.6510523 0.9738015 -0.8994036 0.4086444 -0.1551872 11903642 female
0.1022779 -0.2277269 0.5651333 -0.6120265 -0.2339924 0.7554278 855309 female
0.1095927 -0.2127678 0.8213289 0.6158118 0.1852847 0.7657973 2172201 female
0.2601924 0.02670627 0.6594623 0.8874214 -0.375671 0.2671228 2499878 female
-0.01886258 0.4904861 0.8121465 -0.02326674 -0.3411496 0.939721 12170946 female
0.1335744 0.2309396 0.785633 0.6573238 0.3245259 0.6801531 15200255 female
-0.01565381 -0.01817087 0.6619202 -0.5901686 -0.06717229 -0.8044806 2303017 female
0.1357026 0.6097267 0.6200759 0.144119 0.4097524 -0.9007401 14400427 female
0.1041504 0.1495537 0.535186 -0.3221566 0.03133695 -0.9461676 13554148 female
0.2159326 -0.4520395 0.9132747 0.9404652 -0.01500278 -0.3395588 1841948 female
0.2253009 0.0136417 0.704321 0.5111038 -0.7030454 0.4944695 2171425 female
-0.03110934 -0.1304498 0.7697837 -0.9232165 -0.2618677 0.2812412 2630440 female
0.2338362 -0.6445236 0.9594145 0.5851055 0.239137 -0.7748968 14205376 female
0.09837826 -0.2392964 0.829117 0.3728156 0.3210366 0.8705998 2697257 female
0.173287 -0.3035869 0.5336654 0.4556178 -0.0358881 0.8894518 2237738 female
-0.1513336 0.2066364 0.7444382 -0.6936055 -0.3782672 0.6130459 5921116 female
0.01631562 0.2245383 0.5685356 -0.5640459 0.127626 -0.815821 15199223 female
0.1467979 -0.7350193 0.9399779 -0.220329 -0.921505 0.319818 3551792 female
0.0008528763 0.8397685 0.6514101 -0.7896511 0.4843081 0.376692 1907741 female
-0.02950648 0.5126059 0.6455687 -0.5627222 0.4645701 -0.6837532 5655371 female
0.0806447 -0.08724189 0.6669209 0.4229158 -0.2243293 -0.8779628 2368294 female
0.04311774 0.6520338 0.7071796 -0.6863193 0.5921449 0.4222917 11245705 female
0.1935 0.1104742 0.5197145 0.3813424 0.3026583 -0.873485 723724 female
0.07512351 -0.6833388 0.3016532 -0.08297338 0.9965133 -0.00875351 16705239 female
-0.04648913 0.4786421 0.7577661 -0.6792154 -0.7334291 -0.027355 526600 female
0.1256803 -0.1108776 0.7110853 0.8303133 -0.1360717 -0.5404297 2235673 female
