# .PCD v0.7 - Point Cloud Data file format
VERSION 0.7
FIELDS x y z normal_x normal_y normal_z rgb label
SIZE 4 4 4 4 4 4 4 4
TYPE F F F F F F U U
COUNT 1 1 1 1 1 1 1 1
WIDTH 171
HEIGHT 1
VIEWPOINT 0 0 0 1 0 0 0
POINTS 171
DATA ascii
-0.7440535 -0.1373285 0.08798623 -0.1038143 0.02538173 -0.9942728 2105894 female
-0.777782 -0.0708396 0.0520254 0.6583146 -0.4502955 0.6032046 1974048 female
-0.9294612 0.7660237 0.09650528 -0.9193275 -0.06309906 -0.3884012 14338749 female
-0.7274472 -0.1433479 0.08660875 0.06641024 0.08530184 -0.9941395 1907485 female
-0.8453411 0.08596405 -0.07258228 -0.4602013 0.243582 -0.8537461 3684667 female
-0.7599425 0.5878489 0.3044679 0.5397319 0.4819102 0.6902551 15000304 female
-0.8098511 0.3614272 0.2942875 -0.3200387 -0.1440417 -0.9363905 10593204 female
-0.9180407 0.4353866 0.1506651 -0.9273867 -0.1542747 -0.3408127 8354951 female
-0.8652553 0.5392696 0.07178906 -0.8535772 0.474606 -0.2148372 15068664 female
-0.6647736 0.537793 0.1080629 0.9305083 0.2537314 0.264149 10590111 female
-0.7516788 0.5667097 0.3120786 0.704609 0.3047164 0.6408386 14148077 female
-0.7575964 -0.03260852 0.2790594 0.003890956 -0.2670209 0.9636829 2171688 female
-0.9151445 -0.339947 -0.01079708 -0.4236601 -0.1856195 0.8865988 1973534 female
-0.834502 0.0206963 0.2622946 -0.6396559 -0.1086791 0.7609397 3354935 female
-0.9268528 -0.08612738 -0.05571852 -0.7245127 0.1094223 -0.6805205 2039071 female
-0.8828938 -0.2439112 -0.09215322 0.2116986 0.2198983 -0.9522753 2170921 female
-0.9527648 -0.4202485 -0.06489893 -0.9192796 -0.00879447 0.3935069 2105377 female
-0.7608888 -0.195327 0.2166438 -0.2534457 -0.3876542 0.8862785 1908257 female
-0.9132577 0.1788647 0.1418646 -0.9681764 -0.1737931 0.1800848 8290954 female
-0.9242867 0.7468022 0.1827825 -0.7004149 -0.1935309 0.6869968 16571342 female
-0.6380543 0.2862648 -0.06594348 -0.9235079 0.004460293 -0.3835534 6381678 female
-0.7501678 0.4847315 0.311003 0.9973863 -0.06443974 0.03267986 13356248 female
-0.8649742 0.04926385 0.2189498 -0.9528033 0.0499562 0.2994501 5658976 female
-0.8277878 -0.1871302 -0.05352564 0.8235264 -0.2512757 -0.508591 2236706 female
-0.9561418 -0.2186659 -0.005851552 -0.8878874 -0.1301473 0.4412681 2235938 female
-0.8120227 0.2490799 0.3061592 0.6241709 -0.4817958 -0.6150476 15131630 female
-0.7212591 -0.1166915 0.2448021 0.2991141 -0.3181598 0.8996139 2171172 female
-0.9424027 -0.3898271 -0.04351499 -0.833082 -0.05933051 0.5499585 1973791 female
-0.7786145 0.6312067 0.02361637 -0.5707746 0.7249451 -0.3855789 13618377 female
-0.5851662 -0.5323232 0.06392026 0.7961411 0.1672536 -0.5815374 1842210 female
-0.7063285 -0.7315739 0.09442984 -0.006384597 -0.9759939 -0.217704 921102 female
-0.907827 0.1986532 0.06809286 -0.9441914 -0.03804139 -0.3271934 13554657 female
-0.700309 -0.1299372 0.2293658 0.5155889 -0.2243754 0.8269364 2170658 female
-0.6908895 0.2310802 0.2437266 0.7207406 0.3741625 0.583554 13555687 female
-0.8706083 0.6808044 0.1070238 -0.09576232 -0.71995 -0.6873875 13680298 female
-0.6305159 0.1038152 -0.07738657 -0.4498617 0.288855 0.8450961 1183250 female
-0.9020333 -0.4032095 -0.1307568 -0.004230962 0.07972093 -0.9968083 1645343 female
-0.7954575 0.4029394 0.285494 0.0419746 -0.1939393 -0.9801151 657417 female
-0.8683249 -0.0630402 -0.08293596 -0.2275202 -0.0008838775 -0.9737729 2039329 female
-0.8649368 0.3974809 0.02738358 -0.510343 -0.7348304 -0.4467374 13554663 female
-0.8362268 0.2922889 -0.0006807507 -0.5739653 0.2156047 -0.7899864 14870771 female
-0.868003 0.2999699 0.03361 -0.7173743 0.1626049 -0.6774465 13819633 female
-0.8693228 0.1827253 0.2279293 -0.7541921 -0.06312385 0.6536128 15266040 female
-0.6825939 -0.4332388 0.0882767 -0.8728844 -0.2144629 -0.4382676 2170657 female
-0.8602595 0.02720181 0.1480432 -0.8848175 0.09872451 -0.4553585 3092020 female
-0.853519 0.6404549 0.1509722 -0.92833 -0.2642247 0.2615122 16773346 female
-0.7810996 0.02223286 0.2890274 -0.2075334 -0.1439357 0.9675807 2566443 female
-0.917583 0.2306039 0.3230717 -0.7996535 0.5338795 0.2748217 8421771 female
-0.6643475 -0.1160621 0.1590473 0.9920576 0.10712 -0.06593166 2172201 female
-0.5865827 -0.512895 0.06792329 0.8280078 0.1417248 -0.5425102 2434089 female
-0.6900882 0.605098 0.01680141 0.8075475 0.5265771 -0.2656761 14738672 female
-0.7881545 -0.2361214 0.1576417 -0.9141653 -0.3873616 0.1193848 2565671 female
-0.5917056 0.156307 -0.09934948 0.6163687 0.1639711 -0.7701969 9146522 female
-0.5721657 -0.6655644 0.0747842 0.6182572 -0.00352892 0.785968 5920082 female
-0.6335648 0.1295586 0.1481823 0.9912937 0.1220878 -0.04930868 8817040 female
-0.7650615 0.6271569 0.2678957 0.4060588 0.7227963 0.5591795 13948130 female
-0.8270481 0.2759693 0.2970104 -0.021784 0.1680707 -0.9855343 5263445 female
-0.6742279 0.484163 -0.06182565 0.2701187 0.0370949 -0.9621122 13225687 female
-0.8807716 0.09336693 0.06461637 -0.9049803 0.08538955 0.4167964 2960693 female
-0.7951745 0.540338 -0.02310087 -0.8302468 -0.1857657 -0.5255296 13027278 female
-0.8126289 0.3566496 0.2964858 -0.4068972 -0.1249763 -0.9048843 14014187 female
-0.9228879 0.148322 0.2906587 0.5970964 -0.7212457 -0.3511133 6776682 female
-0.7648361 -0.150305 0.2340285 -0.1647428 -0.3864714 0.9074688 1973537 female
-0.8410845 -0.3348682 -0.04881012 0.9719036 -0.01440087 0.2349384 2434603 female
-1.133052 -0.6428845 -0.1267917 0.2267371 0.5699514 -0.7897757 11507601 female
-0.7968777 0.3963136 0.3690886 0.02784645 0.1048624 0.9940968 4474701 female
-0.7846846 0.4235498 0.3634418 0.2861386 0.08682355 0.9542465 10724268 female
-0.6422696 0.1706363 0.1690855 0.9506465 0.3062321 0.04993132 12107214 female
-0.827878 0.8274872 0.2180039 0.2486333 0.05712708 0.9669116 2697257 female
-0.8369674 0.3177135 0.007829016 -0.5969607 0.1654541 -0.7850241 15133437 female
-0.6166676 -0.06153399 -0.119926 0.3128137 -0.6601942 0.6828552 789516 female
-0.6868672 0.2465749 0.0153805 0.8201513 0.4523633 -0.3503131 14609399 female
-0.795298 0.6826492 0.1882964 0.1657422 0.3783713 0.9106946 14204849 female
-0.86862 0.7235942 0.1949333 -0.006965403 -0.3691368 0.929349 15259847 female
-0.6876296 0.2966503 0.1148936 0.9873971 0.1125857 0.1112268 8356488 female
-0.9224207 -0.1938216 0.02889207 -0.4952922 -0.1977124 0.8459287 1973534 female
-0.8518246 -0.04507477 -0.08679881 -0.1308085 -0.03709892 -0.9907133 1841949 female
-0.6329629 0.2701117 -0.02230033 -0.8363649 -0.2598572 0.4826677 658444 female
-0.6342068 0.0813347 0.171851 0.9876522 -0.1272023 0.09144703 3093047 female
-0.8724944 0.1869638 0.2240948 -0.7576013 -0.05709712 0.6502156 11186103 female
-0.7604094 0.671953 0.1764638 0.5815706 0.717585 0.3832067 16704212 female
-0.7585588 -0.1678419 0.0906073 -0.3585955 -0.0347572 -0.9328458 2236707 female
-1.027232 -0.677118 -0.1488329 -0.08010052 -0.9882722 -0.1300075 526344 female
-0.8849018 -0.3377723 -0.006198685 0.1571375 -0.2052853 0.966005 2170913 female
-0.9023758 0.07962319 0.03052221 -0.9115246 0.3447706 0.224179 2698289 female
-0.9492943 -0.1458293 -0.02712221 -0.9788319 0.1028944 -0.1769202 2171945 female
-0.8634322 0.5562144 0.3205457 -0.9456573 0.2052087 0.2522335 3487812 female
-0.7200068 -0.0158098 0.2768371 0.3795573 -0.2383249 0.8939449 1974566 female
-0.8732852 0.2695093 0.02843048 -0.7483914 0.2357171 -0.6199578 14672368 female
-0.8060317 0.5753623 0.0008169047 -0.8344849 0.305235 -0.4587664 16053759 female
-0.6709387 0.5798117 0.07960695 0.9375344 0.3409852 0.06898133 3750721 female
-0.6424456 0.3265479 -0.0117071 -0.9231324 -0.3610265 0.1322367 11579840 female
-0.6261542 -0.4047467 0.05871006 0.2571384 0.1876554 -0.9479796 1776412 female
-1.042374 -0.6387562 -0.1428723 -0.04358301 0.9335369 -0.3558222 14596531 female
-0.8378943 0.3760414 0.316088 -0.9377742 -0.1037928 -0.3313708 14607351 female
-0.5954022 0.1857482 -0.09633067 0.4563356 0.1398621 -0.878747 12633547 female
-0.6887748 -0.2658314 0.1964671 0.3267955 -0.1362959 0.9352156 2105888 female
-0.7125351 0.1866318 0.2805893 0.4632386 0.1716559 0.8694505 13225951 female
-0.9084883 -0.6557454 -0.1154511 0.9742964 -0.008568296 0.2251069 16773103 female
-0.6610628 0.2240023 0.133994 0.9231485 0.3843906 -0.006383897 9737893 female
-0.7760583 0.4048492 -0.009689116 0.02002018 -0.3219501 -0.9465449 13883367 female
-0.7898132 0.842354 0.08829183 0.6290874 0.2206286 -0.7453671 3354154 female
-0.9115546 0.7709096 0.07570412 -0.5644826 0.1157861 -0.8172839 15192253 female
-0.723087 0.03174295 -0.05760282 0.6072705 -0.3316359 -0.7219696 2368549 female
-1.098576 -0.643747 -0.1460636 -0.0108718 0.998803 0.04769104 16572370 female
-0.9299662 -0.4230209 -0.0318911 -0.5955155 -0.1517831 0.7888746 1842463 female
-0.8150332 0.1837293 -0.05656066 -0.3835046 0.2666601 -0.884204 10131362 female
-0.7072448 0.5637361 0.2578499 0.822417 0.2760514 0.4974193 3815747 female
-0.6974052 -0.3749751 0.09044518 -0.790514 -0.1592653 -0.5913731 2170913 female
-0.918451 0.4639715 0.1568671 -0.9156491 0.2962861 -0.2716641 15396346 female
-0.9285813 -0.03174286 -0.03937049 -0.8531994 0.1589959 -0.4967606 2564647 female
-0.9361851 -0.4156265 -0.03841871 -0.710924 -0.1147287 0.6938475 1907741 female
-0.8302521 0.2735198 0.2551597 -0.5710089 0.03468372 0.8202108 11252413 female
-0.9300104 -0.007159478 0.0220309 -0.9511489 0.1324235 0.2788902 2171945 female
-0.7457933 0.1602373 0.2932584 0.1481329 0.03514909 0.9883426 13816026 female
-0.8785025 -0.3988184 -0.1256425 0.3970415 0.007068348 -0.9177735 1514272 female
-0.8939785 0.6987813 0.08896038 -0.2341177 -0.5498541 -0.8017789 15719366 female
-0.6845136 0.4267203 0.2299315 0.9072417 -0.1704174 0.3845393 11579585 female
-0.7802684 0.5869779 0.3187597 0.3879303 0.5294566 0.7544439 12961744 female
-0.7646779 -0.06168274 0.08822913 -0.1048062 -0.01028746 -0.9944394 15395821 female
-1.045326 -0.6361489 -0.1348588 -0.09925551 0.9421939 -0.3200296 14858930 female
-0.9166474 0.885694 0.1185252 -0.5419968 0.7900547 -0.286449 2696225 female
-0.8555286 0.03155001 0.1400695 -0.8305801 0.06077017 -0.5535735 3486781 female
-0.9648537 -0.4964716 -0.09077469 -0.9748065 0.08627472 0.2056911 2697257 female
-0.8450739 0.3058223 0.2420879 -0.6800642 0.04461372 0.7317938 14211812 female
-0.8940188 0.3344894 0.1828366 -0.8967948 0.04987969 0.4396261 8552843 female
-0.7724012 0.7237519 0.1490124 0.9815908 0.1551281 0.1114213 2893604 female
-0.6148221 -0.04324178 -0.1149817 0.5634415 -0.1111994 0.8186382 2959658 female
-0.7412979 0.6685402 0.1241826 0.7021263 0.7102745 0.05028657 16769745 female
-0.6590005 -0.4949856 0.07411319 -0.8118052 -0.1923343 -0.5513436 2367780 female
-0.8226405 0.8422298 0.06899323 0.3367545 0.2276105 -0.9136683 2303267 female
-0.8678044 0.2830112 0.0280987 -0.7232937 0.2236903 -0.653306 9738916 female
-0.8199076 0.06084702 -0.08707959 -0.1879489 0.1239003 -0.9743326 2500136 female
-0.8948014 -0.5025461 -0.06155073 0.5825399 -0.4061812 0.7040341 2499370 female
-0.8844951 0.7423372 0.07215066 -0.08528645 -0.1749096 -0.9808837 16246486 female
-0.7314039 0.4726569 -0.01112871 -0.7754988 -0.5759144 0.2586974 14078943 female
-0.9032474 0.5033295 0.1813747 -0.8660008 0.4970243 -0.05485942 14674935 female
-0.7659389 0.773802 0.1561487 0.9235071 -0.3420561 0.1735865 3486769 female
-0.8239234 0.852489 0.07181931 0.3019514 0.3354897 -0.8923408 2433825 female
-0.5929182 -0.6507893 0.03877708 0.02784101 0.2389937 -0.9706219 1842462 female
-0.7708284 0.8628619 0.1278122 0.8648704 0.4738873 -0.1656199 5459531 female
-0.8624536 0.1756674 0.2359526 -0.7463938 -0.06002196 0.6627924 13554657 female
-0.8130299 0.7164142 0.1899729 0.3557366 -0.03696043 0.9338551 6313302 female
-0.6499184 -0.04065427 -0.1361682 0.2944537 -0.002346848 -0.9556629 3093047 female
-0.6574476 -0.6624377 0.08660438 -0.3919676 0.5505288 0.737075 3421488 female
-0.8843374 -0.2143717 0.0385168 -0.1063957 -0.2375743 0.9655249 2170657 female
-0.6543614 -0.2392485 0.13147 0.9462167 0.2399126 -0.2170617 2763826 female
-0.6838946 0.04013178 -0.02188203 0.7217764 -0.5130168 -0.4645994 2499110 female
-0.7369987 0.5862476 0.2836203 0.6858258 0.3881769 0.6155985 15593210 female
-0.6757484 0.2615931 0.1486141 0.942776 0.3303143 -0.04545287 9276826 female
-0.8151211 -0.0788051 0.2457275 -0.5253139 -0.331099 0.7838488 2499624 female
-0.8100438 0.6466683 0.07436123 -0.5234016 0.3044588 -0.7958364 15190965 female
-0.8702399 0.175332 0.006066077 -0.8991851 0.05653246 -0.4339011 13554148 female
-0.6152416 -0.3930118 0.06654365 0.5264522 0.2589515 -0.80981 2170145 female
-0.6566907 0.07090823 0.009810374 0.915877 -0.2586477 -0.3070354 2764594 female
-0.7833008 -0.06470338 0.2650726 -0.227641 -0.3122524 0.9223221 2367780 female
-0.6393448 -0.6711783 0.03835702 -0.2330998 0.2008407 -0.9514869 9077376 female
-0.6624408 -0.1816878 0.1388595 0.9776577 0.1005179 -0.1846122 2106409 female
-0.8409239 -0.2498142 -0.04212733 0.9817029 -0.1902582 -0.007821936 1580065 female
-0.8941814 0.2035201 0.3432962 -0.09514812 -0.401028 0.9111111 9277330 female
-0.9039006 0.2120883 0.05780724 -0.9162436 0.04897824 -0.3976164 12370387 female
-0.7202619 -0.7322709 0.1298966 0.07809414 -0.9069433 0.4139506 6377806 female
-0.8564003 0.8154188 0.2188659 -0.1138234 -0.09246195 0.9891891 2500646 female
-0.9226989 0.4269195 0.2177726 -0.8999586 -0.27077 0.3416988 5395037 female
-0.8174743 -0.03367794 0.1028281 -0.4869908 -0.06215371 -0.8711928 1974561 female
-0.7976118 0.6716372 0.1948175 -0.1239007 0.517875 0.8464361 11245705 female
-0.8219544 0.1352069 -0.06744232 -0.3639453 0.3089802 -0.878678 723724 female
-0.8362826 0.04742795 0.1087646 -0.4427887 -0.893712 0.07222766 2171174 female
-0.8425765 0.4878722 0.2763289 -0.4942586 -0.4607698 0.7371565 526859 female
-0.754788 -0.1226235 0.08911277 -0.1688708 -0.01949832 -0.9854453 13883099 female
-0.7058758 0.5897347 0.2024216 0.8990681 0.4312104 0.07572464 16120319 female
