# .PCD v0.7 - Point Cloud Data file format
VERSION 0.7
FIELDS x y z normal_x normal_y normal_z rgb label
SIZE 4 4 4 4 4 4 4 4
TYPE F F F F F F U U
COUNT 1 1 1 1 1 1 1 1
WIDTH 171
HEIGHT 1
VIEWPOINT 0 0 0 1 0 0 0
POINTS 171
DATA ascii
-3.086549 -0.1225982 -0.4765356 -0.8080639 -0.1657567 0.5652942 14079966 female
-3.186519 0.03193137 -0.516304 0.04523082 -0.6167256 -0.7858777 1579291 female
-3.028656 0.8074555 -0.3029056 0.3289619 -0.5500401 0.7676197 8814717 female
-3.09616 -0.1193223 -0.4919806 -0.9137012 -0.1598024 0.3736485 2106409 female
-3.25792 0.01848487 -0.3441786 -0.7157394 -0.0578477 0.6959676 2040359 female
-3.024968 0.6648979 -0.4790685 0.7171815 0.6906329 0.09315006 15518907 female
-2.935442 0.4455596 -0.5580749 0.7527855 -0.1892154 0.6304852 15199223 female
-3.019782 0.3820227 -0.3554972 0.6389593 0.1302045 0.758141 15202303 female
-3.041182 0.5715063 -0.3715724 0.6063201 0.3548038 0.7116813 16118781 female
-3.232358 0.6205491 -0.4146362 -0.7618003 0.5513118 -0.3401699 16054524 female
-3.01914 0.5600886 -0.5930384 -0.3138714 -0.06465895 -0.9472613 14278634 female
-2.950478 -0.008231597 -0.574186 0.8313049 -0.1238574 -0.5418409 1842720 female
-3.198953 -0.3202139 -0.4169768 0.8136418 -0.4575284 0.3586848 1644825 female
-2.944501 0.1066692 -0.4865209 0.9227753 0.1780588 0.341732 12567760 female
-3.260955 -0.09508175 -0.3662261 -0.814871 -0.1210186 0.5668684 2170657 female
-3.282515 -0.2523188 -0.4174373 -0.9614957 0.1970327 0.1915833 1841956 female
-3.279107 -0.4957663 -0.4304305 0.1496177 -0.2753284 0.9496361 2631470 female
-3.034724 -0.1277232 -0.4391205 -0.2550758 -0.190317 0.9480062 2171172 female
-3.014563 0.1978454 -0.3481242 0.6364848 -0.1198296 0.7619238 12371415 female
-2.974353 0.7688982 -0.3638546 0.9840958 -0.07133368 0.162687 16309454 female
-3.35728 0.3185088 -0.3947385 -0.860655 0.005476484 -0.5091591 13817312 female
-3.00026 0.4168943 -0.5735615 -0.7415183 -0.3086194 0.5957388 1184015 female
-2.931418 0.04314673 -0.5084341 0.9982613 0.04031306 0.0430039 1775387 female
-3.248336 -0.1845905 -0.4703581 -0.57551 0.03423164 -0.817078 2368297 female
-3.182672 -0.2264542 -0.3579237 0.3909267 -0.2883529 0.8740875 2697516 female
-2.994551 0.3189453 -0.6211758 -0.9590347 -0.2509664 -0.1314086 9473689 female
-3.037819 -0.1515056 -0.5910885 -0.169593 -0.1239971 -0.9776824 2171945 female
-3.306483 -0.5401054 -0.4446943 -0.4793725 -0.1904254 0.8567031 2170913 female
-3.16648 0.6357211 -0.3444597 0.2443517 0.6674 0.7034697 11180953 female
-3.071446 -0.3251835 -0.5814118 -0.7481682 0.2326854 -0.6213709 2172459 female
-2.924683 -0.7173369 -0.467474 0.03131327 -0.9951683 0.09305628 921102 female
-3.070623 0.2023678 -0.3183441 0.2366035 -0.09788918 0.9666626 8883095 female
-3.018639 -0.150984 -0.5916464 0.1168486 -0.1295616 -0.9846625 2171430 female
-2.998351 0.2360316 -0.5918397 0.4842222 0.3944964 -0.7809618 14738423 female
-3.060791 0.6907668 -0.3557623 -0.129263 -0.5769957 0.8064533 16508372 female
-3.300155 -0.06836724 -0.2825668 0.2997942 -0.6018711 0.7401855 1315860 female
-3.31614 -0.3473047 -0.4763684 -0.8933943 0.3056269 -0.3293006 2171169 female
-2.966848 0.4055821 -0.5589786 -0.06534466 -0.3286881 0.9421752 12237771 female
-3.240288 -0.06240646 -0.3363853 -0.6063464 -0.1409413 0.7826108 2170913 female
-3.125013 0.3666766 -0.3207372 -0.1454121 -0.07845496 0.9862556 8816017 female
-3.120895 0.2857645 -0.3220002 -0.0845494 0.0921981 0.9921446 9277597 female
-3.089554 0.3384036 -0.3199569 0.03201236 -0.03691261 0.9988056 15199231 female
-2.963975 0.2550748 -0.4379286 0.9702729 0.09469254 0.2227191 14805746 female
-3.035498 -0.4749657 -0.5056966 0.0345129 -0.1084183 0.9935061 2301731 female
-2.94545 0.0338181 -0.4580691 0.8578706 0.06461197 0.5097876 2434605 female
-3.039045 0.6560959 -0.3944525 0.8913628 -0.2102215 0.401596 16773346 female
-2.962089 0.1142682 -0.5887101 0.7812527 0.1478425 -0.6064543 11645625 female
-2.906281 0.3278209 -0.6039001 0.7864867 0.347859 0.5103261 3684417 female
-3.060477 -0.06714695 -0.591028 -0.4351372 -0.1174802 -0.8926668 2171944 female
-3.074506 -0.3438781 -0.5839748 -0.7544584 0.1887823 -0.6286125 2237738 female
-3.223999 0.6319845 -0.3472423 -0.5300815 0.7703048 0.3544632 14212323 female
-2.981003 -0.1901683 -0.4612884 0.5822137 -0.204423 0.7869171 2106152 female
-3.320168 0.1755765 -0.3100103 0.3233427 0.1843242 0.9281563 15660798 female
-3.028379 -0.6775655 -0.5669581 0.296961 0.04224079 -0.9539549 5920082 female
-3.097472 0.09627452 -0.6312781 -0.2376623 -0.04679896 -0.9702199 2500910 female
-3.032663 0.6476514 -0.5449607 0.005598162 0.7487188 -0.6628641 13948130 female
-2.980016 0.3242329 -0.5911744 -0.4821435 -0.1979131 0.8534448 8290442 female
-3.235709 0.4452229 -0.3602163 0.9016942 -0.4216294 -0.09579214 986383 female
-3.146876 0.06007816 -0.3124396 0.3482067 0.08165862 0.9338544 3092791 female
-3.198196 0.6383988 -0.3409656 -0.07994711 0.8278047 0.5552906 15001319 female
-2.931416 0.4051088 -0.5750748 0.8005354 -0.136716 0.5834824 15197175 female
-2.946849 0.2337642 -0.578935 -0.6543682 -0.1704342 0.7367188 9145239 female
-2.941441 -0.008881755 -0.5577771 0.9149777 -0.1014129 -0.3905524 2171945 female
-3.198112 -0.288559 -0.4779401 0.5418966 -0.1509492 -0.8267784 2171170 female
-3.232271 -0.7215355 -0.3254055 0.074347 -0.3312818 0.9405982 16439760 female
-2.922899 0.3863449 -0.6015314 0.9569631 0.06848671 0.2820129 3749954 female
-2.96805 0.4016293 -0.6462644 -0.01306018 0.175643 -0.9843673 15067126 female
-3.150083 0.2032703 -0.5856627 -0.5315742 0.3854868 -0.7542074 8884636 female
-3.019022 0.8515118 -0.4627997 0.543725 0.1459133 -0.826482 2565671 female
-3.160249 0.2692476 -0.3245293 -0.2399911 0.1503799 0.9590569 15725567 female
-3.348429 0.08867179 -0.3174436 -0.926406 -0.09969894 0.363087 4343882 female
-3.206658 0.0639402 -0.5468585 -0.2633363 -0.5832841 -0.7683968 2367268 female
-3.061553 0.6969227 -0.459918 0.4327683 0.4125535 -0.801568 14204849 female
-3.012865 0.7350885 -0.4198583 0.5832437 -0.4519535 -0.6749554 13943731 female
-3.204064 0.4004035 -0.4870935 -0.7638856 -0.08357049 -0.6399178 9012894 female
-3.221132 -0.3942802 -0.4935901 0.8621071 -0.08940853 -0.498776 2105384 female
-3.265771 0.01590283 -0.3539778 -0.788239 -0.06560029 0.6118627 2236706 female
-3.27402 0.3601828 -0.3837854 0.9254317 -0.3241405 -0.1962377 10198180 female
-3.163746 0.1714343 -0.5883895 -0.590902 0.2555983 -0.7651825 14606323 female
-2.966681 0.2504539 -0.4257779 0.959606 0.07428978 0.2713621 15726591 female
-3.090107 0.6895061 -0.4694704 -0.1729294 0.6904272 -0.7024284 16309455 female
-3.024903 -0.1097945 -0.4343129 -0.1283918 -0.1973221 0.9718947 2170914 female
-3.325553 -0.7133776 -0.4232857 -0.7457265 -0.6652303 -0.03688728 985096 female
-3.213439 -0.3504891 -0.4847188 0.8321639 -0.03690107 -0.5533006 2170913 female
-3.090868 0.0403613 -0.3710584 0.9520499 0.03648773 0.3037592 2368807 female
-3.291168 -0.2780516 -0.4517292 -0.8596649 0.4187725 -0.2925849 2236708 female
-2.97207 0.6005978 -0.5817685 0.1149303 0.5830544 -0.8042628 13883104 female
-3.045487 -0.112577 -0.5935801 -0.2684123 -0.07478467 -0.9603968 2499625 female
-3.102355 0.3151759 -0.3211887 -0.06410173 -0.01037771 0.9978894 15200255 female
-3.208068 0.6517764 -0.3867812 -0.6258348 0.7798736 -0.01130787 14674419 female
-3.244801 0.6099098 -0.3977952 -0.8513962 0.4695682 -0.233731 15725567 female
-3.227452 0.4727084 -0.3614777 0.8722124 -0.4263242 -0.2397774 526600 female
-3.084295 -0.3153094 -0.5387993 -0.992651 0.1183921 -0.02504666 2170145 female
-3.301296 -0.6684846 -0.4321136 -0.4499976 0.6756834 0.5839128 16179414 female
-2.960682 0.4484647 -0.5424108 0.1335613 -0.3535988 0.9258128 11184056 female
-3.324252 0.1463633 -0.3037113 0.05015711 0.2114098 0.9761097 12765658 female
-2.970298 -0.2263241 -0.5503086 0.8999796 -0.09183803 -0.4261484 1841948 female
-3.032525 0.3207889 -0.5743278 0.2615662 0.1552499 -0.9526178 14540011 female
-3.293555 -0.6906826 -0.5269438 0.7728884 -0.2578182 -0.5798046 2959141 female
-3.147989 0.2667035 -0.5502949 -0.5267684 0.4699232 -0.7082988 14609399 female
-3.156172 0.3997957 -0.3182848 -0.368733 -0.5601097 0.7418309 14607351 female
-3.140107 0.8632882 -0.3986893 -0.9562859 0.2736467 0.1031252 3025958 female
-3.033168 0.8153243 -0.2976111 0.0626407 -0.1923968 0.9793159 15589076 female
-3.27426 0.002947622 -0.4516048 -0.8674443 -0.2032942 -0.4541055 2434085 female
-3.272826 -0.7075654 -0.3528224 0.01934882 0.9641044 0.2648177 15847877 female
-3.155174 -0.1243201 -0.3398125 0.5542814 -0.3018253 0.7756763 2369065 female
-3.127476 0.1460589 -0.3231707 0.1393753 -0.231752 0.9627386 13027797 female
-3.099303 0.5916317 -0.5628028 -0.5236822 0.3973271 -0.7535835 15067638 female
-3.057925 -0.3985496 -0.5022538 -0.3221393 -0.03668542 0.9459813 1776155 female
-2.967739 0.4703873 -0.3711529 0.5486311 0.2384416 0.8013422 14542321 female
-3.196779 -0.04668582 -0.3132433 -0.1719014 -0.1386623 0.9753065 2697001 female
-3.274842 -0.5064099 -0.4366519 0.3299406 -0.2813896 0.9010877 2170146 female
-2.960593 0.2786184 -0.4856263 0.9938651 0.1103073 -0.008021737 14606311 female
-3.108809 -0.06388466 -0.4227065 0.9347746 -0.2678751 -0.2333227 1776416 female
-2.963006 0.1577367 -0.5794326 0.7971005 0.1328143 -0.5890597 2302755 female
-3.317826 -0.3685119 -0.4865976 -0.8571725 0.2330137 -0.4593038 2105121 female
-3.052497 0.7345864 -0.3118275 -0.2272153 -0.3250313 0.9180021 16178637 female
-3.109455 0.4897117 -0.5748605 -0.495903 -0.04384668 -0.8672702 4737363 female
-2.986088 0.6244581 -0.5628181 0.2377927 0.6892697 -0.6843697 13093071 female
-3.096634 -0.05637849 -0.4665565 -0.8081573 -0.1815713 0.5602799 15395821 female
-3.302572 -0.6775632 -0.4233759 -0.4274207 0.7291459 0.5344697 15649477 female
-3.031248 0.9067258 -0.3395983 0.1541635 0.8371849 0.5247428 2696225 female
-2.949968 0.04086358 -0.4523017 0.8082078 0.08694296 0.5824441 2499625 female
-3.227182 -0.4382266 -0.4594887 0.910658 -0.3082626 0.275093 1973534 female
-2.997628 0.3715995 -0.5535933 0.6616452 -0.08112692 -0.7454153 9869215 female
-2.966217 0.3748363 -0.4714791 0.9998669 -0.01182232 0.01124196 5855585 female
-3.106996 0.7334864 -0.4461648 -0.6613783 0.08050203 -0.7457199 2893604 female
-3.347055 0.08637878 -0.3147401 -0.8887073 -0.07380915 0.4524948 6974578 female
-3.16169 0.6513254 -0.3590577 -0.00581793 0.622783 0.7823731 15584961 female
-3.036075 -0.5689839 -0.5156103 -0.3237546 -0.02424747 0.9458303 1777185 female
-3.069488 0.6986637 -0.3537428 -0.2963908 -0.528413 0.7955704 13943475 female
-3.117982 0.3018773 -0.3228487 -0.08586539 0.03584865 0.9956616 14082023 female
-3.197547 0.0504756 -0.3116434 -0.2140139 0.02629129 0.9764767 3551544 female
-3.297897 -0.4777831 -0.5181421 -0.3171292 0.01496022 -0.9482643 2303531 female
-3.076597 0.7202922 -0.3354867 -0.6194798 -0.5908157 0.5168961 13417645 female
-3.276233 0.4060952 -0.3283614 0.3517735 -0.2940579 0.8886987 15725567 female
-3.095675 0.4102372 -0.2937638 0.1921837 -0.7501065 0.6327763 13356513 female
-3.11012 0.7816589 -0.459705 -0.5401004 -0.4305316 -0.7231418 3486769 female
-3.137946 0.8473969 -0.3779011 -0.9472752 0.1151987 0.2989966 2696225 female
-3.050354 -0.6669132 -0.5305956 -0.8562422 0.03479356 0.5154015 1842462 female
-3.131244 0.8700678 -0.4415491 -0.7802602 0.3923421 -0.4870951 5459531 female
-2.945473 0.1919155 -0.5024112 0.9933386 0.09370109 0.06707028 3684928 female
-3.051145 0.7147115 -0.4508663 0.4402592 0.07768051 -0.8945041 13350311 female
-3.335691 0.08001214 -0.3440471 -0.1198319 0.0224185 -0.992541 12830673 female
-2.991084 -0.6409741 -0.5045577 0.6862369 0.6282409 0.3665955 2959662 female
-3.150969 -0.206996 -0.4368193 0.9410881 -0.2462765 -0.231735 2236194 female
-2.98939 -0.4595461 -0.5799143 0.8251631 -0.1223975 -0.5514751 1973791 female
-3.285987 0.1178929 -0.4452603 -0.9873292 0.1441275 -0.06639441 8093317 female
-3.042852 0.5793652 -0.5850646 -0.1993378 0.1508939 -0.9682435 7105909 female
-3.126503 0.3342071 -0.5474951 -0.7002484 -0.04592438 -0.7124206 14605809 female
-3.022703 0.06256347 -0.4180051 0.08668841 -0.005388769 0.9962209 2697260 female
-3.136648 0.6062303 -0.3334764 0.3367392 0.438241 0.8333976 12961745 female
-3.220003 0.2047545 -0.3329027 -0.4981731 0.1753408 0.8491638 5987429 female
-3.073261 -0.2287498 -0.561253 -0.7057899 -0.0540631 -0.7063553 2171945 female
-3.278207 0.09778698 -0.4866832 -0.9156573 0.02368482 -0.4012614 3619391 female
-2.980866 -0.1499884 -0.573741 0.6555593 -0.1339653 -0.7431657 1908257 female
-3.020113 -0.6785038 -0.4910828 -0.6875795 0.04884547 0.7244642 9077376 female
-3.040197 -0.3556407 -0.6052 -0.147517 0.1419041 -0.9788269 2238505 female
-3.23775 -0.2509146 -0.4786747 -0.3342581 0.1001311 -0.9371474 2039585 female
-2.876659 0.1489428 -0.5952002 0.6039335 -0.05297665 -0.7952722 4209473 female
-3.04534 0.2654517 -0.3314131 0.464578 0.02247644 0.8852469 15200255 female
-2.884185 -0.7098735 -0.4710139 0.5756263 -0.8002023 -0.1683179 5194047 female
-2.981138 0.8464715 -0.4153982 0.9124833 0.04090649 -0.4070637 2698281 female
-2.967651 0.5305001 -0.4159534 0.7108169 0.466888 0.5260751 12960978 female
-2.995435 -0.01105713 -0.4194694 0.300234 -0.08094603 0.9504248 2434342 female
-3.04675 0.682695 -0.4557488 0.76377 0.382876 -0.5196742 12165524 female
-3.219722 0.08277792 -0.3205456 -0.4101763 0.07657033 0.9087862 1052944 female
-3.084092 0.04883761 -0.4165807 0.4921277 -0.8326419 0.2540036 1842207 female
-2.939259 0.5773681 -0.49404 0.7045065 0.06023585 0.7071366 9934501 female
-3.091032 -0.09761427 -0.4751498 -0.8219218 -0.1986428 0.5338404 5723226 female
-3.128144 0.6021395 -0.5228789 -0.7081493 0.3904518 -0.5882788 15857919 female
