# .PCD v0.7 - Point Cloud Data file format
VERSION 0.7
FIELDS x y z normal_x normal_y normal_z rgb label
SIZE 4 4 4 4 4 4 4 4
TYPE F F F F F F U U
COUNT 1 1 1 1 1 1 1 1
WIDTH 171
HEIGHT 1
VIEWPOINT 0 0 0 1 0 0 0
POINTS 171
DATA ascii
-0.8460917 -0.07024485 0.08178426 0.01838672 0.003289271 -0.9998255 1709850 female
-0.9050619 -0.09580138 0.04964314 0.6937666 -0.47614 0.5403504 1974048 female
-1.05983 0.7862232 0.1052523 -0.9682847 -0.05545007 -0.2436188 15916753 female
-0.8455009 -0.08472571 0.08206557 -0.01893903 -0.02307291 -0.9995544 1579290 female
-0.9754747 0.08335841 -0.06038668 -0.5971843 0.3194012 -0.7357675 395526 female
-0.888401 0.5977576 0.2719493 0.08615361 0.7980021 0.5964647 12501703 female
-0.8868901 0.365447 0.2713975 0.01723665 -0.1996304 -0.9797197 789258 female
-1.017806 0.3962231 0.1361594 -0.9301775 -0.332327 -0.1559767 5197657 female
-0.9659056 0.5660054 0.1591339 -0.9240599 0.3607326 0.126433 15724543 female
-0.8082613 0.5930809 0.06776135 0.8426474 0.5253164 0.1182713 15594751 female
-0.8595193 0.5570466 0.2992173 0.5905067 0.4563833 0.6655946 15066605 female
-0.8458701 -0.04816763 0.2726954 0.1161789 -0.2261291 0.9671443 2171688 female
-1.107232 -0.3256223 -0.01472679 -0.8810337 0.1676227 0.4423598 1580065 female
-0.9289702 -0.003820777 0.2612763 -0.5561162 -0.1415678 0.8189587 3354935 female
-1.029652 -0.112878 -0.06794403 -0.4262142 0.04863235 -0.9033141 2170145 female
-1.038886 -0.2681397 -0.07705091 0.1160924 0.1578445 -0.980616 2170921 female
-1.140533 -0.4259538 -0.03120735 -0.8328518 0.2003626 0.5159581 2105377 female
-0.8614894 -0.2191208 0.2008775 -0.5167314 -0.5128821 0.6855222 1973536 female
-1.025587 0.1481444 0.120304 -0.9749712 -0.180177 0.130259 15135223 female
-1.026154 0.7258723 0.175831 -0.6265402 -0.1756142 0.7593465 16571342 female
-0.7718318 0.2790861 -0.1004315 -0.9370484 0.05254241 -0.3452238 10460839 female
-0.8423155 0.4081316 0.2934604 0.9878082 -0.09641937 -0.1222217 14606327 female
-0.9655762 0.02036666 0.2198544 -0.9237502 -0.02681526 0.3820557 5658976 female
-0.9997988 -0.2631026 0.03794678 0.5053976 -0.3882926 0.7705856 2170921 female
-1.093624 -0.2104583 0.01881285 -0.860691 0.1006927 0.4990711 2171173 female
-0.9032658 0.2219269 0.3069352 0.7205849 -0.6466625 -0.2501699 10723748 female
-0.7680553 -0.1593464 0.2110888 0.654228 -0.08085272 0.7519631 1973537 female
-1.120842 -0.3980641 -0.01316348 -0.7382138 0.1349815 0.6609239 1973791 female
-0.8729704 0.6095831 -0.01566554 -0.1709577 0.8609433 -0.4791139 14278370 female
-0.5926493 -0.5569921 0.05919968 0.6452716 0.3022948 -0.7015999 2170917 female
-0.6865682 -0.7340965 0.1041771 0.1410303 -0.9690746 -0.2024964 921102 female
-1.018512 0.2369455 0.0679016 -0.9477276 0.1274428 -0.292525 8224389 female
-0.7889462 -0.1488346 0.2254727 0.4748533 -0.1901308 0.8592814 2171171 female
-0.8017036 0.1838652 0.2509293 0.6400095 0.3156663 0.7005303 12304337 female
-0.9808122 0.6581864 0.09596819 -0.1704736 -0.7287139 -0.6632608 13680298 female
-0.7305471 0.03764832 -0.1551185 0.4442558 0.05629215 -0.8941298 11704983 female
-1.097263 -0.4219737 -0.1042242 -0.1313817 0.05447281 -0.9898341 1645343 female
-0.9196978 0.331667 0.2958806 -0.8274229 -0.09151138 -0.5540732 13618397 female
-1.023104 -0.09248944 -0.06987697 -0.4223049 0.03271675 -0.9058633 2170401 female
-0.9062668 0.336967 -0.02110609 -0.1655779 0.007631638 -0.9861671 14212329 female
-0.9452259 0.2624389 -0.01921405 -0.4890128 0.2279042 -0.8419775 8223367 female
-0.9781172 0.2559219 0.008312645 -0.7435536 0.2224725 -0.6305823 13884644 female
-0.9724324 0.1813215 0.2239605 -0.6699306 0.01651184 0.7422401 15135481 female
-0.6843947 -0.4655036 0.06242069 -0.518176 -0.2343567 -0.8225392 1579292 female
-0.9641371 -0.003392357 0.1496214 -0.9257233 -0.001750318 -0.3781974 3092020 female
-0.9599426 0.6183825 0.1384154 -0.9007017 -0.250817 0.3547215 16773346 female
-0.9213694 0.0689022 0.2732224 -0.4878648 -0.002651841 0.8729152 13093335 female
-0.9610665 0.2586429 0.3507198 -0.6311876 0.2909263 0.7190022 3157808 female
-0.7775401 -0.05478338 0.2295166 0.842311 -0.1294828 0.5232077 2039589 female
-0.6049328 -0.5190352 0.0661899 0.7242492 0.2993039 -0.6211925 1842210 female
-0.7960942 0.544975 -0.006912303 0.9587309 0.200219 -0.2018599 15001333 female
-0.8440369 -0.2602174 0.1841962 -0.5796817 -0.5140123 0.6322661 2170146 female
-0.72126 0.1083054 -0.1351854 0.9425282 0.04982756 -0.3303903 9737373 female
-0.5656425 -0.6458616 0.0821436 0.6093146 0.1288138 0.7823955 5920082 female
-0.7448109 0.1050324 0.1234856 0.9807416 0.1116398 -0.1602575 12501451 female
-0.8602206 0.6056442 0.2463649 0.4717579 0.7232726 0.5043027 13948130 female
-0.9212136 0.2224538 0.2887684 0.4022732 -0.357752 -0.8427275 11382453 female
-0.7828517 0.4569193 -0.08109703 0.5286943 0.2402744 -0.8140948 10790831 female
-1.006133 0.09205285 0.02548497 -0.8697846 0.4622379 0.1726581 9671583 female
-0.9101858 0.5517412 -0.05240548 -0.8738404 0.2005405 -0.4429294 15264249 female
-0.9019153 0.398196 0.2676685 -0.2165129 -0.1948841 -0.9566307 921359 female
-1.008414 0.1322255 0.2961579 0.574209 -0.7478723 -0.3331231 11711419 female
-0.8396313 -0.1676142 0.2319553 -0.03337744 -0.3661573 0.9299542 1973537 female
-1.016247 -0.3907372 -0.03689558 0.9513614 -0.2886426 0.1076888 2237738 female
-1.161468 -0.6792836 -0.0821516 0.9041237 -0.387954 -0.179031 16243662 female
-0.9031858 0.3497516 0.3547353 -0.3449044 0.1656974 0.9238968 12699082 female
-0.9099468 0.3608221 0.3496675 -0.5214854 0.1439472 0.8410304 13290194 female
-0.7413303 0.07472665 0.1652343 0.9905392 -0.04403564 0.1299734 5987948 female
-0.9261011 0.8066076 0.1993606 0.3483713 0.07378493 0.9344481 2697257 female
-0.9048837 0.2501947 -0.03769663 -0.1212301 0.4343186 -0.8925641 7565943 female
-0.7837389 -0.01577047 -0.1675428 -0.8209693 0.2536539 -0.5115361 16570579 female
-0.8073207 0.1418067 -0.04443187 0.6526757 0.1703186 -0.7382452 7764355 female
-0.8979172 0.6604257 0.1693594 0.2554077 0.3868467 0.886068 14204849 female
-0.9886758 0.6656312 0.156902 -0.05881501 -0.753114 0.6552557 14468531 female
-0.7809429 0.41474 0.05810728 0.9710322 -0.1624898 -0.1751957 10725814 female
-1.059105 -0.2245243 0.04293434 -0.3951408 -0.1527782 0.905827 1842465 female
-1.025816 -0.05935649 -0.06748592 -0.533389 0.07425971 -0.8426041 2170915 female
-0.7521763 0.3226748 -0.01739495 -0.005251567 -0.1980212 0.9801837 9999260 female
-0.7497049 0.03270844 0.1735664 0.9706591 -0.2091911 0.118575 2566191 female
-0.9820284 0.1773606 0.2152179 -0.7050013 -0.01692443 0.709004 14673400 female
-0.8644452 0.6492276 0.1543529 0.6241157 0.7140702 0.3171487 16704212 female
-0.8481913 -0.1891102 0.09051025 -0.4624527 -0.1399773 -0.8755248 2698030 female
-1.340667 -0.6255493 -0.1017501 -0.5244834 -0.7811773 -0.338643 1576716 female
-1.047579 -0.3586673 0.01299462 0.2489037 -0.2087501 0.9457644 2170913 female
-1.026027 0.06425709 -0.00112125 -0.8927172 0.4274064 -0.1427574 2698031 female
-1.088139 -0.1606015 -0.007607368 -0.9811189 0.1820066 -0.06541701 2171945 female
-0.9370528 0.5439995 0.3238789 -0.6014061 0.4402759 0.6666842 7105134 female
-0.8115931 -0.02791892 0.2666548 0.4756027 -0.1655037 0.8639506 1974566 female
-0.9645566 0.2522347 -0.008045727 -0.6506982 0.2345195 -0.7222136 15200247 female
-0.9205268 0.5429803 -0.03638283 -0.9202316 0.1295251 -0.3693196 15132659 female
-0.7806089 0.5234185 0.08123675 0.9297128 0.2882947 0.2291732 14345202 female
-0.7665989 0.2405366 -0.06439703 -0.8425807 -0.2407335 0.4817728 6185322 female
-0.6697866 -0.3750961 0.0674274 0.4046756 0.363997 -0.8388944 2169889 female
-1.249689 -0.6115818 -0.07618617 -0.09566698 0.8197223 -0.5647152 8748410 female
-0.9184958 0.3642435 0.2826006 -0.6483831 -0.1646348 -0.7432999 8290191 female
-0.7237339 0.1039423 -0.1424478 0.8332714 0.1277448 -0.5379033 8554124 female
-0.8348161 -0.2866403 0.1731597 -0.6080534 -0.5197502 0.600109 2169889 female
-0.8038832 0.2361739 0.2221801 0.7964349 0.2101576 0.567032 9671577 female
-1.184841 -0.6945417 -0.08029068 -0.0650597 -0.9803112 -0.1864326 591881 female
-0.7849447 0.2355575 0.1426474 0.9536857 0.2932889 -0.06682192 14609399 female
-0.8857015 0.3645602 -0.02192886 0.02376061 -0.07144371 -0.9971616 7039859 female
-0.901615 0.8187711 0.06612287 0.5502934 0.2030693 -0.8099012 3354154 female
-1.016606 0.6684021 0.09296583 -0.5040081 -0.5045448 -0.7010067 15193283 female
-0.864737 -0.04325946 -0.03474245 0.7222868 -0.5668972 -0.3961433 2697516 female
-0.9770912 0.04641071 0.103427 -0.7325598 -0.6740496 0.09493834 2368549 female
-1.114157 -0.432852 -0.001513194 -0.4939283 -0.0001512665 0.8695026 1842463 female
-0.9137766 0.1365106 -0.07529409 -0.1695614 0.2189679 -0.960886 2369579 female
-0.8074936 0.5530861 0.2271086 0.8688539 0.3625257 0.3371469 15856380 female
-0.7538687 -0.391944 0.1156486 -0.8595093 -0.4748389 -0.1891341 2171945 female
-1.016206 0.3974256 0.1199566 -0.9452527 -0.3141377 -0.08840219 9145242 female
-1.070067 -0.07856775 -0.02366604 -0.9110605 0.1777999 -0.3719623 2170406 female
-1.119577 -0.4244416 -0.007534469 -0.6110583 0.05860724 0.789413 1907741 female
-0.9313263 0.2018726 0.2525979 -0.5018205 0.1517575 0.8515549 11054772 female
-1.056029 -0.02324181 0.0350176 -0.9017573 0.2030263 0.3815941 2171945 female
-0.8786604 0.1323899 0.2839678 -0.09165613 0.04909448 0.9945798 15658742 female
-1.052019 -0.4148512 -0.09518176 0.5309148 -0.1944881 -0.8248054 1973535 female
-0.9975631 0.7063025 0.06438484 -0.2172423 -0.2514042 -0.9431871 16245203 female
-0.7789978 0.4346765 0.1794441 0.9865216 -0.07435159 0.1457631 15265783 female
-0.9394004 0.5863745 0.24431 -0.7627434 0.642148 0.07660615 14474983 female
-0.8912082 -0.02601107 0.08975574 -0.2452467 0.05144973 -0.9680945 789260 female
-1.284736 -0.6134095 -0.06815346 0.03897471 0.9554432 -0.2925906 14924723 female
-1.024465 0.8635458 0.1084288 -0.5651997 0.7883763 -0.2429239 2696225 female
-0.9610167 0.001718019 0.1411431 -0.8766662 -0.03249529 -0.4800006 3486781 female
-1.172324 -0.4981593 -0.05082527 -0.8926023 0.3030626 0.3337876 2697257 female
-0.8930783 0.2754033 0.2578501 -0.09090226 0.08748967 0.9920092 6842992 female
-1.000468 0.3351153 0.1767315 -0.8782917 0.1478864 0.4546793 7961735 female
-0.8787147 0.7010567 0.1273137 0.9889017 0.1481186 0.01159313 2893604 female
-0.7901512 -0.05290479 -0.1738269 -0.6092092 0.1730445 -0.7738991 3090734 female
-0.8357819 0.6288618 0.09378614 0.7898114 0.6111736 0.05162144 14728366 female
-0.6401446 -0.5103527 0.05424553 -0.1265492 -0.04279626 -0.9910368 1579291 female
-0.9362446 0.8185137 0.05032134 0.2426789 0.2071861 -0.947724 2303267 female
-0.9687903 0.2404713 -0.008968118 -0.6671445 0.2560585 -0.6995372 5461597 female
-0.9517354 0.03374289 -0.08816017 -0.2836986 0.1123232 -0.9523122 2500136 female
-1.101775 -0.5187166 -0.03120049 0.5782762 -0.5068837 0.6392695 2499370 female
-0.9672168 0.7347954 0.05739713 -0.02668688 -0.1497225 -0.9883679 15981778 female
-0.8591207 0.4444908 -0.05011949 -0.8378156 -0.5359312 -0.1041288 11315897 female
-0.9984919 0.4981668 0.1892331 -0.8691961 0.4855854 0.0933001 15002357 female
-0.8711985 0.7512748 0.1326042 0.9348764 -0.345185 0.08278468 3486769 female
-0.9371676 0.8288386 0.05305528 0.2108702 0.3160887 -0.9249982 2433825 female
-0.5887714 -0.636039 0.04590584 -0.01670028 0.2127753 -0.9769584 1842462 female
-0.8785109 0.840026 0.1031929 0.8450204 0.4658482 -0.2625375 5459531 female
-0.8991339 0.1485439 0.2775343 -0.287394 0.08678313 0.9538729 11448766 female
-0.9150996 0.694607 0.1721879 0.4456614 -0.02647286 0.8948101 6313302 female
-0.7783116 -0.0498536 -0.1711006 0.8762582 -0.1989635 -0.4388451 3222577 female
-0.6499705 -0.6579564 0.09439529 -0.480671 0.4921217 0.7257903 3421488 female
-1.020305 -0.2337604 0.05185231 -0.01251423 -0.2009245 0.9795268 2170657 female
-0.7199731 -0.2599274 0.1337249 0.8878394 0.4402354 -0.133918 2303531 female
-0.7854526 0.02979426 -0.006194408 0.851092 -0.3972027 -0.3433254 2829875 female
-0.8355953 0.5418208 0.2802035 0.8261212 0.232988 0.5130697 15397371 female
-0.7892122 0.2940468 0.1525168 0.9830536 -0.1379698 -0.1207061 11446963 female
-0.8977516 -0.1021952 0.2460738 -0.4108727 -0.3604976 0.8373918 2499624 female
-0.8980968 0.6458637 0.06007235 -0.1993913 0.6390212 -0.7428963 14204078 female
-0.9835522 0.1516696 -0.0113658 -0.8960742 0.1484569 -0.4183438 12700124 female
-0.6629283 -0.369179 0.07393868 0.5538632 0.4259837 -0.7153834 2171431 female
-0.7746434 0.03438417 0.05397183 0.8524258 -0.5083004 -0.1224784 2434601 female
-0.8673468 -0.08343785 0.2620643 -0.1077355 -0.2986528 0.9482613 2367780 female
-0.6308324 -0.6644877 0.04628572 -0.2656336 0.1296767 -0.9553129 9077376 female
-0.7403955 -0.2010267 0.1313159 0.9432944 0.2538951 -0.2138525 2172201 female
-1.00589 -0.3275756 -0.02513752 0.968527 -0.1654204 0.1859883 2303275 female
-0.9883239 0.1792486 0.3404619 -0.0192424 -0.3511406 0.936125 6710888 female
-1.012214 0.1834863 0.03678532 -0.9111569 0.05651797 -0.4081653 9541031 female
-0.6998352 -0.7362993 0.1397973 0.2133434 -0.8797445 0.4248933 6377806 female
-0.9522561 0.7845502 0.2021533 -0.008304805 -0.1091636 0.9939892 2828585 female
-1.029263 0.4395765 0.1941133 -0.923701 0.3476161 0.1610578 15725567 female
-0.929262 -0.06246725 0.1114048 -0.6694284 -0.2022075 -0.7148271 2170913 female
-0.8997074 0.6494979 0.1762041 -0.037681 0.5281354 0.8483236 11245705 female
-0.9350629 0.09269559 -0.08210742 -0.3027068 0.2574333 -0.9176582 8553094 female
-0.9767231 0.03933617 0.1506957 -0.7989941 -0.5786186 0.1637342 11712714 female
-0.9820811 0.4838473 0.238883 -0.8342094 0.112524 0.5398452 15462394 female
-0.872367 -0.0463218 0.08499508 -0.156771 0.02906995 -0.9872071 855309 female
-0.8294948 0.6052495 0.1789871 0.8532597 0.5012151 0.1439837 15791358 female
