# .PCD v0.7 - Point Cloud Data file format
VERSION 0.7
FIELDS x y z normal_x normal_y normal_z rgb label
SIZE 4 4 4 4 4 4 4 4
TYPE F F F F F F U U
COUNT 1 1 1 1 1 1 1 1
WIDTH 170
HEIGHT 1
VIEWPOINT 0 0 0 1 0 0 0
POINTS 170
DATA ascii
-2.824131 -0.06250745 -0.4390481 0.02088415 -0.3364678 -0.9414634 2499622 female
-2.805097 -0.1118487 -0.4936281 0.5292739 -0.2689049 0.8047106 2171174 female
-2.992368 0.7791704 -0.5364703 -0.9637346 -0.2103118 -0.16427 16772830 female
-2.865566 -0.1265612 -0.4068419 -0.1475016 -0.3269313 -0.9334663 7894910 female
-2.858436 0.04175883 -0.6502644 -0.4200544 0.07229373 -0.9046147 3684667 female
-2.856403 0.6029197 -0.3387239 -0.2541415 0.8614821 0.4396142 11120305 female
-2.84733 0.3470723 -0.3288204 0.4681355 -0.2930635 -0.8336444 12499902 female
-2.920368 0.3758418 -0.5027483 -0.8865103 -0.462304 -0.0193546 14606839 female
-2.8957 0.5597939 -0.481905 -0.9681659 0.2484754 -0.03024616 15987965 female
-2.727586 0.5838897 -0.5533446 0.8422246 0.5344207 0.07107986 16053759 female
-2.874668 0.5995198 -0.3749542 -0.7213196 0.690586 -0.05281172 11778495 female
-2.849168 -0.1692011 -0.2583059 0.4396159 -0.04258371 0.8971758 1842209 female
-2.904296 -0.3793299 -0.5386643 -0.8002102 -0.1898365 0.5688812 2171169 female
-2.86503 0.1004365 -0.3097433 -0.6210423 0.4230898 0.6597739 13618391 female
-2.910676 -0.1422188 -0.6174588 -0.4877826 -0.09234381 -0.8680672 1973535 female
-2.93282 -0.2333212 -0.5978819 -0.6711383 -0.1176688 -0.7319341 2171945 female
-2.844905 -0.6074535 -0.5871484 -0.2089165 -0.1950254 -0.9582896 1775899 female
-2.933217 -0.1401875 -0.2758454 -0.703991 0.07789958 0.7059237 1973536 female
-2.926176 0.1716543 -0.4917155 -0.9887215 -0.1193893 -0.0904209 15200250 female
-2.979252 0.7368428 -0.5034665 -0.7521632 0.2238029 0.6198087 15192006 female
-2.756929 0.2382315 -0.7143309 -0.9736031 0.09365562 -0.2081481 14543091 female
-2.808638 0.4152437 -0.3065741 0.9677908 -0.2053744 0.14561 14606327 female
-2.896396 0.08065519 -0.3422641 -0.8399568 0.4646184 0.2803608 2763058 female
-2.8562 -0.2605404 -0.4994985 0.4719116 -0.1184231 0.8736564 2170921 female
-2.934542 -0.3244017 -0.5671543 -0.9068286 -0.4101826 -0.09701661 2564647 female
-2.889945 0.2255739 -0.3134007 0.7169986 -0.4724934 -0.5125065 11579830 female
-2.835995 -0.1885816 -0.277653 0.7953978 -0.1244226 0.593179 2171171 female
-2.883649 -0.4618071 -0.5372515 -0.7824204 -0.167133 0.5999041 2039327 female
-2.860228 0.5427178 -0.6323527 -0.942474 0.2631954 -0.206085 15724543 female
-2.740273 -0.4162367 -0.3970661 -0.0477293 0.04092282 -0.9980217 1776156 female
-2.671944 -0.6152865 -0.3786084 0.1009571 -0.6972723 -0.7096612 3682862 female
-2.889159 0.227075 -0.566571 -0.7982928 0.1091745 -0.5922918 14805496 female
-2.828777 -0.1918258 -0.2921518 0.9225686 -0.1581963 0.3519108 2303016 female
-2.737422 0.1904695 -0.3056003 0.3736455 0.2465144 0.8942146 11382718 female
-2.907054 0.650443 -0.5313585 -0.4255978 -0.658223 -0.6209741 16508372 female
-2.796029 0.04391928 -0.6889912 -0.8013706 0.5620582 -0.2046848 10988211 female
-2.807204 -0.3924895 -0.6028506 0.8258905 0.1238241 -0.5500658 2170913 female
-2.903137 0.3396703 -0.3082788 -0.8826362 0.03219755 -0.4689526 10591149 female
-2.902158 -0.1052653 -0.6256033 -0.4626005 -0.1027515 -0.8805923 1973536 female
-2.838758 0.3785537 -0.6289148 -0.1037091 -0.4655001 -0.8789505 15659774 female
-2.883332 0.3316041 -0.5740496 -0.73488 -0.1016994 -0.6705286 6974069 female
-2.808407 0.2504238 -0.6247408 -0.2437476 0.1997962 -0.9490356 8950941 female
-2.885682 0.1906766 -0.3738426 -0.792325 0.07227007 0.6058037 15726591 female
-2.790809 -0.3889247 -0.3881775 -0.4385221 -0.2977748 -0.8479555 1579291 female
-2.882054 0.04022807 -0.4334521 -0.6559343 0.1594763 -0.7377788 2565419 female
-2.892499 0.6205922 -0.4881428 -0.8869811 -0.2599014 0.3817273 16773346 female
-2.815509 0.05824567 -0.2697543 -0.1036046 0.1903551 0.9762331 2171429 female
-2.922944 0.3031005 -0.2571837 -0.6598526 0.3373262 0.6714205 12436173 female
-2.7383 -0.0255653 -0.3115169 0.7709551 -0.3981348 0.4971085 2302507 female
-2.739802 -0.3950689 -0.3932711 0.2513793 0.2396085 -0.9377612 2170913 female
-2.740097 0.5581936 -0.6415384 0.7773291 0.3319295 -0.5343989 15922941 female
-2.875331 -0.216523 -0.2480213 0.4298167 0.1005851 0.8972961 1907745 female
-2.741358 0.1202576 -0.7262032 0.08892861 -0.1008231 -0.990922 10528431 female
-2.639375 -0.5105418 -0.3794772 0.7874959 0.5338713 0.3079477 2498854 female
-2.664792 0.1797315 -0.4637848 0.9586284 0.2804922 -0.0485367 14806271 female
-2.953995 0.7281653 -0.4610662 -0.5024434 -0.1557255 0.8504705 16768206 female
-2.91084 0.2395592 -0.3284482 0.1318689 0.0004658917 -0.9912671 4935260 female
-2.775336 0.4336326 -0.7158799 -0.1915096 -0.07428734 -0.9786753 13225687 female
-2.901744 0.07455929 -0.5169064 -0.9303053 0.1515461 0.3340148 2960693 female
-2.853742 0.5294459 -0.6722754 -0.9405196 0.07610661 -0.3311055 14344173 female
-2.841393 0.3798753 -0.3362717 0.4082731 -0.2987118 -0.8626032 4276029 female
-3.00359 0.1086301 -0.3437465 0.7115464 -0.1975233 -0.6743042 592649 female
-2.849044 -0.02040054 -0.2611753 -0.1375481 0.09785841 0.9856491 2236453 female
-2.842401 -0.3311291 -0.5237912 0.6683003 0.1253684 0.7332513 2236706 female
-2.78005 -0.7043571 -0.5606608 0.9951826 0.009100567 -0.09761532 16243662 female
-2.868824 0.3917437 -0.2602006 -0.1177551 0.1609201 0.9799176 4474701 female
-2.852107 0.4168859 -0.2646398 0.1334335 0.1085225 0.9850981 10724268 female
-2.666653 0.08822669 -0.3618267 0.8882506 -0.05671889 0.455844 7566464 female
-2.882054 0.8446226 -0.4527334 0.06263223 0.5007362 0.863331 2566439 female
-2.849719 0.318472 -0.6000136 -0.5629081 -0.1110482 -0.8190255 9276565 female
-2.789693 -0.08854029 -0.6940352 0.9415053 -0.2806472 -0.1865609 1841180 female
-2.677321 0.1319054 -0.5888456 0.8634261 0.09461341 -0.4955235 6186351 female
-2.833677 0.6676353 -0.4603064 0.2315227 0.5008033 0.8340223 14204849 female
-2.924204 0.6706821 -0.4762178 -0.0853221 -0.6766847 0.7313125 14468531 female
-2.701689 0.3273587 -0.4878215 0.9956877 -0.04779174 0.07951123 13620197 female
-2.898357 -0.3181861 -0.5139166 -0.4227744 -0.2144036 0.8805072 1841948 female
-2.904243 -0.06199081 -0.628745 -0.5459564 -0.04101587 -0.836809 2171172 female
-2.743527 0.2097548 -0.6717399 -0.6236114 0.0009342197 0.781734 9606561 female
-2.670543 0.04914057 -0.3677589 0.9156913 -0.2115889 0.3416717 2500910 female
-2.881481 0.2127819 -0.3747713 -0.7535012 0.1494538 0.640234 8224132 female
-2.806336 0.6609232 -0.4727083 0.5624481 0.7593436 0.3271841 16309455 female
-2.908993 -0.1631251 -0.3832346 -0.4540028 -0.2026973 -0.8676378 2698030 female
-2.972417 -0.725114 -0.5962095 0.00754862 -0.1409693 -0.9899852 9734280 female
-2.875713 -0.3122962 -0.5048419 -0.003191906 -0.1833111 0.9830498 2170913 female
-2.917734 0.04634709 -0.5889522 -0.8946399 0.2866436 -0.3427169 2698031 female
-2.916842 -0.2741583 -0.6060674 -0.5346008 -0.1309331 -0.8349003 2433835 female
-2.902639 0.564535 -0.3278593 -0.9107403 0.3900384 0.1357283 12963285 female
-2.750519 -0.01998039 -0.2935623 0.6655639 -0.293972 0.6860066 2367781 female
-2.823374 0.2693041 -0.6172628 -0.369702 0.07468285 -0.9261441 14738930 female
-2.851253 0.5552337 -0.6579814 -0.8644462 0.459149 -0.2047315 16120318 female
-2.71078 0.5503975 -0.5407776 0.890847 0.4182619 0.1773377 15133438 female
-2.737934 0.2585467 -0.6719888 -0.8009971 0.01099503 0.5985673 10067626 female
-2.888716 -0.2445644 -0.3669514 0.1711458 -0.1481593 -0.974042 2039587 female
-2.888788 -0.6806619 -0.567282 -0.3855382 0.624445 -0.6792854 8748410 female
-2.875058 0.3714541 -0.3388561 -0.2378098 -0.1768427 -0.9550775 14081007 female
-2.75881 0.05140782 -0.7218155 -0.05011419 -0.187237 -0.9810356 11514810 female
-2.92553 -0.2250297 -0.2522387 -0.3255361 -0.07602593 0.9424682 1973537 female
-2.766936 0.1932323 -0.2988398 0.08582427 0.2759287 0.9573388 855053 female
-2.819003 -0.7307423 -0.5483013 0.0342673 -0.9989331 0.03095911 526600 female
-2.686242 0.2562122 -0.4498996 0.9570866 0.2813333 -0.06954671 6315360 female
-2.743108 0.3590478 -0.6102664 0.4844445 -0.01067587 -0.8747569 12173001 female
-2.834332 0.8242027 -0.5790012 0.5785766 0.2236571 -0.7843639 3025958 female
-2.949304 0.6670364 -0.5412012 -0.4773492 -0.5737865 -0.6655125 15193283 female
-2.746289 -0.01243304 -0.6284029 0.6118064 -0.3984612 -0.6833166 2236194 female
-2.880423 0.05544523 -0.4646414 -0.6777123 -0.7348565 -0.02630798 2170918 female
-2.852691 -0.4208632 -0.5105029 -0.1228624 -0.01615806 0.9922922 1842464 female
-2.731332 0.1870695 -0.6360242 0.4822012 0.2372755 -0.8433162 12698577 female
-2.777643 0.6172212 -0.3866123 0.563025 0.6943974 0.4481241 15132662 female
-2.881685 -0.3306622 -0.3364437 -0.7063105 -0.5717663 -0.4173834 2236195 female
-2.914858 0.3214872 -0.4949622 -0.9967254 0.049423 -0.06399852 15659775 female
-2.917177 -0.1129454 -0.6165327 -0.5915914 -0.0694768 -0.8032388 1973278 female
-2.866926 -0.4806102 -0.5237315 -0.5656678 -0.1609134 0.8087811 1382427 female
-2.834246 0.2576096 -0.3450627 -0.5332158 0.1556727 0.8315328 14737897 female
-2.919187 -0.03983637 -0.5027062 -0.7730311 0.03879301 0.6331809 1973278 female
-2.873894 0.1323614 -0.3525499 -0.8593352 0.231769 0.4558795 15725567 female
-2.799866 -0.3864835 -0.5737723 0.9795079 0.1897147 -0.06762159 2565671 female
-2.928349 0.7015646 -0.5729442 -0.1719242 -0.3485394 -0.9213915 16245203 female
-2.70319 0.5011192 -0.4223718 0.9798617 0.1450913 0.1371849 14080235 female
-2.893104 0.5845891 -0.3614386 -0.7848372 0.5877743 -0.1963463 15725820 female
-2.862575 -0.04226112 -0.4377024 -0.3021437 -0.2264183 -0.9259827 2237218 female
-2.920497 -0.6957181 -0.5600546 -0.3300894 0.8411869 -0.4283054 14924723 female
-2.955904 0.862756 -0.547721 -0.5440144 0.758634 -0.3585007 2696225 female
-2.88959 0.05209937 -0.4237121 -0.7939808 0.1507157 -0.5889647 3486781 female
-2.876297 -0.5099735 -0.541487 -0.7981438 -0.1568414 0.5816935 1973537 female
-2.793694 0.3234985 -0.3385021 -0.06742828 0.04050848 0.9969015 11580347 female
-2.754782 0.4151464 -0.3432352 0.4427554 -0.193628 0.8754861 15196126 female
-2.812425 0.7028931 -0.5055612 0.9887862 0.142014 0.04619426 2893604 female
-2.789076 -0.08664946 -0.6917365 0.9471986 -0.2127275 0.2399203 1117457 female
-2.810302 0.6192908 -0.6141426 -0.2907082 0.7770278 -0.5583158 14402482 female
-2.774058 -0.4289419 -0.3771165 -0.6437561 -0.5439512 -0.5382333 1775899 female
-2.90296 0.658109 -0.5394988 -0.304499 -0.6115633 -0.7302539 13943475 female
-2.800857 0.2575395 -0.6246693 -0.165704 0.1640319 -0.972438 10658988 female
-2.830936 0.01531519 -0.6588393 -0.1396297 -0.05249369 -0.9888114 2500136 female
-2.798962 -0.5552244 -0.5530526 0.9712254 -0.0205298 0.2372754 2698289 female
-2.909449 0.7381285 -0.5844701 0.02057442 -0.2269063 -0.9736993 13614511 female
-2.80157 0.4326399 -0.6447214 -0.6045745 -0.4751946 0.6392806 14078943 female
-2.926884 0.4767109 -0.4712853 -0.8920363 0.4104305 -0.1892567 15068920 female
-2.805044 0.75304 -0.5046762 0.9203674 -0.350472 0.1734735 3486769 female
-2.849258 0.8055135 -0.5896666 0.4374557 0.03632781 -0.8985059 2696225 female
-2.637477 -0.5499201 -0.4203852 -0.4397713 -0.01831604 -0.8979231 11442071 female
-2.811043 0.8374992 -0.5437487 0.8612871 0.4227038 -0.2819682 5459531 female
-2.883854 0.1689637 -0.3693878 -0.8258363 -0.007653108 0.563858 5857641 female
-2.856705 0.7447094 -0.4550327 0.3741821 -0.2574332 0.8909073 2235682 female
-2.81026 -0.02075668 -0.7022273 -0.7305501 0.0764402 -0.6785672 16441823 female
-2.671334 -0.5718997 -0.3406202 -0.1072868 0.4617994 0.8804719 3157292 female
-2.870017 -0.1965979 -0.48932 0.07397031 -0.05369689 0.9958137 526344 female
-2.755708 -0.3553105 -0.2904115 0.5731214 0.08424259 0.8151288 1645342 female
-2.684562 0.02456726 -0.4864482 0.6685226 -0.7353355 0.1111724 2171937 female
-2.854451 0.6205131 -0.3956781 -0.7113152 0.6982076 0.08085135 13883362 female
-2.692756 0.2902951 -0.4558605 0.9795961 0.04074416 -0.196803 7960197 female
-2.89568 -0.01218113 -0.2810118 -0.5426422 0.2268118 0.808762 2499624 female
-2.786535 0.6290843 -0.5995142 0.303746 0.8190936 -0.4866455 15652035 female
-2.8278 0.1600824 -0.6450111 -0.3910252 0.1634521 -0.9057498 9869218 female
-2.835787 -0.2025083 -0.3329738 0.9308203 -0.2216132 -0.290622 2106409 female
-2.683308 0.09962492 -0.5987905 0.7955974 -0.02896634 -0.6051328 15200255 female
-2.853743 -0.08918863 -0.2577085 0.04086046 0.006184428 0.9991457 1907745 female
-2.663006 -0.5669132 -0.4068696 -0.448264 -0.1640042 -0.8787275 5985110 female
-2.760557 -0.3889609 -0.2907537 0.254339 -0.226548 0.9402062 1776412 female
-2.882419 -0.1897895 -0.6227414 -0.1420769 -0.1291341 -0.9813962 2170913 female
-2.954973 0.2199574 -0.267871 -0.4734001 -0.008286849 0.8808085 10789799 female
-2.912703 0.270782 -0.5110072 -0.9793338 -0.02759518 -0.2003589 8356487 female
-2.710771 -0.6707755 -0.301089 -0.5874382 -0.3338413 -0.7372017 657929 female
-2.906615 0.8420622 -0.4533376 -0.1492474 0.4776365 0.8657879 2039327 female
-2.914168 0.3116646 -0.4534918 -0.9852397 0.02741844 0.1689698 4145736 female
-2.914435 -0.005831831 -0.4036678 -0.8675473 0.03956322 -0.4957787 2170403 female
-2.845953 0.6528034 -0.4516152 -0.1908286 0.4274987 0.8836454 12165524 female
-2.864976 0.09584502 -0.6353109 -0.5815729 0.2351554 -0.778765 9869730 female
-2.89244 0.08262473 -0.4259322 -0.9384712 -0.3058993 0.1603039 11712714 female
-2.918968 0.4628514 -0.3770755 -0.7703562 0.2769522 0.5743245 14606319 female
-2.834805 -0.04031023 -0.4447683 -0.1071978 -0.2423568 -0.9642467 855309 female
