# .PCD v0.7 - Point Cloud Data file format
VERSION 0.7
FIELDS x y z normal_x normal_y normal_z rgb label
SIZE 4 4 4 4 4 4 4 4
TYPE F F F F F F U U
COUNT 1 1 1 1 1 1 1 1
WIDTH 168
HEIGHT 1
VIEWPOINT 0 0 0 1 0 0 0
POINTS 168
DATA ascii
-2.656078 -0.245867 0.02162138 -0.9938064 -0.01328157 0.1103289 2170660 female
-2.628292 -0.1715837 0.1154343 0.5341398 -0.3336237 -0.7767817 2171172 female
-2.44823 0.4457029 0.3345969 -0.1493061 -0.97289 0.1766144 15982550 female
-2.654529 -0.2574946 0.02601511 -0.9863741 0.009998076 0.1642133 2171172 female
-2.741689 0.02161691 0.208296 -0.3043222 0.3277469 0.8944104 12041161 female
-2.408018 0.3761314 0.1861287 0.4310511 -0.03160723 0.9017738 13290974 female
-2.469031 0.2148042 0.05426341 -0.9570882 -7.651314E-05 0.2897969 789258 female
-2.632867 0.1461343 0.1969366 0.0288729 -0.2847273 0.9581736 5000277 female
-2.459853 0.3751942 0.2163911 0.5267488 -0.1709995 0.8326433 15791099 female
-2.633825 0.5198586 0.2058004 -0.2597339 0.9580492 -0.1211605 15199223 female
-2.417612 0.3944277 0.1919928 0.4897669 0.03579343 0.8711184 16120574 female
-2.487729 -0.1151018 -0.02779341 0.902997 -0.157577 -0.3997074 2171688 female
-2.614726 -0.3484792 0.1723287 0.8730241 -0.2292589 -0.4304291 1973535 female
-2.479524 -0.0547767 0.04268102 0.9665237 0.04290175 0.2529652 3354935 female
-2.675925 -0.1184651 0.2698459 -0.2585277 0.1484067 0.954536 2236450 female
-2.637053 -0.3087398 0.3050175 -0.5625588 -0.2351043 0.7926244 2565420 female
-2.718405 -0.4401243 0.1141423 0.2564155 -0.9007109 0.3506721 2303014 female
-2.512674 -0.2832222 0.02137194 0.9593541 -0.2580416 -0.114255 1908257 female
-2.612555 0.009573682 0.1619495 0.2446992 -0.3557071 0.9019949 15528445 female
-2.380049 0.4983965 0.3498085 0.6863768 -0.4839275 0.5428638 16112847 female
-2.876469 0.3278195 0.05368673 -0.5627124 0.426496 -0.7081355 12369610 female
-2.418351 0.3368555 0.04515356 -0.05897547 0.4042298 -0.9127542 12172748 female
-2.553254 -0.04745617 0.1102977 0.1544241 0.1533239 0.9760353 2697777 female
-2.635777 -0.2334881 0.1509965 0.1135308 -0.4115948 -0.9042679 2301475 female
-2.560534 -0.3084331 0.2835802 0.9158615 -0.3662877 0.1644112 2235938 female
-2.481634 0.0960718 0.01495322 -0.9790908 -0.0627664 -0.1934985 15395570 female
-2.516954 -0.2069367 -0.03547945 0.7436389 -0.2588852 -0.6164249 2171172 female
-2.791722 -0.4640073 0.03605922 -0.8048851 -0.2603233 0.5332838 1775899 female
-2.603359 0.5244085 0.2351126 -0.1679066 0.9674175 0.1895014 11837851 female
-2.765257 -0.5967488 -0.1576963 -0.8882356 0.416001 -0.1948863 2170917 female
-2.745432 -0.7430879 -0.1359682 -0.6823034 -0.7002506 0.2100269 3682862 female
-2.677697 0.09112714 0.1959664 -0.07736741 -0.04298289 0.9960757 14805241 female
-2.536659 -0.2247003 -0.04623735 0.5773076 -0.207945 -0.7896042 2170658 female
-2.503735 0.09171859 -0.05235462 0.7908173 0.1480648 -0.5938728 9409690 female
-2.491421 0.4872075 0.3093435 -0.794761 -0.4437183 0.4140882 12101271 female
-2.584012 0.4332692 0.07947175 -0.06296989 0.8186045 -0.5708954 15199223 female
-2.651075 -0.289727 0.184365 0.05413355 0.8795422 -0.4727314 2303273 female
-2.457671 0.1862732 0.06704586 -0.6250351 -0.2179511 0.7495522 6053732 female
-2.728451 -0.1370248 0.2388291 -0.6752534 -0.127274 0.726522 1841948 female
-2.735212 0.3200885 0.1666497 -0.9933006 0.005570459 0.1154252 854541 female
-2.73251 0.2498477 0.1773519 -0.7926822 -0.01466717 0.6094586 14607343 female
-2.710024 0.2291275 0.1949921 -0.5744427 -0.1827112 0.7978924 14408936 female
-2.509438 0.1156468 0.07571027 0.9571831 -0.06968091 0.2809719 4475733 female
-2.667488 -0.5100886 -0.03568913 -0.08017895 -0.5513912 0.8303849 2170657 female
-2.545666 -0.05607278 0.1089227 0.2462786 0.1431389 0.9585709 2698289 female
-2.483942 0.4551603 0.2880106 -0.1533965 -0.7873945 0.5970591 16775657 female
-2.478032 -0.05791732 -0.01655058 0.9729537 -0.0381512 -0.227828 2566443 female
-2.425248 0.03028691 0.07863834 0.4719319 0.1722912 0.8646364 6315884 female
-2.563512 -0.1517553 -0.07622214 0.08838319 -0.2580664 -0.962076 2368295 female
-2.747591 -0.5627877 -0.1418041 -0.8436377 0.4442308 -0.3015533 1842210 female
-2.688226 0.4835654 0.2760564 -0.2721185 0.7664304 0.5818383 9211540 female
-2.529029 -0.3327966 0.05355112 0.8517961 -0.3458366 0.3934976 2170146 female
-2.882157 0.1933696 0.07559393 0.843003 -0.442784 0.3054314 12896469 female
-2.766026 -0.6580011 -0.2007601 0.16767 0.3894716 -0.9056482 2302500 female
-2.656485 0.04330628 -0.09934448 -0.3584075 0.1822023 -0.9156126 5526628 female
-2.377743 0.4907418 0.3283913 0.768287 -0.6401045 0.001171599 16768975 female
-2.470489 0.1119822 0.04044686 -0.6685432 0.1395381 0.730465 7829884 female
-2.750887 0.3547493 0.1614213 0.5032376 -0.8632007 0.0404521 13224666 female
-2.682549 0.02992373 0.1921273 0.3364893 0.4423187 0.8313417 15200247 female
-2.641576 0.4011721 0.2799082 0.06136492 -0.3765317 0.9243691 15461114 female
-2.460363 0.2395062 0.07276665 -0.9001102 -0.06705704 0.4304706 592909 female
-2.473646 -0.002560836 0.06954329 -0.9262089 0.07655767 0.3691558 7237750 female
-2.503533 -0.2347431 0.0118871 0.9457734 -0.2616797 -0.1924483 1973537 female
-2.693983 -0.294028 0.1755614 -0.4122496 0.8738192 -0.2578572 2565671 female
-2.47083 0.5817332 0.3754804 -0.8042061 0.04282677 0.5928055 4078652 female
-2.404992 0.2061592 0.00877264 0.6910769 0.114128 -0.7137139 12830674 female
-2.392388 0.1842807 0.03422237 0.987413 -0.1577753 -0.01106582 5658206 female
-2.652183 0.1134547 -0.07349432 -0.3848402 0.4601114 -0.8001222 14608383 female
-2.335778 0.6339103 0.3237731 0.9273836 0.3684539 -0.06481864 2170913 female
-2.728632 0.2655384 0.1824262 -0.8287734 -0.06627657 0.5556456 14672623 female
-2.962545 0.1020474 0.02781243 -0.836388 0.459345 -0.2990943 8620427 female
-2.806211 0.04991198 0.01354869 -0.8721516 0.1510676 -0.465328 10857913 female
-2.483731 0.5237311 0.2016467 0.2076681 0.7665874 -0.6076329 15387841 female
-2.356616 0.5733251 0.2672738 -0.6004866 0.6014735 0.5269208 4669504 female
-2.68043 0.2813708 0.02638573 -0.2443339 0.2686015 -0.9317479 15398143 female
-2.55122 -0.2797138 0.2505479 0.9628505 -0.1027181 -0.249736 1842465 female
-2.703077 0.4351108 0.1663418 0.3201488 -0.08176312 -0.9438323 1051664 female
-2.736478 0.3720163 0.1449314 0.6856441 -0.6521639 -0.3233796 657933 female
-2.670137 0.05921294 -0.08888827 -0.4516639 0.2697541 -0.8504307 15198207 female
-2.510613 0.1271246 0.07296521 0.9577097 -0.1018881 0.2690928 4867406 female
-2.455583 0.4585486 0.3004209 -0.05105199 -0.9583905 -0.2808583 14864833 female
-2.630959 -0.2696446 0.0700196 -0.69968 -0.07991996 0.7099723 2236707 female
-2.816717 -0.5345802 -0.05137634 -0.4044096 -0.6960704 -0.5932443 724235 female
-2.574077 -0.3137169 0.2138007 0.7661245 -0.0815554 -0.6374965 2170913 female
-2.745715 -0.05526067 0.2290249 -0.5186042 0.09680355 0.8495168 2039843 female
-2.671463 -0.2999838 0.2623954 -0.8258185 0.429805 0.365091 2368037 female
-2.35713 0.3622245 0.1010111 0.8513452 0.4300578 -0.3004358 9211793 female
-2.513527 -0.1235521 -0.06172566 0.6548145 -0.2095114 -0.7261701 2170913 female
-2.611976 0.226941 0.2361556 0.09282102 -0.9132285 0.396734 12302797 female
-2.616521 0.5065796 0.2645903 0.03675655 0.6734803 0.7382907 12432303 female
-2.667343 0.4865571 0.1589316 -0.5822719 0.6758876 -0.4518134 15200255 female
-2.693755 0.4026372 0.2115184 0.3038026 -0.874553 -0.3779695 526601 female
-2.701484 -0.438287 -0.05791204 -0.8895621 0.4497699 0.0799153 2169889 female
-2.804878 -0.5781112 0.02195607 -0.06354693 0.4484889 0.8915265 15715527 female
-2.450209 0.1989738 0.07725736 -0.5466922 -0.2773954 0.7900502 8290191 female
-2.922082 0.1486482 0.08386069 -0.1178036 -0.1231332 0.9853733 12963037 female
-2.532404 -0.3623027 0.001175388 0.9097986 -0.280428 -0.3059845 2170913 female
-2.487797 0.08836789 -0.02177811 0.9496969 0.1228438 -0.2880713 12896724 female
-2.800734 -0.4442318 -0.02651878 -0.3804995 0.8591966 -0.3420545 2631721 female
-2.668656 0.1863072 -0.02562193 -0.4086953 0.5901242 -0.6962194 12041423 female
-2.70335 0.1141071 0.1915543 -0.2017604 0.07358149 0.976667 7830663 female
-2.481106 0.6480268 0.3030095 -0.8569883 0.5090412 -0.08029942 3090983 female
-2.455731 0.469933 0.355234 -0.3234281 -0.4679875 0.8224244 15193277 female
-2.776383 -0.09920924 0.06547671 -0.5532311 -0.7195375 -0.4197633 2105897 female
-2.77075 -0.6038861 0.03003034 0.2697366 0.4668197 0.8422123 16574166 female
-2.653021 -0.3865474 0.1220177 0.8194238 -0.4716492 -0.3257172 1842463 female
-2.824763 0.04547177 0.09908496 -0.9832947 0.1032414 0.1499091 14541550 female
-2.462256 0.4632169 0.09066723 0.1927102 0.763855 -0.615945 14476276 female
-2.649143 -0.4633018 -0.001862532 -0.2409116 -0.4544665 0.8575674 2170913 female
-2.662066 0.1328867 0.1908284 -0.1399353 -0.1300008 0.9815895 14673651 female
-2.712052 -0.1383391 0.2525082 -0.5774424 -0.0554758 0.8145445 2170915 female
-2.675239 -0.4068032 0.1067247 0.7775673 -0.5815396 -0.2391665 1710877 female
-2.501081 0.1528847 0.02375774 0.9943335 -0.03671173 -0.09976535 15001580 female
-2.60108 -0.09752698 0.1271238 0.9131118 -0.03258536 -0.4064049 2170913 female
-2.51987 0.0005389759 0.08557357 0.711934 0.02231291 0.7018918 15134458 female
-2.622322 -0.3163211 0.1654305 0.6655086 0.3813299 -0.6416274 2171172 female
-2.405806 0.5365421 0.4030022 -0.06506221 -0.8133914 0.5780668 12957100 female
-2.534859 0.4134531 0.03945732 -0.1738456 0.5347335 -0.8269449 15396346 female
-2.385308 0.3491173 0.1748294 0.3796536 -0.2482545 0.8911974 14475501 female
-2.660527 -0.1642497 0.04081349 -0.934409 -0.09921724 0.3421051 1316118 female
-2.813118 -0.5831527 0.02427225 -0.1464263 0.4996676 0.8537515 15518405 female
-2.378983 0.6318141 0.4071266 0.288937 0.4891252 0.8229653 2696225 female
-2.549278 -0.06345447 0.1108379 0.2205389 0.1299734 0.9666796 2369324 female
-2.726425 -0.4532726 0.07397477 0.5891529 -0.7908627 0.1656348 2104608 female
-2.486235 0.2314215 0.04200113 0.9089353 -0.229658 -0.3479854 4211529 female
-2.482866 0.222453 0.08889655 0.8203481 -0.5596368 -0.1176247 7763326 female
-2.472198 0.5275972 0.2077787 0.26316 0.6142516 -0.7439367 16772062 female
-2.96276 0.1041575 0.03482215 -0.9209637 0.3799061 -0.08658653 13948124 female
-2.555972 0.5162147 0.2504316 -0.1475732 0.7270774 0.6705077 13612966 female
-2.700863 -0.5564869 -0.072909 -0.2025134 -0.5164654 0.8320168 2367780 female
-2.485944 0.6276404 0.340026 -0.9280096 0.2698287 0.2568866 2762533 female
-2.630527 0.2271767 0.2348549 -0.08441288 -0.9404151 0.3293843 4669001 female
-2.686733 0.03042099 0.193795 0.296695 0.447844 0.8434499 15068661 female
-2.728992 -0.4117518 0.02961351 0.6075202 0.2433765 -0.7560999 1777185 female
-2.471902 0.4835867 0.3574035 -0.5599519 -0.4918823 0.6667126 16113612 female
-2.776037 0.3404211 0.1471382 0.4012459 -0.8918409 0.2088578 4078663 female
-2.63314 0.2404667 0.2696672 -0.04328186 -0.7891207 0.6127115 14408945 female
-2.447515 0.5494084 0.2269347 0.2927023 0.1201532 -0.9486246 3289394 female
-2.474013 0.6508997 0.3427774 -0.7934257 0.5352523 0.2897941 2893604 female
-2.795816 -0.7033949 -0.1783112 -0.7729011 0.08207906 0.6291955 12100507 female
-2.444362 0.676852 0.2827698 -0.3461284 0.8340756 -0.4295499 5459531 female
-2.51611 0.02417788 0.08356732 0.800691 -0.1896895 0.5682533 14081773 female
-2.392584 0.5742432 0.2433764 0.4002163 -0.2901264 -0.8692834 1776155 female
-2.954585 0.1147232 0.05961702 -0.8824237 0.03396771 0.4692276 10462121 female
-2.711275 -0.7037359 -0.1573958 0.8743258 0.4483115 -0.1859335 3157292 female
-2.593816 -0.1079485 0.2284549 0.8618904 0.3103965 0.4009976 2171432 female
-2.608796 -0.3554425 -0.04115416 -0.2832738 0.5362145 -0.7951289 2171433 female
-2.788713 -0.003102453 -0.01277214 -0.7160013 -0.1259186 -0.6866488 14080230 female
-2.368641 0.3988495 0.1354766 0.883193 0.4579712 0.1011558 11119274 female
-2.678814 0.1891478 -0.01621842 -0.3711894 0.6381462 -0.6745279 9013138 female
-2.596804 -0.05501791 0.1037063 -0.3343254 0.135635 0.9326466 2499883 female
-2.610435 0.4376546 0.2822404 0.2808594 -0.06291861 0.9576843 14014685 female
-2.821812 0.07899833 0.09873048 -0.9831944 0.126057 0.1320553 8290958 female
-2.723762 -0.4989993 -0.06899101 -0.9134596 0.05509053 0.4031831 1710362 female
-2.793243 0.1275064 0.03634619 -0.7738592 0.4534743 -0.4421572 5132123 female
-2.487191 -0.1616771 0.006734927 0.9657667 -0.1973473 -0.1683706 2170913 female
-2.777081 -0.6990993 -0.1544791 -0.7818685 -0.002520686 0.6234384 5985110 female
-2.618396 -0.2983583 -0.03250187 -0.537853 0.06455288 -0.8405635 2172201 female
-2.633437 -0.2802867 0.2268813 -0.6528925 -0.04482679 -0.7561229 2302507 female
-2.409626 0.02446065 0.04311046 0.9440461 -0.2694174 -0.1902398 11711933 female
-2.695907 0.1186905 0.1909281 -0.2015497 0.02935663 0.9790382 14606319 female
-2.642454 -0.7895213 -0.08790369 -0.1996054 -0.9556369 -0.2166005 1183246 female
-2.339932 0.6205438 0.293523 0.9033672 0.1858259 -0.3865182 2894891 female
-2.564998 0.2147872 0.2032284 0.2775522 -0.6730253 0.6855667 13489123 female
-2.564798 -0.1302428 0.1140364 0.0711425 -0.09989829 0.9924511 2302499 female
-2.472769 0.4602173 0.2972324 -0.2084636 -0.9192495 0.3339512 16774628 female
-2.80127 -0.0128146 0.1727912 -0.8287464 0.08461151 0.5531909 11251379 female
-2.753634 -0.6016487 0.02256832 0.5117238 0.5033343 0.696271 16768990 female
