# .PCD v0.7 - Point Cloud Data file format
VERSION 0.7
FIELDS x y z normal_x normal_y normal_z rgb label
SIZE 4 4 4 4 4 4 4 4
TYPE F F F F F F U U
COUNT 1 1 1 1 1 1 1 1
WIDTH 170
HEIGHT 1
VIEWPOINT 0 0 0 1 0 0 0
POINTS 170
DATA ascii
-1.264209 -0.02963386 0.1464765 -0.194658 -0.1874486 -0.9627935 2499622 female
-1.168416 0.03129111 0.07245028 0.4963054 -0.823741 0.2741018 1775387 female
-1.400802 0.8049226 0.1841833 -0.9403118 0.002003313 -0.3403082 12101783 female
-1.296629 -0.06775865 0.1661244 -0.3340381 -0.1832741 -0.9245697 11974070 female
-1.335039 0.05651694 -0.03628162 -0.6121202 0.06215259 -0.7883185 1907997 female
-1.160729 0.6256092 0.2950563 0.1593934 0.8422993 0.5149034 11120305 female
-1.11321 0.4034094 0.2779006 -0.8322725 -0.4389783 -0.3385566 9409437 female
-1.341929 0.471937 0.1991271 -0.906301 0.1750126 0.3846934 12767194 female
-1.328955 0.557031 0.1538921 -0.8694742 0.3517124 0.3468615 6907243 female
-1.207489 0.6439436 0.05351248 0.6495665 0.6439446 -0.4042261 15791359 female
-1.201096 0.6215898 0.2845204 -0.5329439 0.6601686 0.5292903 11778495 female
-1.256606 -0.05509009 0.3261801 0.1786276 -0.1488178 0.9725972 1776155 female
-1.277134 -0.3508117 0.04068672 -0.1419022 -0.2152973 0.9661836 1973534 female
-1.227023 0.07839707 0.3220981 -0.06948302 0.1530389 0.9857744 3026990 female
-1.376211 -0.08331164 0.01198597 -0.9273601 -0.103284 -0.3596326 2170921 female
-1.290764 -0.2565869 -0.04681984 -0.04244011 0.195825 -0.9797201 2170921 female
-1.300873 -0.4550717 -0.00345121 -0.766679 -0.2150999 0.6049259 2039329 female
-1.34258 -0.1349263 0.1974844 -0.501484 -0.02869446 -0.8646909 2961461 female
-1.356386 0.2302303 0.171855 -0.942141 0.08960808 0.3230181 14080494 female
-1.336861 0.7554287 0.2615633 -0.1880058 -0.187506 0.9641033 16571342 female
-1.273847 0.3414674 -0.1507033 0.07525895 0.3098057 -0.9478167 12700112 female
-1.12473 0.5247264 0.2592671 0.6344762 -0.7690818 0.07715679 724235 female
-1.262717 0.06726418 0.3202404 -0.2548605 0.2182587 0.9420241 1775387 female
-1.237092 -0.2054101 0.0007000193 0.9371248 -0.05220439 -0.3450676 2499625 female
-1.349828 -0.2442356 0.05128807 -0.7294106 -0.3247016 0.6021038 2235938 female
-1.063984 0.3201903 0.2685567 -0.6377749 -0.3643727 -0.6785836 6315104 female
-1.258652 -0.1775436 0.2696292 0.9355654 -0.32999 0.1257938 2303273 female
-1.2994 -0.5404857 -0.03612302 -0.9927297 -0.1190705 -0.01760463 2565160 female
-1.316857 0.6299153 0.05503159 -0.7739791 0.6056461 0.1847949 14870506 female
-1.228228 -0.3484337 0.1597055 0.4205832 0.354406 -0.8351684 2105378 female
-1.206412 -0.6260238 0.1387224 0.03580964 -0.7294093 -0.6831396 8550516 female
-1.352764 0.2440641 0.0746308 -0.9419956 0.1664204 -0.2914591 8487821 female
-1.271215 -0.1898659 0.2608903 0.9655214 -0.23305 -0.1160006 2565677 female
-1.107193 0.2692409 0.2136433 0.9199703 0.2757027 0.2786444 14608383 female
-1.325106 0.6811664 0.1698538 -0.6929646 -0.6209909 -0.3662928 16508372 female
-1.387597 0.1073479 -0.1160374 -0.09765799 0.5507776 0.8289192 11836832 female
-1.226026 -0.3206489 0.01131919 0.9199852 0.2039272 0.3347251 2697257 female
-1.123322 0.4385583 0.3191904 -0.6539369 -0.3327402 0.6794486 15199223 female
-1.373484 -0.05106664 0.001438594 -0.863941 -0.06133592 -0.4998439 2170913 female
-1.315083 0.3999182 0.03741093 -0.6435961 -0.326021 -0.6924554 7368823 female
-1.271942 0.2904795 -0.006685661 -0.3438939 0.3368737 -0.8765005 10462118 female
-1.31825 0.2908027 0.03089395 -0.7937921 0.2101574 -0.5707257 8027013 female
-1.277223 0.2309936 0.2620742 -0.5003701 0.1233371 0.8569817 15135481 female
-1.263389 -0.4063833 0.1609406 -0.737669 -0.2760617 -0.6161448 2104352 female
-1.302489 0.07428002 0.2905948 -0.6382669 0.3904151 0.6634693 2434605 female
-1.289903 0.6497338 0.1972686 -0.5613704 -0.3092465 0.7676131 16773346 female
-1.158589 0.07337753 0.310628 0.4863132 -0.03947965 0.8728922 2697773 female
-1.058507 0.3004077 0.3538985 -0.5818174 0.1254443 0.803587 11776961 female
-1.156418 -0.03178751 0.2449173 0.8066846 -0.5807526 0.1094824 2500396 female
-1.237637 -0.2894149 0.1981398 0.6501177 0.5679923 -0.5047095 2368809 female
-1.229142 0.5407657 -0.01289032 0.7378192 -0.1365611 -0.6610399 14609399 female
-1.370051 -0.158692 0.310846 -0.641865 0.0142175 0.7666859 2170660 female
-1.32887 0.2372483 -0.1643945 -0.5020425 0.2441516 -0.8296646 12041926 female
-1.126176 -0.5559313 0.1208005 0.7736959 0.3936609 0.4964128 16308176 female
-1.084062 0.1586669 0.1341314 0.9490089 0.1451872 -0.2798264 6909570 female
-1.327916 0.7501219 0.2611648 0.002164686 -0.258027 0.9661353 16768206 female
-1.072831 0.3236879 0.2828676 -0.9098352 -0.3291283 -0.2527339 11382717 female
-1.333364 0.5013642 -0.04189444 -0.9612393 -0.2668139 -0.06949329 13159128 female
-1.33531 0.06054236 -0.03569577 -0.6197789 0.07047638 -0.7816056 1907997 female
-1.324197 0.6242011 0.01906764 -0.6765543 0.7356464 0.03314601 13486798 female
-1.102185 0.3795983 0.2858905 -0.8940049 -0.4316189 -0.120251 15329273 female
-1.019647 0.1772796 0.3278922 0.6822039 -0.343713 -0.6453365 11381682 female
-1.306531 -0.1487221 0.3250254 0.1541372 -0.1025483 0.9827134 1776155 female
-1.216941 -0.354628 -0.04177471 0.8988718 0.2125801 -0.3831958 2499878 female
-1.23008 -0.658498 -0.07116307 0.248728 0.3720962 -0.8942476 14400952 female
-1.025544 0.3953421 0.3098036 0.8538716 0.3240286 0.407319 8026750 female
-1.030354 0.4112396 0.3041706 0.8738147 0.3392672 0.348347 13356244 female
-1.077935 0.1056802 0.1971623 0.9791662 -0.1000611 0.1766962 7566464 female
-1.240239 0.8383879 0.2351952 0.7432979 0.09255969 0.6625262 2697257 female
-1.323595 0.3418246 0.05272388 -0.8762816 0.05147952 -0.4790411 11777471 female
-1.411058 0.02767579 -0.1657671 -0.7349795 0.182757 0.652997 1117964 female
-1.171967 0.1459383 -0.02967729 0.5243497 0.05886964 -0.8494655 5856105 female
-1.228296 0.6890656 0.2015215 0.5008667 0.3789415 0.7781618 11245706 female
-1.337723 0.7279092 0.2519632 -0.211243 -0.3979128 0.892772 16772316 female
-1.144343 0.3566486 0.07299984 0.9650119 -0.1275281 -0.2291038 8551303 female
-1.2516 -0.3502007 0.03828709 0.3243955 -0.08649685 0.9419585 2170913 female
-1.305331 -0.02733758 -0.04949767 -0.2419632 -0.1149521 -0.963452 2105635 female
-1.248656 0.3654371 -0.05926641 0.3179009 -0.3772112 0.8698567 5591384 female
-1.084894 0.06650849 0.1903146 0.9661401 -0.2525553 0.05281261 2500910 female
-1.288796 0.2274457 0.2555602 -0.5430049 0.09561652 0.834268 14673400 female
-1.202278 0.6866562 0.1633176 0.6378909 0.7684955 -0.05009868 16704212 female
-1.323147 -0.0863418 0.1820485 -0.5022455 -0.09994888 -0.8589293 5724001 female
-1.389394 -0.7129473 -0.06210266 -0.1778395 -0.9721249 -0.1527948 1249811 female
-1.28087 -0.2996326 0.05596501 -0.05453643 -0.3190188 0.946178 2236706 female
-1.357349 0.008183712 -0.01966193 -0.7289863 0.01533568 -0.6843564 2697001 female
-1.368275 -0.1738846 0.02775314 -0.9876696 -0.1540884 -0.02766856 2171945 female
-1.117164 0.5931072 0.3024763 0.7188506 0.6447334 0.2599474 14935794 female
-1.243523 -0.1415058 0.2100271 0.7177067 -0.4178236 -0.5570641 2172713 female
-1.320514 0.3034549 0.03761197 -0.837991 0.1500817 -0.5246395 15594751 female
-1.322343 0.6252184 0.04084735 -0.7755635 0.6107948 0.1594708 13684696 female
-1.178857 0.5783599 0.02500318 0.7595825 0.2878435 -0.58325 11644859 female
-1.252381 0.405896 -0.04040672 0.2845651 -0.438255 0.8526167 13224400 female
-1.173029 0.02412852 0.3122244 0.4892827 -0.1747382 0.8544407 1908773 female
-1.328792 -0.6620756 -0.0335343 -0.5016006 0.8511428 -0.1547667 16707812 female
-1.1187 0.4108709 0.3039479 -0.8579772 -0.4322096 0.277615 13620455 female
-1.343116 0.1894251 -0.1705795 -0.4128034 0.2586902 -0.8733113 5923178 female
-1.378374 -0.1841576 0.3103193 -0.6439806 -0.04488362 0.763724 2170145 female
-1.108469 0.28677 0.2070518 0.9656588 0.09942 0.2400393 13553639 female
-1.219849 -0.6986878 -0.06723021 0.4648284 -0.7615663 -0.4516096 723209 female
-1.118398 0.29836 0.1327329 0.9029701 0.0968006 -0.4186581 11843012 female
-1.254708 0.4058993 0.004315715 -0.1665638 -0.03089823 -0.9855464 2894892 female
-1.283894 0.861275 0.1090013 0.09400959 0.3193838 -0.9429508 3025958 female
-1.383263 0.7724398 0.1580812 -0.7985614 -0.02505575 -0.6013916 15324099 female
-1.21945 0.0005889591 -0.03179611 0.6204596 -0.3103988 -0.7201961 2434085 female
-1.318352 0.09356404 0.1663788 -0.655866 -0.6628502 0.3612054 2236963 female
-1.235536 -0.50244 0.003408047 0.5225559 -0.2351104 0.8195477 2302245 female
-1.327003 0.1825882 -0.01204263 -0.7433538 0.2072666 -0.6359761 12238794 female
-1.117232 0.6031082 0.1782953 0.8263209 0.4755107 -0.3018002 3945533 female
-1.320768 -0.3014946 0.1940262 -0.6706979 -0.0317678 -0.74105 2105120 female
-1.341078 0.3398509 0.1761234 -0.9340031 0.08456479 0.3471125 16053501 female
-1.37806 -0.05842627 0.01130123 -0.9227645 -0.07692235 -0.3776089 2564647 female
-1.276892 -0.4264787 0.0257153 -0.3878047 -0.2228524 0.894396 1973534 female
-1.220722 0.2766162 0.2760487 -0.2119877 0.1198358 0.9698972 14606312 female
-1.377452 -0.0318208 0.07161213 -0.9088811 -0.09380279 0.4063694 2171945 female
-1.244624 0.1487665 0.296723 -0.4591668 0.2881854 0.8403065 6842480 female
-1.25286 -0.4080098 -0.07787112 0.1515701 0.0311831 -0.9879545 1514272 female
-1.370568 0.7522098 0.1503252 -0.6351246 -0.1950611 -0.7473741 16246230 female
-1.094422 0.4816239 0.170362 0.9742291 -0.04684252 -0.2206433 14804470 female
-1.180314 0.6117725 0.3153384 -0.2777271 0.7236632 0.6318063 14211552 female
-1.298944 -0.005982413 0.1578963 -0.4896265 -0.04752477 -0.8706362 2237218 female
-1.3436 -0.6701781 -0.02504093 -0.452484 0.8908703 0.04010493 16377304 female
-1.370948 0.8923955 0.2021535 -0.6352881 0.7705874 0.05102998 2696225 female
-1.300277 0.06149064 0.3010029 -0.553359 0.335867 0.7622252 2303015 female
-1.297572 -0.5515904 -0.03911334 -0.9854961 -0.106754 -0.1319131 2895148 female
-1.166787 0.3409426 0.2686833 0.3365932 -0.03189311 0.9411099 11580347 female
-1.266878 0.3955329 0.268318 -0.2548086 -0.7861214 0.5631036 12171458 female
-1.230472 0.7345972 0.1478581 0.8733157 0.1768794 -0.453909 2893604 female
-1.40704 0.02246424 -0.1634158 0.01697041 -0.1873752 0.9821418 723465 female
-1.203388 0.6674808 0.1050632 0.6863518 0.6352381 -0.3541099 15385526 female
-1.2255 -0.4682522 0.1442464 -0.735629 -0.1828655 -0.6522347 1842977 female
-1.32574 0.6895796 0.1615513 -0.6460166 -0.5623127 -0.5162044 13943475 female
-1.3187 0.3157198 0.0378397 -0.8300892 0.1372586 -0.540474 2894892 female
-1.344158 0.06318642 -0.02584827 -0.6933261 0.08844788 -0.7151754 2040615 female
-1.224225 -0.4939093 -0.004887991 0.7927126 -0.1948185 0.5776266 2169889 female
-1.334582 0.7862512 0.1201573 -0.1056412 -0.04443903 -0.9934108 12230812 female
-1.313568 0.462927 -0.02636691 -0.7467001 -0.4358835 0.5024387 7040371 female
-1.310778 0.5086997 0.2384975 -0.7947952 0.4506962 0.4064154 14870772 female
-1.222547 0.7842748 0.1498844 0.8679428 -0.3388037 -0.3631631 3486769 female
-1.302662 0.8432811 0.1056786 -0.08645918 0.1387367 -0.986548 2696225 female
-1.172725 -0.5181627 0.1115286 -0.3398573 0.1698844 -0.9250061 1841951 female
-1.245457 0.8716516 0.1281294 0.6041808 0.4785827 -0.6371219 5459531 female
-1.283352 0.193684 0.2604721 -0.618356 -0.02798019 0.7853999 13884908 female
-1.245686 0.749889 0.2152107 0.7859431 -0.1861083 0.5896246 1117449 female
-1.417216 -0.02354123 -0.1757654 0.8438576 -0.3969657 -0.3610021 1973790 female
-1.206741 -0.5536343 0.1612478 -0.5666769 0.03376226 0.8232481 2303531 female
-1.263276 -0.2215136 0.07924628 0.3425401 -0.1560237 0.9264572 2368292 female
-1.21064 -0.417248 0.2322809 0.4743093 -0.3114192 0.8234372 1775131 female
-1.148368 0.0913192 -0.007992444 0.7378158 -0.161077 -0.6555014 9013909 female
-1.203292 0.6443663 0.2557175 -0.4506137 0.6870098 0.5700569 13883362 female
-1.115373 0.345449 0.134053 0.8656699 -0.1179702 -0.4865169 15198199 female
-1.30933 0.09388815 0.2023526 -0.9448978 0.2638229 -0.1938187 2697260 female
-1.291594 0.6617936 0.09951632 -0.8019905 0.5096988 -0.3114777 16110785 female
-1.357571 0.1198061 0.08549845 -0.951158 0.157075 0.2657553 5986924 female
-1.309994 -0.1981791 0.2075768 0.4848745 -0.06571839 -0.8721111 2171169 female
-1.130948 0.05670285 0.08043686 0.6689918 -0.7278554 -0.1505875 2237218 female
-1.217802 0.003482453 0.3263474 0.2366119 -0.1025782 0.9661742 1710875 female
-1.219817 -0.5930147 0.1341448 -0.7578469 0.2090491 -0.6180345 14205376 female
-1.227247 -0.3086612 0.259545 0.8157595 0.1887239 0.5467356 2170403 female
-1.240659 -0.2484995 -0.005672523 0.9745989 0.06677821 -0.2137702 1580065 female
-1.023067 0.1605174 0.3762637 0.6596612 0.1679392 0.7325595 12107464 female
-1.352726 0.2689024 0.1082339 -0.9734921 0.162984 -0.1604664 10857397 female
-1.240216 -0.674601 0.2226844 0.5816538 -0.813319 -0.01382212 1841433 female
-1.262988 0.8261257 0.2521198 0.4636426 -0.07451405 0.8828835 2500646 female
-1.328339 0.433231 0.2514035 -0.9123124 -0.2898551 0.2892576 5989484 female
-1.345619 0.01401032 0.2717386 -0.8984738 0.2873437 0.3319314 2499878 female
-1.22147 0.6855021 0.2001889 0.3699508 0.5617697 0.739967 11245705 female
-1.361165 0.1321745 0.03360732 -0.9435231 0.308914 -0.119734 13751010 female
-1.330593 0.1061131 0.1696071 -0.7521039 -0.5780855 0.3164757 12896212 female
-1.229193 0.4683605 0.3036828 0.1256613 -0.007784126 0.9920427 3685184 female
-1.258518 0.005570607 0.1404408 -0.2553012 -0.06511366 -0.9646665 789516 female
