# .PCD v0.7 - Point Cloud Data file format
VERSION 0.7
FIELDS x y z normal_x normal_y normal_z rgb label
SIZE 4 4 4 4 4 4 4 4
TYPE F F F F F F U U
COUNT 1 1 1 1 1 1 1 1
WIDTH 171
HEIGHT 1
VIEWPOINT 0 0 0 1 0 0 0
POINTS 171
DATA ascii
-3.120167 -0.1260217 -0.4595255 -0.8792238 -0.1840829 0.4394076 2105894 female
-3.242107 0.05081715 -0.5576184 0.04406321 -0.7475351 -0.6627592 2302499 female
-3.135156 0.7966061 -0.3014542 0.08040433 0.05898711 0.9950154 13352114 female
-3.129866 -0.1145657 -0.4759619 -0.9432982 -0.2216864 0.2470703 2106409 female
-3.19226 0.07690989 -0.3445357 0.491568 0.04058176 0.8698931 3552574 female
-3.07905 0.617314 -0.5737442 0.06573211 0.5180262 -0.8528353 15000304 female
-3.00659 0.419146 -0.5601198 0.5790181 -0.224051 0.7839255 7435136 female
-3.042425 0.5054287 -0.3861536 0.568727 0.5003279 0.6528565 15199735 female
-3.125254 0.5753497 -0.3712252 0.5334585 0.3660271 0.7625262 16118781 female
-3.307831 0.6296961 -0.4209789 -0.7154062 0.6237942 -0.3147614 15199223 female
-3.076426 0.6192081 -0.5722849 0.09078866 0.5401129 -0.8366813 14802667 female
-2.981254 -0.01582626 -0.5339708 0.9397074 -0.09287642 -0.3291262 1645601 female
-3.256547 -0.3276965 -0.441182 0.6686021 -0.3648008 0.6479905 2171425 female
-2.978096 0.05265399 -0.4958768 0.9901069 0.1074725 0.09021144 2369065 female
-3.326144 -0.09773573 -0.4040985 -0.8946046 -0.1574869 0.4181871 2170657 female
-3.32918 -0.2384261 -0.438079 -0.9291387 -0.01125447 0.3695602 1842468 female
-3.311919 -0.465584 -0.4512517 0.01571039 -0.2343099 0.972035 2697264 female
-3.076913 -0.1120586 -0.4134224 -0.3873376 -0.1324099 0.91238 2171172 female
-3.152279 0.08321782 -0.3701113 0.3233169 -0.5422468 0.7755222 12238802 female
-3.06689 0.774199 -0.3554309 0.9675967 -0.04600653 0.2482739 16309454 female
-3.425412 0.304002 -0.3850853 -0.8396857 -0.1308361 -0.5270767 13817312 female
-3.069896 0.44303 -0.5677933 -0.7739616 -0.3311696 0.5397315 526344 female
-2.980337 0.06097491 -0.484703 0.9730533 0.137523 0.1850799 1775387 female
-3.293957 -0.1853419 -0.5077769 -0.4312404 0.0216307 -0.9019777 2368297 female
-3.275552 -0.2716919 -0.4000726 -0.1965638 -0.2908061 0.9363731 2171945 female
-3.059105 0.3308541 -0.6118851 -0.9553435 -0.2654271 0.1298742 4276553 female
-3.058163 -0.1230326 -0.5667754 -0.03459406 -0.1902215 -0.9811316 2434088 female
-3.272853 -0.448088 -0.4712267 0.7326295 -0.2327127 0.6396083 2105377 female
-3.258193 0.6451307 -0.3622361 0.0342761 0.6949816 0.71821 13413795 female
-3.086879 -0.4861482 -0.5110005 -0.9594707 -0.2172928 -0.1794432 2236706 female
-2.938231 -0.7030018 -0.4101814 0.04072486 -0.9942228 0.09931035 921102 female
-3.162172 0.178927 -0.3269424 0.0659832 -0.2591037 0.963593 13685481 female
-3.037848 -0.1199874 -0.5650119 0.2559249 -0.175498 -0.9506329 2171430 female
-3.026032 0.2412919 -0.5653818 0.7653182 0.377059 -0.521646 723724 female
-3.15115 0.6934553 -0.3557059 -0.1835078 -0.5896757 0.7865161 16508372 female
-3.337699 -0.06013583 -0.2246336 0.2501715 -0.96755 0.03551427 2170913 female
-3.351849 -0.3570135 -0.5205753 -0.8416736 0.2277827 -0.4895924 2171169 female
-3.025974 0.4681047 -0.5335424 0.2111861 -0.3815739 0.8998899 14870265 female
-3.311823 -0.0651904 -0.3704426 -0.724597 -0.1775692 0.6659042 2170913 female
-3.206129 0.3821773 -0.3285318 -0.1917266 -0.2848178 0.9392123 12896989 female
-3.219743 0.2896724 -0.3375477 -0.2367968 0.0605207 0.9696724 15199231 female
-3.182515 0.327205 -0.3291799 -0.1601308 -0.05678318 0.9854612 3880507 female
-3.03281 0.2635056 -0.4293229 0.928906 0.1297463 0.3468423 14805746 female
-3.049204 -0.4628192 -0.4611484 -0.08433906 -0.1036668 0.9910299 2301731 female
-3.006749 0.07093965 -0.4371585 0.7186176 0.2414334 0.6521494 2829099 female
-3.126929 0.6611964 -0.3884394 0.8329196 -0.2104769 0.5118051 16312535 female
-3.000679 0.1373921 -0.5614585 0.904172 0.1826339 -0.3861579 4078919 female
-2.98239 0.3465708 -0.594413 0.5123006 0.2820531 0.8111684 14871033 female
-3.067032 -0.03929298 -0.5865115 -0.05518354 -0.3182502 -0.9463993 2302502 female
-3.088104 -0.4547808 -0.5279542 -0.8497601 -0.2166146 -0.48061 2303273 female
-3.327225 0.6071802 -0.3305942 -0.5539896 0.7510849 0.3591199 9211540 female
-3.014162 -0.1708458 -0.420007 0.4684682 -0.08583703 0.8793007 2106152 female
-3.378622 0.176524 -0.2821059 0.2699682 0.3275802 0.9054328 15660798 female
-3.031337 -0.6653413 -0.5201634 0.3991379 0.04644097 -0.915714 5920082 female
-3.209975 0.1911711 -0.5953596 -0.4680891 0.3015217 -0.8306487 15132414 female
-3.104738 0.6535217 -0.542774 0.03949885 0.7535346 -0.6562206 13948130 female
-3.032758 0.350193 -0.5828806 -0.05805953 -0.1939581 0.9792902 14606327 female
-3.313119 0.4410639 -0.3614682 0.9260193 -0.3746386 -0.04619776 986383 female
-3.285984 0.01383273 -0.3389367 -0.4644001 -0.06328781 0.8833613 6315616 female
-3.27045 0.62949 -0.3435081 0.1735902 0.7398345 0.6500087 12895692 female
-3.003468 0.4105645 -0.5658409 0.6424314 -0.2036938 0.7387764 14144743 female
-2.997177 0.1984844 -0.6104023 -0.6158684 -0.4722733 -0.630606 13356248 female
-2.988037 -0.1516294 -0.5105802 0.9284364 -0.08055028 -0.3626535 1776155 female
-3.228697 -0.2644767 -0.5045397 0.7231199 -0.1975252 -0.6618772 2170148 female
-3.335918 -0.7150859 -0.374642 0.9848598 0.0152364 0.1726819 1972758 female
-3.029001 0.4064654 -0.6442184 0.05909247 0.1880028 -0.9803892 12369355 female
-2.987721 0.406239 -0.6103138 0.9727118 0.2066433 -0.1055002 13290962 female
-3.168582 0.2420801 -0.5922565 -0.3559925 0.4441849 -0.8221734 10265261 female
-3.105144 0.8566506 -0.4569671 0.6093087 0.1715588 -0.7741515 2565671 female
-3.242014 0.2851562 -0.3435936 -0.3722607 0.07798111 0.9248464 12303815 female
-3.397197 0.09013236 -0.2754646 -0.8683258 -0.1245755 0.480095 5396314 female
-3.243734 0.06434125 -0.5701982 -0.08985972 -0.5921202 -0.8008239 2301475 female
-3.142639 0.7011107 -0.4594816 0.48547 0.4416419 -0.7545008 14204849 female
-3.088046 0.7364019 -0.4003626 0.7428955 -0.4163454 -0.5241781 15391948 female
-3.271991 0.4082726 -0.5028866 -0.6985499 -0.1101505 -0.7070324 13554918 female
-3.202959 -0.1811052 -0.4152667 0.9071437 -0.2823374 0.3120511 1908257 female
-3.336327 0.01260699 -0.3901502 -0.8752033 -0.103332 0.4725904 2236706 female
-3.345927 0.3523213 -0.3774966 0.9479133 -0.2806049 -0.1507358 10198180 female
-3.216075 0.1900354 -0.5921218 -0.4692864 0.2934305 -0.8328678 14408947 female
-3.036927 0.2587157 -0.4175647 0.9126142 0.108681 0.3941114 15726591 female
-3.169946 0.6927575 -0.4716564 -0.1385215 0.6953089 -0.7052357 16309455 female
-3.069784 -0.09277727 -0.4092006 -0.2656956 -0.123159 0.9561578 2170914 female
-3.350957 -0.7150005 -0.4490755 -0.9063077 -0.4145592 -0.08214062 4010287 female
-3.251936 -0.3740759 -0.5180418 0.9140227 -0.0036834 -0.4056463 2170913 female
-3.152812 0.04039386 -0.4022434 0.980185 0.09842328 0.171902 2105384 female
-3.27178 -0.1882737 -0.3769737 -0.1897938 -0.2895901 0.9381449 2171945 female
-3.051207 0.6035535 -0.5814397 0.07498405 0.509662 -0.857101 14080999 female
-3.092718 -0.1375118 -0.5521987 -0.5055827 -0.2314922 -0.8311423 2172201 female
-3.187308 0.3347211 -0.3294039 -0.1842594 -0.07318496 0.9801492 15199231 female
-3.294313 0.6402485 -0.4264273 -0.6703992 0.657389 -0.3440998 13356502 female
-3.327738 0.6064312 -0.4117781 -0.8549331 0.4339336 -0.2842374 15725567 female
-3.311939 0.47254 -0.3799733 0.8675061 -0.3800284 -0.3209542 526601 female
-3.095727 -0.2969149 -0.4991464 -0.9738068 -0.01073393 -0.2271235 2170914 female
-3.318 -0.6918509 -0.4208241 -0.3335082 0.8679457 0.3680252 14924981 female
-3.034554 0.4451558 -0.5429702 -0.07856297 -0.3677304 0.9266079 14803440 female
-3.380238 0.1480649 -0.2723103 -0.004460798 0.3354051 0.9420635 12765658 female
-2.986343 -0.2124395 -0.5023959 0.9567015 -0.04545601 -0.2874994 1841948 female
-3.10395 0.2708835 -0.5921559 0.08349327 0.4755847 -0.8756986 12962008 female
-3.32045 -0.6785631 -0.5660897 0.3832303 0.1607865 -0.9095506 16371650 female
-3.186427 0.2912985 -0.5608553 -0.5083972 0.3385841 -0.7917659 6315360 female
-3.257485 0.4021788 -0.340255 -0.5524957 -0.5097972 0.6594357 14738672 female
-3.231621 0.8641886 -0.4036897 -0.9691821 0.2454176 0.02136049 3025958 female
-3.105172 0.8219234 -0.3009096 0.4044937 -0.2998824 0.8639765 11773083 female
-3.341804 0.02793358 -0.4771204 -0.8968816 -0.1942395 -0.3973341 2235938 female
-3.310378 -0.7108158 -0.3514933 0.1059443 0.9410844 0.3211477 5786697 female
-3.205713 -0.152898 -0.3888526 0.7773609 -0.2916702 0.5573496 2169889 female
-3.186066 0.1380324 -0.3393675 0.07002299 -0.3031464 0.9503678 8357779 female
-3.153983 0.6146961 -0.5629081 -0.3782997 0.465655 -0.8000342 15133437 female
-3.073087 -0.3869583 -0.4606318 -0.4330623 -0.03748887 0.900584 1776155 female
-3.060382 0.4497371 -0.3574708 0.3940476 -0.2145766 0.8936908 2959670 female
-3.273384 -0.04881761 -0.33988 -0.3289575 -0.1679275 0.929294 2697001 female
-3.339702 -0.5687441 -0.4886835 -0.8192591 -0.1744225 0.5462521 2368036 female
-3.024116 0.2883407 -0.4774901 0.9830651 0.1468115 0.109679 14737897 female
-3.169183 -0.06154227 -0.4441168 0.9559118 -0.2177967 -0.1969702 1776161 female
-3.006138 0.1633742 -0.5607294 0.8923187 0.1697685 -0.4182655 460807 female
-3.362519 -0.400768 -0.5016567 -0.9989655 0.03115374 -0.03312545 1579550 female
-3.155005 0.7672071 -0.3037399 -0.376093 -0.2028595 0.9041029 15848904 female
-3.172311 0.4941233 -0.5798758 -0.4165271 -0.04968224 -0.9077647 4737363 female
-3.067192 0.6394205 -0.4745942 0.5078639 0.6512956 0.5638158 12961232 female
-3.140826 -0.05021742 -0.4584329 -0.866703 -0.2174769 0.4489206 15395821 female
-3.32778 -0.6826674 -0.4453821 -0.5524851 0.7242207 0.4126313 15649477 female
-3.129702 0.9099627 -0.3348438 0.08220574 0.8343403 0.5450857 2696225 female
-3.007667 0.06187136 -0.4322684 0.6952463 0.2146486 0.6859727 2499625 female
-3.258551 -0.4338645 -0.4851854 0.8927217 -0.2203487 0.3930579 1973534 female
-3.042677 0.3351107 -0.5322158 0.8501643 0.2014402 -0.4864591 15726591 female
-3.043563 0.3569931 -0.4225326 0.9556875 0.04304703 0.2912188 7632513 female
-3.190507 0.73586 -0.4493913 -0.5922386 0.06715578 -0.8029593 2893604 female
-3.388823 0.102002 -0.2645388 -0.5997934 0.01503619 0.8000136 14407899 female
-3.241122 0.6720586 -0.3913232 -0.3229782 0.7692951 0.5512441 14073261 female
-3.061028 -0.5561042 -0.4790204 -0.6272631 -0.1264566 0.7684723 1776669 female
-3.160255 0.7010599 -0.3544458 -0.350092 -0.5471999 0.7602683 13943475 female
-3.202513 0.3205271 -0.3340608 -0.2144897 -0.02956129 0.9762788 15199999 female
-3.232746 0.05393475 -0.3282203 0.1181 0.05442112 0.9915093 2697774 female
-3.298418 -0.4720996 -0.5511685 0.2157623 -0.0974396 -0.971572 2236713 female
-3.18624 0.7426724 -0.3409928 -0.8092369 -0.3905538 0.4388661 14603205 female
-3.351717 0.4027792 -0.3265804 0.3517796 -0.1896528 0.9166694 15725567 female
-3.179623 0.4212262 -0.2895358 0.173929 -0.5668834 0.8052278 10394792 female
-3.194011 0.7841594 -0.4626173 -0.4600749 -0.441996 -0.7700459 3486769 female
-3.230836 0.8481296 -0.3829507 -0.9727819 0.08423398 0.2158706 2696225 female
-3.057505 -0.6551639 -0.4866325 -0.9086472 0.0163856 0.417243 1842462 female
-3.2192 0.8716852 -0.4454081 -0.7459022 0.3757017 -0.5499803 5459531 female
-3.023506 0.2045523 -0.4382971 0.9071066 0.01188272 0.4207331 13554657 female
-3.123217 0.7571905 -0.4464426 0.491458 -0.2140844 -0.8441783 1117449 female
-3.395941 0.08058086 -0.296347 -0.8359392 -0.1106611 -0.5375498 5197917 female
-3.001888 -0.6278087 -0.4540829 0.6267488 0.6426491 0.4406678 2959662 female
-3.209479 -0.2298234 -0.4534829 0.9612517 -0.2676838 0.06588303 2105377 female
-2.992592 -0.4686638 -0.5140613 0.9720817 -0.1155215 -0.2042353 1973534 female
-3.342557 0.115969 -0.4887218 -0.9548749 0.1026271 -0.2787144 7172989 female
-3.109917 0.6132126 -0.5752852 -0.0953965 0.4157821 -0.9044472 15593210 female
-3.183623 0.3381415 -0.557463 -0.6101017 -0.05771232 -0.7902185 14605809 female
-3.086609 0.07613496 -0.4119577 -0.06680045 0.05634671 0.996174 2697260 female
-3.153114 0.6420824 -0.3736961 0.443764 -0.2102455 0.8711317 15847360 female
-3.278285 0.1952073 -0.3444158 -0.4408746 0.1000913 0.8919705 15725567 female
-3.093818 -0.2936217 -0.5078638 -0.9158311 0.05218551 -0.3981584 2170660 female
-3.331275 0.07749394 -0.5173027 -0.8277787 -0.1193575 -0.5482119 2500910 female
-3.017407 -0.1891114 -0.5408394 0.5011974 -0.1219804 -0.8566924 1907490 female
-3.018635 -0.6696502 -0.4284181 -0.7311342 0.1222682 0.6711879 16508899 female
-2.998324 -0.5206199 -0.4906364 0.9603112 -0.08635195 0.2652275 1777187 female
-3.279874 -0.2534563 -0.5150812 -0.1766026 0.06350935 -0.9822312 2039585 female
-2.942516 0.1883898 -0.5917068 0.9341657 0.1072554 -0.3403392 7830143 female
-3.144666 0.2324064 -0.3258844 0.1767086 0.0144921 0.9841565 15002879 female
-2.898169 -0.6936285 -0.4023084 0.8242897 -0.3133878 0.4715235 1578260 female
-3.071377 0.8521582 -0.4065329 0.9432914 0.07176435 -0.3241159 2698281 female
-3.025907 0.5047887 -0.4045759 0.7303299 0.4826359 0.4834054 14936051 female
-3.052786 0.009305073 -0.4012492 0.1488182 0.03385025 0.9882851 2434342 female
-3.127746 0.6873451 -0.4542501 0.7901955 0.4192725 -0.4469917 12165524 female
-3.265387 0.1003029 -0.3352911 -0.2062835 0.1387946 0.9685985 13948908 female
-3.150164 0.04827009 -0.4301961 0.8343216 -0.5417972 0.1018 2039329 female
-3.020182 0.5671456 -0.4800099 0.662209 -0.1010387 0.7424759 8554122 female
-3.129684 -0.09114653 -0.4611408 -0.8746758 -0.2379959 0.4222561 5723226 female
-3.206538 0.6636544 -0.4837961 -0.5096428 0.5380798 -0.6713676 14662832 female
