# .PCD v0.7 - Point Cloud Data file format
VERSION 0.7
FIELDS x y z normal_x normal_y normal_z rgb label
SIZE 4 4 4 4 4 4 4 4
TYPE F F F F F F U U
COUNT 1 1 1 1 1 1 1 1
WIDTH 717
HEIGHT 1
VIEWPOINT 0 0 0 1 0 0 0
POINTS 717
DATA ascii
-2.422642 1.873845 0.1016759 0 -1 1.192093E-07 13017814 Ceiling_1
-3.496418 1.873845 -2.058248 -1.329498E-07 -1 2.384186E-07 11705289 Ceiling_1
-1.868011 1.873845 0.682418 0 -1 1.192093E-07 11442894 Ceiling_1
2.260039 1.873845 1.231405 0 -1 1.192093E-07 11573448 Ceiling_1
-3.219076 1.873845 -2.293598 -8.803569E-08 -1 2.384186E-07 12361679 Ceiling_1
-2.073271 1.873845 1.372766 0 -1 1.192093E-07 12032972 Ceiling_1
-2.284931 1.873845 -2.165705 -7.637976E-08 -1 1.192093E-07 12426960 Ceiling_1
-3.5773 1.873845 1.995394 0 -1 1.192093E-07 12032972 Ceiling_1
-0.09266992 1.873845 -2.315854 0 -1 1.192093E-07 12886484 Ceiling_1
-1.675038 1.873845 1.010933 0 -1 1.192093E-07 12033489 Ceiling_1
2.129837 1.873845 -1.432045 0 -1 1.192093E-07 12886485 Ceiling_1
-1.878827 1.873845 -2.114836 0 -1 1.192093E-07 12558288 Ceiling_1
-2.929919 1.873845 1.034932 0 -1 1.192093E-07 12230608 Ceiling_1
-1.10757 1.873845 -1.445652 0 -1 1.192093E-07 12952278 Ceiling_1
2.544786 1.873845 0.08800042 0 -1 1.192093E-07 12623827 Ceiling_1
-1.915337 1.873845 -1.481736 0 -1 1.192093E-07 12427216 Ceiling_1
-3.018741 1.873845 -1.20923 -4.265669E-08 -1 1.192093E-07 13017814 Ceiling_1
-1.095539 1.873845 -1.697316 0 -1 1.192093E-07 12886485 Ceiling_1
2.824664 1.873845 -2.500138 0 -1 4.768372E-07 13017814 Ceiling_1
-0.192921 1.873845 1.4864 0 -1 1.192093E-07 11508679 Ceiling_1
-3.151371 1.873845 0.01531672 0 -1 1.192093E-07 11442635 Ceiling_1
-1.530679 1.873845 0.8645643 0 -1 1.192093E-07 12558545 Ceiling_1
1.852163 1.873845 1.60191 0 -1 1.192093E-07 13017814 Ceiling_1
-0.7493695 1.873845 -0.4131901 0 -1 1.192093E-07 13017814 Ceiling_1
-2.201039 1.873845 -0.5839573 0 -1 1.192093E-07 12886485 Ceiling_1
1.896247 1.873845 -2.084466 0 -1 3.576279E-07 12164814 Ceiling_1
-2.462893 1.873845 -0.8212355 0 -1 1.192093E-07 12623826 Ceiling_1
0.2060781 1.873845 -0.9991112 0 -1 1.192093E-07 12558290 Ceiling_1
-0.1302196 1.873845 -0.179739 0 -1 1.192093E-07 12361169 Ceiling_1
-1.328457 1.873845 1.37741 0 -1 1.192093E-07 11967951 Ceiling_1
-0.06429571 1.873845 2.154852 0 -1 1.192093E-07 12755413 Ceiling_1
-2.474559 1.873845 0.6565256 0 -1 1.192093E-07 12558545 Ceiling_1
1.988772 1.873845 -1.766089 0 -1 2.384186E-07 12952277 Ceiling_1
-3.052298 1.873845 -0.2864484 0 -1 1.192093E-07 13017814 Ceiling_1
1.673747 1.873845 0.05225086 0 -1 1.192093E-07 13017814 Ceiling_1
-1.863953 1.873845 2.914667E-05 0 -1 1.192093E-07 12689620 Ceiling_1
-1.378005 1.873845 1.324302 0 -1 1.192093E-07 12624084 Ceiling_1
-3.556919 1.873845 -1.73608 -1.694346E-07 -1 1.192093E-07 12361681 Ceiling_1
-0.1643608 1.873845 2.090948 0 -1 1.192093E-07 13017814 Ceiling_1
-0.1397354 1.873845 -2.071883 0 -1 1.192093E-07 12230350 Ceiling_1
-1.497824 1.873845 -1.429855 0 -1 1.192093E-07 13017814 Ceiling_1
-0.6245424 1.873845 0.48355 0 -1 1.192093E-07 13017814 Ceiling_1
-2.973692 1.873845 0.09503531 0 -1 1.192093E-07 11902414 Ceiling_1
0.5804697 1.873845 -0.03309369 0 -1 1.192093E-07 13017814 Ceiling_1
2.611943 1.873845 1.182978 0 -1 1.192093E-07 12427219 Ceiling_1
1.911587 1.873845 -1.895881 0 -1 2.384186E-07 12361426 Ceiling_1
-1.472226 1.873845 -0.9120185 0 -1 1.192093E-07 12033489 Ceiling_1
-0.7616282 1.873845 2.108399 0 -1 1.192093E-07 11508687 Ceiling_1
1.108304 1.873845 -1.569109 0 -1 1.192093E-07 12295631 Ceiling_1
-3.747861 1.873845 0.6525408 0 -1 1.192093E-07 11376326 Ceiling_1
-3.061553 1.873845 1.854305 0 -1 1.192093E-07 12361170 Ceiling_1
-1.675892 1.873845 0.9225155 0 -1 1.192093E-07 13017814 Ceiling_1
-0.7287903 1.873845 -1.283198 0 -1 1.192093E-07 13017814 Ceiling_1
1.98762 1.873845 0.7093858 0 -1 1.192093E-07 11901643 Ceiling_1
-3.360369 1.873845 1.448158 0 -1 1.192093E-07 12755411 Ceiling_1
-2.126805 1.873845 1.320123 0 -1 1.192093E-07 13017814 Ceiling_1
-1.9282 1.873845 0.8769102 0 -1 1.192093E-07 13017814 Ceiling_1
1.869964 1.873845 -2.497823 0 -1 4.768372E-07 12952278 Ceiling_1
0.2142046 1.873845 1.915673 0 -1 1.192093E-07 12230095 Ceiling_1
-3.240016 1.873845 2.07304 0 -1 1.192093E-07 12820948 Ceiling_1
0.9670472 1.873845 2.169928 0 -1 1.192093E-07 12820692 Ceiling_1
-1.121209 1.873845 -2.143314 0 -1 1.192093E-07 13017814 Ceiling_1
-2.058552 1.873845 0.8565313 0 -1 1.192093E-07 13017814 Ceiling_1
1.465194 1.873845 -0.4907774 0 -1 1.192093E-07 12361168 Ceiling_1
-3.092767 1.873845 1.075158 0 -1 1.192093E-07 13017814 Ceiling_1
-1.515199 1.873845 -0.7578387 0 -1 1.192093E-07 11836624 Ceiling_1
0.2439294 1.873845 -1.617135 0 -1 1.192093E-07 12164301 Ceiling_1
1.542574 1.873845 -2.22383 0 -1 2.384186E-07 12558290 Ceiling_1
2.458419 1.873845 -1.566988 0 -1 2.384186E-07 12032972 Ceiling_1
-2.49064 1.873845 -0.5867267 0 -1 1.192093E-07 12426960 Ceiling_1
2.276688 1.873845 0.2471348 0 -1 1.192093E-07 11639501 Ceiling_1
-2.034365 1.873845 1.702035 0 -1 1.192093E-07 13017814 Ceiling_1
-3.247853 1.873845 -0.3494626 0 -1 1.192093E-07 12755155 Ceiling_1
0.02061585 1.873845 -0.3243415 0 -1 1.192093E-07 12623826 Ceiling_1
-0.7951436 1.873845 0.5824834 0 -1 1.192093E-07 11311302 Ceiling_1
0.9226891 1.873845 1.958245 0 -1 1.192093E-07 12033489 Ceiling_1
1.659415 1.873845 -1.420502 0 -1 1.192093E-07 11442119 Ceiling_1
1.007493 1.873845 0.7174048 0 -1 1.192093E-07 13017814 Ceiling_1
-0.7404498 1.873845 -1.255514 0 -1 1.192093E-07 12755411 Ceiling_1
0.6781155 1.873845 1.993264 0 -1 1.192093E-07 12558546 Ceiling_1
0.9643071 1.873845 -0.4209404 0 -1 1.192093E-07 12820948 Ceiling_1
-2.415272 1.873845 0.2426938 0 -1 1.192093E-07 11901643 Ceiling_1
2.586493 1.873845 1.112432 0 -1 1.192093E-07 13017814 Ceiling_1
-3.231178 1.873845 -2.195255 -1.294131E-07 -1 2.384186E-07 12952278 Ceiling_1
2.822089 1.873845 1.09867 0 -1 1.192093E-07 12755413 Ceiling_1
-0.559822 1.873845 2.039261 0 -1 1.192093E-07 11377358 Ceiling_1
0.4096097 1.873845 -1.334988 0 -1 1.192093E-07 12820948 Ceiling_1
2.04004 1.873845 0.1108516 0 -1 1.192093E-07 11442119 Ceiling_1
2.678428 1.873845 -1.772394 0 -1 3.576279E-07 13017814 Ceiling_1
-2.32404 1.873845 -0.3428226 0 -1 1.192093E-07 12886485 Ceiling_1
-2.674638 1.873845 1.42183 0 -1 1.192093E-07 12886485 Ceiling_1
-2.79517 1.873845 -0.006443381 0 -1 1.192093E-07 11967437 Ceiling_1
0.7322499 1.873845 -1.567162 0 -1 1.192093E-07 12952278 Ceiling_1
1.944745 1.873845 -1.692797 0 -1 1.192093E-07 12558546 Ceiling_1
-2.357821 1.873845 -1.03142 0 -1 1.192093E-07 12098766 Ceiling_1
-0.4250447 1.873845 -1.701493 0 -1 1.192093E-07 11967696 Ceiling_1
2.241057 1.873845 -0.3260025 0 -1 1.192093E-07 12099025 Ceiling_1
-3.733792 1.873845 -0.2137377 0 -1 1.192093E-07 12624082 Ceiling_1
1.21963 1.873845 1.313582 0 -1 1.192093E-07 12558548 Ceiling_1
-2.405178 1.873845 1.91103 0 -1 1.192093E-07 12886485 Ceiling_1
-0.9545426 1.873845 -1.70577 0 -1 1.192093E-07 13017814 Ceiling_1
-3.36276 1.873845 0.5356866 0 -1 1.192093E-07 13017814 Ceiling_1
-2.861274 1.873845 -1.965158 -1.614422E-07 -1 1.192093E-07 12492496 Ceiling_1
-0.7324467 1.873845 2.080111 0 -1 1.192093E-07 11902417 Ceiling_1
-2.464964 1.873845 0.4186877 0 -1 1.192093E-07 13017814 Ceiling_1
0.1337881 1.873845 0.3118984 0 -1 1.192093E-07 12492497 Ceiling_1
-1.235686 1.873845 -0.139642 0 -1 1.192093E-07 12361423 Ceiling_1
-0.6090834 1.873845 1.673919 0 -1 1.192093E-07 13017814 Ceiling_1
0.432236 1.873845 -1.020559 0 -1 1.192093E-07 13017814 Ceiling_1
1.896248 1.873845 -1.196582 0 -1 1.192093E-07 12295887 Ceiling_1
1.974147 1.873845 0.7650123 0 -1 1.192093E-07 12558545 Ceiling_1
-2.98415 1.873845 -0.7973663 0 -1 1.192093E-07 13017814 Ceiling_1
1.12643 1.873845 2.148817 0 -1 1.192093E-07 12099025 Ceiling_1
-2.147831 1.873845 -0.9247448 0 -1 1.192093E-07 11836624 Ceiling_1
1.892965 1.873845 2.079057 0 -1 1.192093E-07 11836622 Ceiling_1
0.4348028 1.873845 -1.452108 0 -1 1.192093E-07 11771082 Ceiling_1
1.141917 1.873845 0.5043859 0 -1 1.192093E-07 12952021 Ceiling_1
2.234048 1.873845 -1.776386 0 -1 3.576279E-07 13017814 Ceiling_1
-0.6016929 1.873845 0.6079835 0 -1 1.192093E-07 13017814 Ceiling_1
1.347106 1.873845 -2.193936 0 -1 2.384186E-07 12689619 Ceiling_1
-3.769574 1.873845 -1.767239 -1.694346E-07 -1 1.192093E-07 11902411 Ceiling_1
1.234734 1.873845 -0.6199762 0 -1 1.192093E-07 12952278 Ceiling_1
0.747719 1.873845 -2.101927 0 -1 1.192093E-07 12623826 Ceiling_1
-3.457675 1.873845 -1.393292 -1.694346E-07 -1 1.192093E-07 12952021 Ceiling_1
-0.834268 1.873845 -0.2698922 0 -1 1.192093E-07 12886485 Ceiling_1
-3.738271 1.873845 -2.133432 -9.487368E-08 -1 2.384186E-07 12755413 Ceiling_1
0.7079193 1.873845 1.521731 0 -1 1.192093E-07 12755413 Ceiling_1
0.2901617 1.873845 2.154094 0 -1 1.192093E-07 12952021 Ceiling_1
1.520328 1.873845 2.049474 0 -1 1.192093E-07 12820949 Ceiling_1
-1.737889 1.873845 2.153375 0 -1 1.192093E-07 13017814 Ceiling_1
1.040645 1.873845 -1.217873 0 -1 1.192093E-07 13017814 Ceiling_1
1.629395 1.873845 2.154518 0 -1 1.192093E-07 13017814 Ceiling_1
2.685517 1.873845 -2.356764 0 -1 4.768372E-07 11377358 Ceiling_1
1.802817 1.873845 -2.336211 0 -1 4.768372E-07 12820692 Ceiling_1
1.120737 1.873845 -1.658157 0 -1 1.192093E-07 12624083 Ceiling_1
-0.6734231 1.873845 2.021204 0 -1 1.192093E-07 11573448 Ceiling_1
1.940857 1.873845 -0.2674489 0 -1 1.192093E-07 13017814 Ceiling_1
2.09746 1.873845 -0.3921994 0 -1 1.192093E-07 11573448 Ceiling_1
-3.720784 1.873845 -1.465654 -1.694346E-07 -1 1.192093E-07 11771088 Ceiling_1
-0.7996914 1.873845 -1.875079 0 -1 1.192093E-07 12032972 Ceiling_1
1.317201 1.873845 -2.428329 0 -1 3.576279E-07 12230354 Ceiling_1
-3.185305 1.873845 -1.052956 -4.73321E-08 -1 1.192093E-07 12755413 Ceiling_1
0.1566901 1.873845 -1.46483 0 -1 1.192093E-07 13017814 Ceiling_1
-3.108354 1.873845 -1.426426 -1.064272E-07 -1 1.192093E-07 12952278 Ceiling_1
-1.568749 1.873845 -0.8996964 0 -1 1.192093E-07 12230350 Ceiling_1
-1.425782 1.873845 -1.534765 0 -1 1.192093E-07 12821206 Ceiling_1
-1.631972 1.873845 1.501258 0 -1 1.192093E-07 12427216 Ceiling_1
-1.64054 1.873845 1.947157 0 -1 1.192093E-07 12689619 Ceiling_1
-1.169546 1.873845 -1.255286 0 -1 1.192093E-07 11902160 Ceiling_1
1.883714 1.873845 0.5273587 0 -1 1.192093E-07 12492754 Ceiling_1
1.569755 1.873845 -1.54833 0 -1 1.192093E-07 13017814 Ceiling_1
-2.725446 1.873845 -2.016467 -1.422123E-07 -1 1.192093E-07 12689366 Ceiling_1
2.239439 1.873845 -0.2403736 0 -1 1.192093E-07 12755156 Ceiling_1
-2.063359 1.873845 -1.183801 0 -1 1.192093E-07 12624082 Ceiling_1
-1.376949 1.873845 -1.191363 0 -1 1.192093E-07 12295887 Ceiling_1
-1.839453 1.873845 0.8477891 0 -1 1.192093E-07 12295631 Ceiling_1
2.152614 1.873845 1.814218 0 -1 1.192093E-07 13017814 Ceiling_1
-2.598196 1.873845 -1.840663 -7.899634E-08 -1 1.192093E-07 11967180 Ceiling_1
-1.905077 1.873845 0.1935634 0 -1 1.192093E-07 12689620 Ceiling_1
-2.884189 1.873845 -0.7410625 0 -1 1.192093E-07 13017814 Ceiling_1
-0.9692703 1.873845 -2.506485 0 -1 1.192093E-07 12886485 Ceiling_1
0.7477742 1.873845 -2.058416 0 -1 1.192093E-07 12952278 Ceiling_1
2.196896 1.873845 0.7094061 0 -1 1.192093E-07 13017814 Ceiling_1
-2.460579 1.873845 1.273489 0 -1 1.192093E-07 12624082 Ceiling_1
-0.6486534 1.873845 -0.965353 0 -1 1.192093E-07 12098766 Ceiling_1
2.758938 1.873845 1.724184 0 -1 1.192093E-07 13017814 Ceiling_1
0.8854619 1.873845 1.000436 0 -1 1.192093E-07 12755156 Ceiling_1
-1.805829 1.873845 0.6123111 0 -1 1.192093E-07 13017814 Ceiling_1
1.657716 1.873845 -0.8989745 0 -1 1.192093E-07 13017814 Ceiling_1
-3.399532 1.873845 1.604461 0 -1 1.192093E-07 13017814 Ceiling_1
0.2318303 1.873845 1.622296 0 -1 1.192093E-07 13017814 Ceiling_1
-1.519448 1.873845 0.9551359 0 -1 1.192093E-07 12164560 Ceiling_1
2.221467 1.873845 -2.297852 0 -1 4.768372E-07 12886485 Ceiling_1
-1.843814 1.873845 -2.062778 0 -1 1.192093E-07 12492755 Ceiling_1
-0.9377844 1.873845 -0.110399 0 -1 1.192093E-07 12558546 Ceiling_1
-2.858209 1.873845 -2.326542 -1.519042E-07 -1 1.192093E-07 12952278 Ceiling_1
-2.655604 1.873845 -1.732374 -6.955755E-08 -1 1.192093E-07 12624082 Ceiling_1
1.005815 1.873845 -2.379561 0 -1 1.192093E-07 12361167 Ceiling_1
-3.39365 1.873845 -0.5095253 0 -1 1.192093E-07 12164561 Ceiling_1
1.770725 1.873845 1.793988 0 -1 1.192093E-07 12952278 Ceiling_1
-3.41894 1.873845 -0.1599896 0 -1 1.192093E-07 12099025 Ceiling_1
2.7084 1.873845 -1.855398 0 -1 4.768372E-07 12492497 Ceiling_1
-3.749424 1.873845 0.307684 0 -1 1.192093E-07 11770314 Ceiling_1
2.258122 1.873845 0.6048411 0 -1 1.192093E-07 12689362 Ceiling_1
-0.3512292 1.873845 -2.457929 0 -1 1.192093E-07 12755413 Ceiling_1
1.555832 1.873845 1.93202 0 -1 1.192093E-07 12952021 Ceiling_1
-2.226133 1.873845 1.481541 0 -1 1.192093E-07 12164558 Ceiling_1
-1.300705 1.873845 1.634596 0 -1 1.192093E-07 11967948 Ceiling_1
2.000935 1.873845 0.06691182 0 -1 1.192093E-07 12755411 Ceiling_1
-0.3368059 1.873845 -1.077237 0 -1 1.192093E-07 11902411 Ceiling_1
0.1305847 1.873845 -1.372448 0 -1 1.192093E-07 11705037 Ceiling_1
1.725146 1.873845 -1.331943 0 -1 1.192093E-07 13017814 Ceiling_1
0.6869337 1.873845 -1.255808 0 -1 1.192093E-07 12230095 Ceiling_1
-2.115507 1.873845 -0.6901458 0 -1 1.192093E-07 13017814 Ceiling_1
-1.945272 1.873845 -1.736149 0 -1 1.192093E-07 12755156 Ceiling_1
-0.8187729 1.873845 -2.135526 0 -1 1.192093E-07 13017814 Ceiling_1
-3.665611 1.873845 1.875146 0 -1 1.192093E-07 12886485 Ceiling_1
-1.57047 1.873845 1.117885 0 -1 1.192093E-07 11967948 Ceiling_1
2.804788 1.873845 -1.614028 0 -1 3.576279E-07 11967947 Ceiling_1
-1.713679 1.873845 -1.778083 0 -1 1.192093E-07 12886485 Ceiling_1
-0.07977059 1.873845 -1.746752 0 -1 1.192093E-07 13017814 Ceiling_1
-3.285127 1.873845 -0.8712413 -3.222988E-08 -1 1.192093E-07 11377358 Ceiling_1
0.7996848 1.873845 1.581222 0 -1 1.192093E-07 13017814 Ceiling_1
-1.309354 1.873845 -0.1928091 0 -1 1.192093E-07 12492497 Ceiling_1
0.1827951 1.873845 0.2877371 0 -1 1.192093E-07 12427219 Ceiling_1
2.5714 1.873845 -0.7582163 0 -1 1.192093E-07 12230095 Ceiling_1
-2.557031 1.873845 -2.298584 -1.624839E-07 -1 1.192093E-07 12492496 Ceiling_1
-0.3561155 1.873845 0.9847937 0 -1 1.192093E-07 12820692 Ceiling_1
-0.6668988 1.873845 -0.8674264 0 -1 1.192093E-07 12295890 Ceiling_1
2.259324 1.873845 -2.400888 0 -1 4.768372E-07 12623826 Ceiling_1
2.733728 1.873845 -0.9716556 0 -1 1.192093E-07 11771088 Ceiling_1
-1.436503 1.873845 -1.102615 0 -1 1.192093E-07 12427219 Ceiling_1
2.891823 1.873845 1.009914 0 -1 1.192093E-07 11836624 Ceiling_1
1.039962 1.873845 1.010288 0 -1 1.192093E-07 12558290 Ceiling_1
-0.1116271 1.873845 1.592385 0 -1 1.192093E-07 13017814 Ceiling_1
-3.075607 1.873845 -0.8537667 0 -1 1.192093E-07 13017814 Ceiling_1
1.498213 1.873845 -1.36027 0 -1 1.192093E-07 12492755 Ceiling_1
2.490205 1.873845 -2.298322 0 -1 4.768372E-07 13017814 Ceiling_1
0.5266843 1.873845 -2.510566 0 -1 1.192093E-07 13017814 Ceiling_1
1.006043 1.873845 -2.118635 0 -1 1.192093E-07 12689619 Ceiling_1
-3.00373 1.873845 1.698252 0 -1 1.192093E-07 12624083 Ceiling_1
0.5769621 1.873845 -2.020712 0 -1 1.192093E-07 12624083 Ceiling_1
-1.238317 1.873845 -1.231564 0 -1 1.192093E-07 12492754 Ceiling_1
1.107051 1.873845 0.4699182 0 -1 1.192093E-07 11574220 Ceiling_1
-3.140843 1.873845 2.036975 0 -1 1.192093E-07 13017814 Ceiling_1
-3.219719 1.873845 -0.7860388 -5.930588E-10 -1 1.192093E-07 12952277 Ceiling_1
2.442188 1.873845 0.8670579 0 -1 1.192093E-07 12886485 Ceiling_1
-2.051661 1.873845 -1.46085 0 -1 1.192093E-07 11770314 Ceiling_1
0.2962134 1.873845 1.942673 0 -1 1.192093E-07 12952278 Ceiling_1
-0.2533572 1.873845 0.1050029 0 -1 1.192093E-07 13017814 Ceiling_1
1.939474 1.873845 0.4254695 0 -1 1.192093E-07 12689619 Ceiling_1
-2.477795 1.873845 -1.349417 0 -1 1.192093E-07 12426960 Ceiling_1
0.3380156 1.873845 -0.9997195 0 -1 1.192093E-07 13017814 Ceiling_1
-1.661366 1.873845 0.2400323 0 -1 1.192093E-07 12755413 Ceiling_1
-1.303266 1.873845 -1.504982 0 -1 1.192093E-07 12099021 Ceiling_1
-2.649399 1.873845 1.404696 0 -1 1.192093E-07 12952278 Ceiling_1
-2.998377 1.873845 0.6053771 0 -1 1.192093E-07 12361679 Ceiling_1
2.240395 1.873845 -2.438752 0 -1 4.768372E-07 12952278 Ceiling_1
-1.906681 1.873845 0.1646804 0 -1 1.192093E-07 12886485 Ceiling_1
-2.162665 1.873845 -0.7099434 0 -1 1.192093E-07 12820949 Ceiling_1
-1.692563 1.873845 -1.220911 0 -1 1.192093E-07 13017814 Ceiling_1
0.5206311 1.873845 0.4100122 0 -1 1.192093E-07 13017814 Ceiling_1
-1.873206 1.873845 0.8964796 0 -1 1.192093E-07 12952278 Ceiling_1
-0.01439783 1.873845 -0.464524 0 -1 1.192093E-07 12952277 Ceiling_1
-0.1192861 1.873845 0.7375956 0 -1 1.192093E-07 12886485 Ceiling_1
-2.292151 1.873845 -1.523739 0 -1 1.192093E-07 11967179 Ceiling_1
2.622556 1.873845 0.1605398 0 -1 1.192093E-07 12886485 Ceiling_1
0.5295593 1.873845 0.2987325 0 -1 1.192093E-07 12427219 Ceiling_1
-0.4332801 1.873845 -0.4311616 0 -1 1.192093E-07 12886485 Ceiling_1
-3.133808 1.873845 -0.6226994 0 -1 1.192093E-07 13017814 Ceiling_1
-2.487137 1.873845 1.177383 0 -1 1.192093E-07 11705295 Ceiling_1
0.7336275 1.873845 0.1701251 0 -1 1.192093E-07 13017814 Ceiling_1
2.299059 1.873845 1.081068 0 -1 1.192093E-07 11967953 Ceiling_1
0.05452829 1.873845 1.904813 0 -1 1.192093E-07 13017814 Ceiling_1
1.322192 1.873845 -0.2745773 0 -1 1.192093E-07 12099025 Ceiling_1
-1.088752 1.873845 1.18407 0 -1 1.192093E-07 12689619 Ceiling_1
1.81056 1.873845 0.6235285 0 -1 1.192093E-07 13017814 Ceiling_1
-2.563823 1.873845 0.4226987 0 -1 1.192093E-07 12689620 Ceiling_1
-3.085291 1.873845 0.6754841 0 -1 1.192093E-07 12820949 Ceiling_1
-0.7704711 1.873845 -1.877119 0 -1 1.192093E-07 13017814 Ceiling_1
-1.751402 1.873845 1.154827 0 -1 1.192093E-07 13017814 Ceiling_1
-2.4351 1.873845 1.938072 0 -1 1.192093E-07 12164814 Ceiling_1
-1.596766 1.873845 1.80493 0 -1 1.192093E-07 11639759 Ceiling_1
-1.906626 1.873845 0.5625694 0 -1 1.192093E-07 12952278 Ceiling_1
-1.982283 1.873845 -0.85264 0 -1 1.192093E-07 12952278 Ceiling_1
-2.616837 1.873845 -0.420506 0 -1 1.192093E-07 13017814 Ceiling_1
1.037194 1.873845 -2.360688 0 -1 1.192093E-07 11377358 Ceiling_1
1.83151 1.873845 1.942953 0 -1 1.192093E-07 12427216 Ceiling_1
-0.4599237 1.873845 0.3111953 0 -1 1.192093E-07 12623826 Ceiling_1
0.5338589 1.873845 -0.2117689 0 -1 1.192093E-07 12689620 Ceiling_1
-2.888734 1.873845 0.1961659 0 -1 1.192093E-07 12558548 Ceiling_1
-1.310691 1.873845 0.4985029 0 -1 1.192093E-07 12229840 Ceiling_1
-1.682818 1.873845 0.8091824 0 -1 1.192093E-07 13017814 Ceiling_1
0.3981423 1.873845 -0.9211518 0 -1 1.192093E-07 13017814 Ceiling_1
-1.909981 1.873845 2.180641 0 -1 1.192093E-07 13017814 Ceiling_1
-1.092128 1.873845 -0.8693299 0 -1 1.192093E-07 11967953 Ceiling_1
2.313839 1.873845 -0.2662685 0 -1 1.192093E-07 11967180 Ceiling_1
-0.8950316 1.873845 -0.8758653 0 -1 1.192093E-07 13017814 Ceiling_1
-3.239067 1.873845 1.372063 0 -1 1.192093E-07 12755411 Ceiling_1
1.530406 1.873845 1.964396 0 -1 1.192093E-07 12558034 Ceiling_1
-2.720457 1.873845 -0.6543155 0 -1 1.192093E-07 11377350 Ceiling_1
1.711454 1.873845 -2.3493 0 -1 4.768372E-07 13017814 Ceiling_1
-0.06974041 1.873845 1.562391 0 -1 1.192093E-07 11705294 Ceiling_1
1.559555 1.873845 -0.4429538 0 -1 1.192093E-07 11770829 Ceiling_1
-3.343241 1.873845 1.957843 0 -1 1.192093E-07 11967436 Ceiling_1
2.719584 1.873845 0.4428766 0 -1 1.192093E-07 12230354 Ceiling_1
-0.6692157 1.873845 0.4894505 0 -1 1.192093E-07 12361683 Ceiling_1
-1.904609 1.873845 -1.282624 0 -1 1.192093E-07 12098509 Ceiling_1
-1.321648 1.873845 -0.4517665 0 -1 1.192093E-07 12820694 Ceiling_1
-3.457126 1.873845 -2.477757 -9.695199E-09 -1 4.768372E-07 11705292 Ceiling_1
2.548572 1.873845 0.4677062 0 -1 1.192093E-07 12098509 Ceiling_1
-2.417393 1.873845 -1.715828 -1.406548E-08 -1 1.192093E-07 12492497 Ceiling_1
-2.282255 1.873845 0.7153368 0 -1 1.192093E-07 12624082 Ceiling_1
-2.970439 1.873845 1.647939 0 -1 1.192093E-07 12361424 Ceiling_1
0.1340552 1.873845 -1.534883 0 -1 1.192093E-07 12230352 Ceiling_1
-2.869163 1.873845 0.9311564 0 -1 1.192093E-07 13017814 Ceiling_1
-1.321565 1.873845 1.157056 0 -1 1.192093E-07 12229840 Ceiling_1
-3.264463 1.873845 1.660074 0 -1 1.192093E-07 12755413 Ceiling_1
1.228136 1.873845 0.2494706 0 -1 1.192093E-07 12624084 Ceiling_1
-3.376121 1.873845 1.838706 0 -1 1.192093E-07 12689619 Ceiling_1
-0.3589568 1.873845 -1.178986 0 -1 1.192093E-07 11508424 Ceiling_1
1.438115 1.873845 -2.421237 0 -1 3.576279E-07 12820948 Ceiling_1
-1.793553 1.873845 -0.7995856 0 -1 1.192093E-07 12886485 Ceiling_1
-3.041557 1.873845 -1.724609 -1.521485E-07 -1 1.192093E-07 11573192 Ceiling_1
-1.245125 1.873845 0.08156657 0 -1 1.192093E-07 12886485 Ceiling_1
-3.074924 1.873845 -1.304679 -7.435819E-08 -1 1.192093E-07 12230352 Ceiling_1
-3.747041 1.873845 -2.153205 -8.998231E-08 -1 2.384186E-07 12689620 Ceiling_1
-0.1442839 1.873845 1.599097 0 -1 1.192093E-07 13017814 Ceiling_1
2.432948 1.873845 1.170434 0 -1 1.192093E-07 12886485 Ceiling_1
1.018082 1.873845 2.130016 0 -1 1.192093E-07 12820692 Ceiling_1
0.4527244 1.873845 1.726438 0 -1 1.192093E-07 12755411 Ceiling_1
-0.9772223 1.873845 0.4796014 0 -1 1.192093E-07 12886485 Ceiling_1
-1.107166 1.873845 0.9741844 0 -1 1.192093E-07 12098509 Ceiling_1
1.570966 1.873845 -0.5390453 0 -1 1.192093E-07 12492497 Ceiling_1
-0.9037355 1.873845 0.05911422 0 -1 1.192093E-07 12164818 Ceiling_1
-0.3922495 1.873845 -1.028046 0 -1 1.192093E-07 12427219 Ceiling_1
2.472094 1.873845 -1.26235 0 -1 1.192093E-07 12558033 Ceiling_1
-1.924202 1.873845 -1.168367 0 -1 1.192093E-07 12099025 Ceiling_1
2.533371 1.873845 -2.193241 0 -1 4.768372E-07 13017814 Ceiling_1
-2.750465 1.873845 -1.611497 -6.573921E-08 -1 1.192093E-07 12361423 Ceiling_1
-3.539701 1.873845 0.3667816 0 -1 1.192093E-07 13017814 Ceiling_1
-2.013597 1.873845 -0.1248916 0 -1 1.192093E-07 12361683 Ceiling_1
0.3430769 1.873845 1.496827 0 -1 1.192093E-07 12558548 Ceiling_1
-0.5212531 1.873845 0.6624657 0 -1 1.192093E-07 12558548 Ceiling_1
-1.778394 1.873845 -0.5461151 0 -1 1.192093E-07 12033489 Ceiling_1
-2.376562 1.873845 0.9498573 0 -1 1.192093E-07 12099025 Ceiling_1
-0.7553186 1.873845 -1.899889 0 -1 1.192093E-07 11771087 Ceiling_1
1.732993 1.873845 0.5640926 0 -1 1.192093E-07 12689619 Ceiling_1
-0.006501675 1.873845 -1.590548 0 -1 1.192093E-07 12229838 Ceiling_1
-0.920076 1.873845 -2.482835 0 -1 1.192093E-07 13017814 Ceiling_1
-3.033369 1.873845 -0.7580323 0 -1 1.192093E-07 12952278 Ceiling_1
1.969135 1.873845 -2.088664 0 -1 3.576279E-07 12755413 Ceiling_1
1.263377 1.873845 -2.350613 0 -1 2.384186E-07 11705033 Ceiling_1
1.171417 1.873845 -0.3489914 0 -1 1.192093E-07 11967185 Ceiling_1
-1.00495 1.873845 2.094258 0 -1 1.192093E-07 11508687 Ceiling_1
2.237206 1.873845 1.755985 0 -1 1.192093E-07 12886485 Ceiling_1
-1.399761 1.873845 -2.167122 0 -1 1.192093E-07 12558548 Ceiling_1
-1.307843 1.873845 0.1825154 0 -1 1.192093E-07 12558290 Ceiling_1
-3.037385 1.873845 -2.440149 -6.202657E-08 -1 3.576279E-07 12164814 Ceiling_1
-2.790114 1.873845 1.710397 0 -1 1.192093E-07 12820949 Ceiling_1
-3.084805 1.873845 -1.526834 -1.216388E-07 -1 1.192093E-07 12099277 Ceiling_1
2.605705 1.873845 0.8133152 0 -1 1.192093E-07 12361167 Ceiling_1
-2.640072 1.873845 -1.831639 -8.629681E-08 -1 1.192093E-07 11967694 Ceiling_1
-2.302637 1.873845 1.453459 0 -1 1.192093E-07 12952277 Ceiling_1
0.8294228 1.873845 2.041225 0 -1 1.192093E-07 12558548 Ceiling_1
1.574778 1.873845 -2.121879 0 -1 2.384186E-07 13017814 Ceiling_1
1.826032 1.873845 0.1903704 0 -1 1.192093E-07 12952278 Ceiling_1
-0.4523668 1.873845 0.3794715 0 -1 1.192093E-07 12295631 Ceiling_1
0.1531715 1.873845 -2.362788 0 -1 1.192093E-07 11967436 Ceiling_1
1.584334 1.873845 -0.8681788 0 -1 1.192093E-07 12755412 Ceiling_1
1.793646 1.873845 -0.7500677 0 -1 1.192093E-07 11836624 Ceiling_1
2.59383 1.873845 -2.37034 0 -1 4.768372E-07 11770314 Ceiling_1
0.8015187 1.873845 -1.265475 0 -1 1.192093E-07 13017814 Ceiling_1
0.3806709 1.873845 -0.4283638 0 -1 1.192093E-07 12755412 Ceiling_1
2.461344 1.873845 -1.122258 0 -1 1.192093E-07 12624083 Ceiling_1
-0.2468781 1.873845 -2.180798 0 -1 1.192093E-07 13017814 Ceiling_1
-1.443264 1.873845 1.114184 0 -1 1.192093E-07 11639759 Ceiling_1
0.6140156 1.873845 1.266071 0 -1 1.192093E-07 11770314 Ceiling_1
0.3406453 1.873845 -0.766359 0 -1 1.192093E-07 12558291 Ceiling_1
0.4281992 1.873845 0.229244 0 -1 1.192093E-07 12886485 Ceiling_1
0.2727144 1.873845 -1.975333 0 -1 1.192093E-07 11771082 Ceiling_1
2.157018 1.873845 -0.3030577 0 -1 1.192093E-07 12952278 Ceiling_1
-2.36976 1.873845 1.494653 0 -1 1.192093E-07 12426960 Ceiling_1
-0.4898977 1.873845 2.159086 0 -1 1.192093E-07 13017814 Ceiling_1
0.09126186 1.873845 -2.412065 0 -1 1.192093E-07 12361683 Ceiling_1
0.5811803 1.873845 -1.79768 0 -1 1.192093E-07 13017814 Ceiling_1
-0.4176626 1.873845 -1.11661 0 -1 1.192093E-07 12755158 Ceiling_1
2.539442 1.873845 1.70798 0 -1 1.192093E-07 12952278 Ceiling_1
-3.222328 1.873845 0.07552147 0 -1 1.192093E-07 12689877 Ceiling_1
-0.7597405 1.873845 0.1293502 0 -1 1.192093E-07 12492755 Ceiling_1
-1.826257 1.873845 -0.3066757 0 -1 1.192093E-07 12295631 Ceiling_1
1.534076 1.873845 -0.1260527 0 -1 1.192093E-07 12886741 Ceiling_1
0.6813403 1.873845 -0.7084314 0 -1 1.192093E-07 11836621 Ceiling_1
-1.656797 1.873845 -0.7370147 0 -1 1.192093E-07 12755156 Ceiling_1
0.3254786 1.873845 -2.204863 0 -1 1.192093E-07 13017814 Ceiling_1
0.545479 1.873845 -0.5129712 0 -1 1.192093E-07 12033489 Ceiling_1
2.69136 1.873845 -0.6052253 0 -1 1.192093E-07 13017814 Ceiling_1
1.751946 1.873845 0.1492242 0 -1 1.192093E-07 11835850 Ceiling_1
2.337919 1.873845 -2.307713 0 -1 4.768372E-07 12033230 Ceiling_1
-0.5497274 1.873845 0.6569763 0 -1 1.192093E-07 11902411 Ceiling_1
0.4159467 1.873845 -2.174499 0 -1 1.192093E-07 13017814 Ceiling_1
2.815205 1.873845 -0.79665 0 -1 1.192093E-07 12623826 Ceiling_1
-1.789891 1.873845 -2.129879 0 -1 1.192093E-07 12230097 Ceiling_1
2.419068 1.873845 0.1835833 0 -1 1.192093E-07 13017814 Ceiling_1
2.49311 1.873845 0.7300262 0 -1 1.192093E-07 12755413 Ceiling_1
1.612067 1.873845 0.3975468 0 -1 1.192093E-07 12361169 Ceiling_1
0.1052428 1.873845 -1.424035 0 -1 1.192093E-07 13017814 Ceiling_1
-3.697419 1.873845 2.009372 0 -1 1.192093E-07 13017814 Ceiling_1
-3.022872 1.873845 1.586115 0 -1 1.192093E-07 12886485 Ceiling_1
-1.002187 1.873845 1.121348 0 -1 1.192093E-07 12623826 Ceiling_1
-0.8886693 1.873845 -1.232203 0 -1 1.192093E-07 11573963 Ceiling_1
-1.626315 1.873845 -0.376304 0 -1 1.192093E-07 12361683 Ceiling_1
-1.936006 1.873845 -0.6901225 0 -1 1.192093E-07 11902155 Ceiling_1
-2.771563 1.873845 0.8335754 0 -1 1.192093E-07 11967180 Ceiling_1
1.772179 1.873845 -0.5861101 0 -1 1.192093E-07 12033230 Ceiling_1
-2.778771 1.873845 -2.045248 -1.596398E-07 -1 1.192093E-07 12755413 Ceiling_1
0.08368286 1.873845 0.4127374 0 -1 1.192093E-07 11967953 Ceiling_1
1.216384 1.873845 0.1342964 0 -1 1.192093E-07 12689619 Ceiling_1
-2.345789 1.873845 -0.470345 0 -1 1.192093E-07 13017814 Ceiling_1
0.1848312 1.873845 -2.429574 0 -1 1.192093E-07 12952021 Ceiling_1
-1.657871 1.873845 1.413571 0 -1 1.192093E-07 12886484 Ceiling_1
2.525054 1.873845 -0.5070031 0 -1 1.192093E-07 12820948 Ceiling_1
-3.671118 1.873845 0.2523648 0 -1 1.192093E-07 12689619 Ceiling_1
1.626687 1.873845 2.009048 0 -1 1.192093E-07 12426960 Ceiling_1
-2.824136 1.873845 -1.338357 -2.632523E-08 -1 1.192093E-07 12952278 Ceiling_1
0.9598631 1.873845 -1.663348 0 -1 1.192093E-07 12952278 Ceiling_1
2.096798 1.873845 -2.363167 0 -1 4.768372E-07 11574223 Ceiling_1
-0.7730154 1.873845 -0.2047853 0 -1 1.192093E-07 11443148 Ceiling_1
1.190523 1.873845 -0.2783914 0 -1 1.192093E-07 12689619 Ceiling_1
0.005784199 1.873845 0.9831374 0 -1 1.192093E-07 12755155 Ceiling_1
1.546905 1.873845 -2.3599 0 -1 3.576279E-07 12099023 Ceiling_1
-0.291261 1.873845 1.864169 0 -1 1.192093E-07 12624082 Ceiling_1
-2.367754 1.873845 1.755883 0 -1 1.192093E-07 12033484 Ceiling_1
-2.067467 1.873845 -1.306155 0 -1 1.192093E-07 11967953 Ceiling_1
-2.929413 1.873845 -0.1119986 0 -1 1.192093E-07 11442894 Ceiling_1
-3.06654 1.873845 0.7152003 0 -1 1.192093E-07 12099025 Ceiling_1
1.321709 1.873845 0.2334716 0 -1 1.192093E-07 12361680 Ceiling_1
1.024049 1.873845 -0.6018108 0 -1 1.192093E-07 13017814 Ceiling_1
2.558241 1.873845 1.207953 0 -1 1.192093E-07 12558289 Ceiling_1
-3.496891 1.873845 0.1946382 0 -1 1.192093E-07 12886485 Ceiling_1
2.602856 1.873845 -0.7383182 0 -1 1.192093E-07 12755412 Ceiling_1
-1.129277 1.873845 -0.62915 0 -1 1.192093E-07 13017814 Ceiling_1
-2.553877 1.873845 0.1834987 0 -1 1.192093E-07 11442634 Ceiling_1
2.482845 1.873845 0.4814868 0 -1 1.192093E-07 13017814 Ceiling_1
1.091802 1.873845 0.2230715 0 -1 1.192093E-07 12229838 Ceiling_1
-1.194276 1.873845 -0.01716208 0 -1 1.192093E-07 12755413 Ceiling_1
-0.6345212 1.873845 -1.114925 0 -1 1.192093E-07 12033489 Ceiling_1
-0.5311079 1.873845 -0.8880502 0 -1 1.192093E-07 11639752 Ceiling_1
-2.488421 1.873845 0.9678884 0 -1 1.192093E-07 12427217 Ceiling_1
1.265636 1.873845 0.9517248 0 -1 1.192093E-07 11245768 Ceiling_1
2.622704 1.873845 0.8985885 0 -1 1.192093E-07 12689619 Ceiling_1
2.706331 1.873845 1.417774 0 -1 1.192093E-07 11967179 Ceiling_1
1.324892 1.873845 0.8494192 0 -1 1.192093E-07 12098765 Ceiling_1
-2.642576 1.873845 1.556736 0 -1 1.192093E-07 13017814 Ceiling_1
2.360664 1.873845 1.155726 0 -1 1.192093E-07 12623826 Ceiling_1
1.240935 1.873845 0.8602101 0 -1 1.192093E-07 12755413 Ceiling_1
1.816379 1.873845 -1.097814 0 -1 1.192093E-07 11770314 Ceiling_1
-1.375832 1.873845 -0.8326209 0 -1 1.192093E-07 11573448 Ceiling_1
-2.283435 1.873845 -1.080638 0 -1 1.192093E-07 12558548 Ceiling_1
-1.570084 1.873845 1.503656 0 -1 1.192093E-07 12624084 Ceiling_1
-1.087528 1.873845 0.7310982 0 -1 1.192093E-07 11508426 Ceiling_1
-2.52913 1.873845 0.7325551 0 -1 1.192093E-07 12624082 Ceiling_1
-1.009017 1.873845 -2.34408 0 -1 1.192093E-07 11836624 Ceiling_1
1.948501 1.873845 0.4351099 0 -1 1.192093E-07 13017814 Ceiling_1
2.104283 1.873845 -1.430562 0 -1 1.192093E-07 12755413 Ceiling_1
-0.8214794 1.873845 -1.392389 0 -1 1.192093E-07 12493012 Ceiling_1
2.345309 1.873845 -1.941392 0 -1 3.576279E-07 11836619 Ceiling_1
-3.768422 1.873845 -2.144068 -9.224279E-08 -1 2.384186E-07 12492497 Ceiling_1
-3.085627 1.873845 -0.5565407 0 -1 1.192093E-07 12230350 Ceiling_1
-2.713911 1.873845 0.008859396 0 -1 1.192093E-07 12953302 Ceiling_1
1.459735 1.873845 -1.972378 0 -1 1.192093E-07 11967949 Ceiling_1
0.9224336 1.873845 -2.271154 0 -1 1.192093E-07 12296147 Ceiling_1
0.04337144 1.873845 -1.114955 0 -1 1.192093E-07 12164302 Ceiling_1
-1.785855 1.873845 -0.1477641 0 -1 1.192093E-07 12952021 Ceiling_1
2.825293 1.873845 -1.248034 0 -1 2.384186E-07 12820694 Ceiling_1
2.057686 1.873845 -2.155021 0 -1 4.768372E-07 11836624 Ceiling_1
2.608081 1.873845 -0.4046607 0 -1 1.192093E-07 12689620 Ceiling_1
-2.545061 1.873845 -1.91246 -8.191716E-08 -1 1.192093E-07 12098765 Ceiling_1
-1.403437 1.873845 1.426654 0 -1 1.192093E-07 12427219 Ceiling_1
-3.177832 1.873845 -2.156829 -1.582314E-07 -1 1.192093E-07 12952278 Ceiling_1
-2.392113 1.873845 2.127449 0 -1 1.192093E-07 12952021 Ceiling_1
2.421661 1.873845 1.691544 0 -1 1.192093E-07 12033488 Ceiling_1
-0.1665338 1.873845 -0.4472935 0 -1 1.192093E-07 12952278 Ceiling_1
-1.928029 1.873845 -0.1556727 0 -1 1.192093E-07 12164558 Ceiling_1
-0.1639643 1.873845 -1.347328 0 -1 1.192093E-07 13017814 Ceiling_1
-0.4094051 1.873845 0.7934932 0 -1 1.192093E-07 13017814 Ceiling_1
-1.868036 1.873845 0.2760181 0 -1 1.192093E-07 11377094 Ceiling_1
0.0410763 1.873845 -1.657856 0 -1 1.192093E-07 12952021 Ceiling_1
2.206571 1.873845 -0.7746819 0 -1 1.192093E-07 12099021 Ceiling_1
0.0897505 1.873845 -0.6912954 0 -1 1.192093E-07 12296143 Ceiling_1
0.8587033 1.873845 0.2320037 0 -1 1.192093E-07 11967948 Ceiling_1
1.035651 1.873845 -0.1929322 0 -1 1.192093E-07 12164560 Ceiling_1
2.521945 1.873845 -0.9208233 0 -1 1.192093E-07 13017814 Ceiling_1
1.148897 1.873845 1.024349 0 -1 1.192093E-07 13017814 Ceiling_1
0.7159441 1.873845 1.533338 0 -1 1.192093E-07 13017814 Ceiling_1
-0.5268495 1.873845 0.6954108 0 -1 1.192093E-07 13017814 Ceiling_1
-0.8748831 1.873845 -2.037985 0 -1 1.192093E-07 12295631 Ceiling_1
0.8064466 1.873845 0.7971651 0 -1 1.192093E-07 11835850 Ceiling_1
-3.591052 1.873845 0.4269628 0 -1 1.192093E-07 12886228 Ceiling_1
-0.7764307 1.873845 -2.472094 0 -1 1.192093E-07 12820948 Ceiling_1
2.644819 1.873845 1.821104 0 -1 1.192093E-07 12230354 Ceiling_1
2.33545 1.873845 -0.4766524 0 -1 1.192093E-07 11705545 Ceiling_1
-1.804758 1.873845 1.029167 0 -1 1.192093E-07 11704777 Ceiling_1
0.5553524 1.873845 -1.3567 0 -1 1.192093E-07 12295631 Ceiling_1
-0.5458251 1.873845 -0.2747202 0 -1 1.192093E-07 11639753 Ceiling_1
-0.7124831 1.873845 1.910115 0 -1 1.192093E-07 11441863 Ceiling_1
0.4719681 1.873845 0.08722949 0 -1 1.192093E-07 12230095 Ceiling_1
-3.212124 1.873845 2.039629 0 -1 1.192093E-07 12623826 Ceiling_1
-0.3407778 1.873845 0.950848 0 -1 1.192093E-07 13017814 Ceiling_1
-0.4937471 1.873845 -2.199967 0 -1 1.192093E-07 12427216 Ceiling_1
1.020197 1.873845 -2.246854 0 -1 1.192093E-07 12952021 Ceiling_1
-1.808592 1.873845 0.4621823 0 -1 1.192093E-07 12624082 Ceiling_1
-2.645682 1.873845 -0.6447815 0 -1 1.192093E-07 12623826 Ceiling_1
2.79603 1.873845 -0.7719966 0 -1 1.192093E-07 12032972 Ceiling_1
-0.07836962 1.873845 1.54782 0 -1 1.192093E-07 12492496 Ceiling_1
-0.4260128 1.873845 -0.01979661 0 -1 1.192093E-07 12295890 Ceiling_1
2.495681 1.873845 -1.751601 0 -1 3.576279E-07 12952277 Ceiling_1
0.3733416 1.873845 0.1703658 0 -1 1.192093E-07 12952021 Ceiling_1
1.799776 1.873845 0.07953227 0 -1 1.192093E-07 13017814 Ceiling_1
-2.904542 1.873845 -0.1840582 0 -1 1.192093E-07 13017814 Ceiling_1
-2.507724 1.873845 1.384554 0 -1 1.192093E-07 12361681 Ceiling_1
-3.574874 1.873845 -0.0864501 0 -1 1.192093E-07 12558548 Ceiling_1
-2.78747 1.873845 -1.022985 0 -1 1.192093E-07 11836619 Ceiling_1
-0.3280237 1.873845 1.448027 0 -1 1.192093E-07 12558294 Ceiling_1
-2.877518 1.873845 1.445202 0 -1 1.192093E-07 12558548 Ceiling_1
-3.560632 1.873845 -0.5397502 -2.511956E-08 -1 1.192093E-07 12623827 Ceiling_1
0.9174012 1.873845 -1.903448 0 -1 1.192093E-07 11114440 Ceiling_1
0.6895381 1.873845 -1.619398 0 -1 1.192093E-07 11507656 Ceiling_1
1.4498 1.873845 -1.964842 0 -1 1.192093E-07 12952277 Ceiling_1
0.08375432 1.873845 1.224034 0 -1 1.192093E-07 11901643 Ceiling_1
-2.256687 1.873845 -0.3621872 0 -1 1.192093E-07 12624084 Ceiling_1
-2.6649 1.873845 1.625628 0 -1 1.192093E-07 12689619 Ceiling_1
0.4653238 1.873845 0.7823097 0 -1 1.192093E-07 10983367 Ceiling_1
-0.557403 1.873845 -1.153101 0 -1 1.192093E-07 12361680 Ceiling_1
0.5437487 1.873845 -1.502491 0 -1 1.192093E-07 12361681 Ceiling_1
1.243197 1.873845 -0.2366417 0 -1 1.192093E-07 12558291 Ceiling_1
-2.312673 1.873845 -0.602855 0 -1 1.192093E-07 12229838 Ceiling_1
0.256381 1.873845 2.109468 0 -1 1.192093E-07 12033228 Ceiling_1
-3.549225 1.873845 0.007142544 0 -1 1.192093E-07 12361167 Ceiling_1
1.679854 1.873845 -2.097598 0 -1 2.384186E-07 11376583 Ceiling_1
-0.737817 1.873845 1.571591 0 -1 1.192093E-07 12886485 Ceiling_1
1.084669 1.873845 -0.393259 0 -1 1.192093E-07 13017814 Ceiling_1
-1.331347 1.873845 -0.5737858 0 -1 1.192093E-07 12099025 Ceiling_1
2.1617 1.873845 -2.071299 0 -1 3.576279E-07 11967436 Ceiling_1
-3.089015 1.873845 -1.559404 -1.291319E-07 -1 1.192093E-07 12886485 Ceiling_1
-2.239858 1.873845 1.267287 0 -1 1.192093E-07 12361683 Ceiling_1
0.2428455 1.873845 -0.5099404 0 -1 1.192093E-07 12820949 Ceiling_1
-0.169357 1.873845 0.9465344 0 -1 1.192093E-07 11639753 Ceiling_1
-2.520955 1.873845 -0.3112115 0 -1 1.192093E-07 12623826 Ceiling_1
0.8478943 1.873845 0.1911003 0 -1 1.192093E-07 11442119 Ceiling_1
1.925822 1.873845 0.581007 0 -1 1.192093E-07 13017814 Ceiling_1
-1.087847 1.873845 0.2524693 0 -1 1.192093E-07 12492755 Ceiling_1
0.165997 1.873845 0.3973987 0 -1 1.192093E-07 13017814 Ceiling_1
1.05618 1.873845 0.8198125 0 -1 1.192093E-07 11836624 Ceiling_1
-3.37748 1.873845 1.634591 0 -1 1.192093E-07 12689619 Ceiling_1
-3.534026 1.873845 -0.01959229 0 -1 1.192093E-07 11704777 Ceiling_1
2.440551 1.873845 -0.1148404 0 -1 1.192093E-07 11836364 Ceiling_1
0.5054263 1.873845 1.844508 0 -1 1.192093E-07 12886486 Ceiling_1
1.083964 1.873845 0.2353722 0 -1 1.192093E-07 12952021 Ceiling_1
-2.129898 1.873845 -0.2156562 0 -1 1.192093E-07 12098511 Ceiling_1
0.6609076 1.873845 1.709661 0 -1 1.192093E-07 13017814 Ceiling_1
1.773426 1.873845 -2.164625 0 -1 3.576279E-07 12755412 Ceiling_1
2.855372 1.873845 0.700853 0 -1 1.192093E-07 11705292 Ceiling_1
-1.961516 1.873845 0.127981 0 -1 1.192093E-07 12164818 Ceiling_1
-0.3412087 1.873845 0.9473903 0 -1 1.192093E-07 13017814 Ceiling_1
0.4934183 1.873845 -0.977214 0 -1 1.192093E-07 12952278 Ceiling_1
-0.5857502 1.873845 0.01552057 0 -1 1.192093E-07 12558289 Ceiling_1
0.1581004 1.873845 2.137547 0 -1 1.192093E-07 11442376 Ceiling_1
0.0644111 1.873845 -2.241256 0 -1 1.192093E-07 11771082 Ceiling_1
-0.3563454 1.873845 -0.5120983 0 -1 1.192093E-07 13017814 Ceiling_1
0.9072301 1.873845 1.339139 0 -1 1.192093E-07 12624084 Ceiling_1
1.96007 1.873845 -0.3291302 0 -1 1.192093E-07 11639753 Ceiling_1
-0.06971356 1.873845 0.4765868 0 -1 1.192093E-07 11508430 Ceiling_1
1.033175 1.873845 0.1268293 0 -1 1.192093E-07 12361683 Ceiling_1
-1.306141 1.873845 -1.54612 0 -1 1.192093E-07 11573192 Ceiling_1
1.635617 1.873845 -0.5482931 0 -1 1.192093E-07 12820948 Ceiling_1
-1.146044 1.873845 -2.383423 0 -1 1.192093E-07 12229838 Ceiling_1
2.242084 1.873845 -2.059103 0 -1 4.768372E-07 12952277 Ceiling_1
0.2107987 1.873845 0.4127171 0 -1 1.192093E-07 11902417 Ceiling_1
1.087971 1.873845 1.799462 0 -1 1.192093E-07 12952021 Ceiling_1
-1.739542 1.873845 -0.7720316 0 -1 1.192093E-07 12886485 Ceiling_1
0.9773527 1.873845 0.1676972 0 -1 1.192093E-07 12820949 Ceiling_1
-1.977258 1.873845 -1.678023 0 -1 1.192093E-07 12755411 Ceiling_1
-1.345355 1.873845 -0.6905212 0 -1 1.192093E-07 13017814 Ceiling_1
1.392661 1.873845 -1.337561 0 -1 1.192093E-07 12689620 Ceiling_1
-0.7134219 1.873845 -0.1633861 0 -1 1.192093E-07 11508687 Ceiling_1
-1.233594 1.873845 -2.039258 0 -1 1.192093E-07 12755155 Ceiling_1
1.427647 1.873845 1.29411 0 -1 1.192093E-07 12755156 Ceiling_1
0.2090775 1.873845 1.762235 0 -1 1.192093E-07 12820948 Ceiling_1
0.5113025 1.873845 -2.373405 0 -1 1.192093E-07 12886485 Ceiling_1
-1.961767 1.873845 0.5919319 0 -1 1.192093E-07 12886485 Ceiling_1
2.052367 1.873845 0.985272 0 -1 1.192093E-07 13017814 Ceiling_1
-1.244666 1.873845 0.8315434 0 -1 1.192093E-07 12426704 Ceiling_1
-1.019209 1.873845 1.82404 0 -1 1.192093E-07 11901901 Ceiling_1
-3.624742 1.873845 -0.07595968 0 -1 1.192093E-07 12099277 Ceiling_1
1.265975 1.873845 -2.116799 0 -1 1.192093E-07 12558548 Ceiling_1
1.610141 1.873845 -2.36304 0 -1 3.576279E-07 12623827 Ceiling_1
-1.908511 1.873845 -1.126818 0 -1 1.192093E-07 11573963 Ceiling_1
0.7888651 1.873845 -1.046531 0 -1 1.192093E-07 11705545 Ceiling_1
2.07968 1.873845 -0.3723351 0 -1 1.192093E-07 12427216 Ceiling_1
0.2396272 1.873845 -1.616698 0 -1 1.192093E-07 12820948 Ceiling_1
-3.530061 1.873845 -1.33132 -1.694346E-07 -1 1.192093E-07 13017814 Ceiling_1
1.698347 1.873845 2.069479 0 -1 1.192093E-07 11639753 Ceiling_1
-2.516512 1.873845 -1.869325 -6.696493E-08 -1 1.192093E-07 12624084 Ceiling_1
-2.316426 1.873845 0.09082097 0 -1 1.192093E-07 11442887 Ceiling_1
-3.309196 1.873845 -0.2094508 0 -1 1.192093E-07 11442894 Ceiling_1
-0.9831554 1.873845 0.608489 0 -1 1.192093E-07 12492498 Ceiling_1
0.5334265 1.873845 -0.6866676 0 -1 1.192093E-07 13017814 Ceiling_1
0.4517033 1.873845 -0.7547237 0 -1 1.192093E-07 12820948 Ceiling_1
2.861073 1.873845 1.810284 0 -1 1.192093E-07 13017814 Ceiling_1
-2.610127 1.873845 -1.779923 -6.927338E-08 -1 1.192093E-07 12623826 Ceiling_1
-3.047813 1.873845 0.449527 0 -1 1.192093E-07 12230350 Ceiling_1
-0.4848814 1.873845 -1.305768 0 -1 1.192093E-07 12558548 Ceiling_1
2.54237 1.873845 0.4846713 0 -1 1.192093E-07 12952277 Ceiling_1
1.353637 1.873845 1.622374 0 -1 1.192093E-07 12689619 Ceiling_1
-2.546788 1.873845 -1.304876 0 -1 1.192093E-07 13017814 Ceiling_1
1.442741 1.873845 -2.079293 0 -1 1.192093E-07 12361167 Ceiling_1
1.346801 1.873845 -1.402067 0 -1 1.192093E-07 12952021 Ceiling_1
-2.955634 1.873845 -1.618506 -1.120085E-07 -1 1.192093E-07 11508430 Ceiling_1
-2.987436 1.873845 1.689445 0 -1 1.192093E-07 12361424 Ceiling_1
-2.530224 1.873845 0.8272177 0 -1 1.192093E-07 12558546 Ceiling_1
-2.262703 1.873845 -0.05564016 0 -1 1.192093E-07 13017814 Ceiling_1
1.616563 1.873845 -0.941329 0 -1 1.192093E-07 13017814 Ceiling_1
-0.5898712 1.873845 -1.039214 0 -1 1.192093E-07 11245769 Ceiling_1
-0.8447179 1.873845 0.4462957 0 -1 1.192093E-07 12032972 Ceiling_1
-1.083071 1.873845 0.1409872 0 -1 1.192093E-07 13017814 Ceiling_1
1.443973 1.873845 0.7756117 0 -1 1.192093E-07 12820949 Ceiling_1
1.470185 1.873845 -0.2124691 0 -1 1.192093E-07 11770571 Ceiling_1
-0.865494 1.873845 1.409425 0 -1 1.192093E-07 12689363 Ceiling_1
-1.839847 1.873845 -0.08833736 0 -1 1.192093E-07 12164818 Ceiling_1
-1.397338 1.873845 0.3514222 0 -1 1.192093E-07 12886485 Ceiling_1
1.505572 1.873845 -1.475011 0 -1 1.192093E-07 12033232 Ceiling_1
-0.8995263 1.873845 2.14445 0 -1 1.192093E-07 13017814 Ceiling_1
2.394214 1.873845 -0.4406188 0 -1 1.192093E-07 12099025 Ceiling_1
-2.673686 1.873845 1.765879 0 -1 1.192093E-07 11442894 Ceiling_1
0.1300823 1.873845 -0.6356297 0 -1 1.192093E-07 12755156 Ceiling_1
-0.004016787 1.873845 0.748641 0 -1 1.192093E-07 12952278 Ceiling_1
-2.61692 1.873845 -1.391932 0 -1 1.192093E-07 12295887 Ceiling_1
-1.521234 1.873845 -0.445241 0 -1 1.192093E-07 13017814 Ceiling_1
-1.025157 1.873845 -1.582804 0 -1 1.192093E-07 12952278 Ceiling_1
-3.328177 1.873845 0.2258059 0 -1 1.192093E-07 11377354 Ceiling_1
0.4540483 1.873845 0.9712214 0 -1 1.192093E-07 12427219 Ceiling_1
-0.5578864 1.873845 -0.7323062 0 -1 1.192093E-07 12295631 Ceiling_1
0.3456634 1.873845 -0.2890146 0 -1 1.192093E-07 12558545 Ceiling_1
-0.02330297 1.873845 0.003245354 0 -1 1.192093E-07 13017814 Ceiling_1
-1.50256 1.873845 1.6546 0 -1 1.192093E-07 11377350 Ceiling_1
-2.015566 1.873845 0.2566009 0 -1 1.192093E-07 12427219 Ceiling_1
-0.5772071 1.873845 -1.559329 0 -1 1.192093E-07 12624082 Ceiling_1
-2.973555 1.873845 0.6066774 0 -1 1.192093E-07 12952277 Ceiling_1
1.965865 1.873845 -0.1134778 0 -1 1.192093E-07 12952278 Ceiling_1
2.634958 1.873845 2.029496 0 -1 1.192093E-07 11967180 Ceiling_1
-0.5208122 1.873845 -0.2803061 0 -1 1.192093E-07 12952278 Ceiling_1
-0.7380178 1.873845 1.354944 0 -1 1.192093E-07 12820694 Ceiling_1
-1.73802 1.873845 -0.9898949 0 -1 1.192093E-07 12755156 Ceiling_1
-0.06511654 1.873845 -1.42475 0 -1 1.192093E-07 12558290 Ceiling_1
-0.4711892 1.873845 -0.05332422 0 -1 1.192093E-07 13017814 Ceiling_1
2.901965 1.873845 -1.688275 0 -1 3.576279E-07 12820948 Ceiling_1
-2.518906 1.873845 -1.65383 -2.367418E-08 -1 1.192093E-07 12361426 Ceiling_1
2.895636 1.873845 0.01962862 0 -1 1.192093E-07 12492755 Ceiling_1
-1.199951 1.873845 0.6105231 0 -1 1.192093E-07 12361680 Ceiling_1
0.5163749 1.873845 0.7529049 0 -1 1.192093E-07 12952278 Ceiling_1
-1.633042 1.873845 -0.09543332 0 -1 1.192093E-07 13017814 Ceiling_1
0.4761747 1.873845 -1.085082 0 -1 1.192093E-07 11901902 Ceiling_1
-0.4159969 1.873845 0.7810324 0 -1 1.192093E-07 12623826 Ceiling_1
-3.146907 1.873845 0.2154731 0 -1 1.192093E-07 11442887 Ceiling_1
-3.128488 1.873845 -2.172115 -1.621397E-07 -1 1.192093E-07 11967951 Ceiling_1
2.137617 1.873845 0.6384362 0 -1 1.192093E-07 12098765 Ceiling_1
1.763043 1.873845 -0.0004125834 0 -1 1.192093E-07 12952277 Ceiling_1
-3.276602 1.873845 1.081246 0 -1 1.192093E-07 13017814 Ceiling_1
-3.103818 1.873845 -2.026227 -1.694346E-07 -1 1.192093E-07 12033488 Ceiling_1
-1.186531 1.873845 0.2685736 0 -1 1.192093E-07 13017814 Ceiling_1
-2.711076 1.873845 0.1175864 0 -1 1.192093E-07 13017814 Ceiling_1
-1.121981 1.873845 1.007258 0 -1 1.192093E-07 13017814 Ceiling_1
-3.124854 1.873845 1.881725 0 -1 1.192093E-07 13017814 Ceiling_1
-1.25481 1.873845 1.781254 0 -1 1.192093E-07 12952277 Ceiling_1
1.389241 1.873845 -1.35436 0 -1 1.192093E-07 12624084 Ceiling_1
-2.36603 1.873845 0.02336639 0 -1 1.192093E-07 11771088 Ceiling_1
-0.5382283 1.873845 0.06064939 0 -1 1.192093E-07 11902411 Ceiling_1
-0.6870037 1.873845 1.019703 0 -1 1.192093E-07 12755411 Ceiling_1
-2.025514 1.873845 0.3178414 0 -1 1.192093E-07 12755156 Ceiling_1
0.7786185 1.873845 -1.074552 0 -1 1.192093E-07 12295631 Ceiling_1
2.530295 1.873845 1.421213 0 -1 1.192093E-07 12361680 Ceiling_1
2.694388 1.873845 1.828447 0 -1 1.192093E-07 12361426 Ceiling_1
-2.753026 1.873845 -1.857421 -1.161087E-07 -1 1.192093E-07 13017814 Ceiling_1
-0.3577217 1.873845 -0.1572924 0 -1 1.192093E-07 12952277 Ceiling_1
-3.218264 1.873845 -0.3674223 0 -1 1.192093E-07 11508679 Ceiling_1
1.031995 1.873845 -1.871996 0 -1 1.192093E-07 11442894 Ceiling_1
1.639849 1.873845 -0.1694422 0 -1 1.192093E-07 11508680 Ceiling_1
-1.11027 1.873845 1.611025 0 -1 1.192093E-07 12755155 Ceiling_1
0.7863717 1.873845 -1.990938 0 -1 1.192093E-07 13017814 Ceiling_1
-0.01998699 1.873845 -1.633098 0 -1 1.192093E-07 12886485 Ceiling_1
-0.614732 1.873845 1.04555 0 -1 1.192093E-07 12229838 Ceiling_1
-2.317153 1.873845 0.7660442 0 -1 1.192093E-07 12689620 Ceiling_1
2.427237 1.873845 -2.053222 0 -1 4.768372E-07 12886485 Ceiling_1
-2.459252 1.873845 0.5241497 0 -1 1.192093E-07 12886485 Ceiling_1
2.697761 1.873845 1.214257 0 -1 1.192093E-07 11704777 Ceiling_1
-3.067179 1.873845 1.1081 0 -1 1.192093E-07 13017814 Ceiling_1
-3.039174 1.873845 -2.237224 -1.524566E-07 -1 1.192093E-07 13017814 Ceiling_1
2.388341 1.873845 -1.663713 0 -1 2.384186E-07 12098766 Ceiling_1
-3.264037 1.873845 1.488143 0 -1 1.192093E-07 11967436 Ceiling_1
-2.749387 1.873845 2.032217 0 -1 1.192093E-07 13017814 Ceiling_1
2.266688 1.873845 -1.794025 0 -1 3.576279E-07 12689620 Ceiling_1
-1.951483 1.873845 1.078919 0 -1 1.192093E-07 13017814 Ceiling_1
-1.922557 1.873845 -0.8555871 0 -1 1.192093E-07 12820948 Ceiling_1
-3.18766 1.873845 0.340011 0 -1 1.192093E-07 12033489 Ceiling_1
-2.350784 1.873845 -0.8195491 0 -1 1.192093E-07 13017814 Ceiling_1
0.8022798 1.873845 0.2703401 0 -1 1.192093E-07 11902417 Ceiling_1
2.281995 1.873845 1.53035 0 -1 1.192093E-07 12295631 Ceiling_1
-1.775264 1.873845 0.8253299 0 -1 1.192093E-07 11508427 Ceiling_1
-0.5802507 1.873845 -1.622522 0 -1 1.192093E-07 12099025 Ceiling_1
1.173962 1.873845 0.1245994 0 -1 1.192093E-07 12558545 Ceiling_1
-1.024751 1.873845 0.4684079 0 -1 1.192093E-07 13017814 Ceiling_1
1.669042 1.873845 -0.02906811 0 -1 1.192093E-07 12361424 Ceiling_1
-2.743579 1.873845 -1.067361 0 -1 1.192093E-07 12952278 Ceiling_1
-3.410236 1.873845 1.203483 0 -1 1.192093E-07 12820949 Ceiling_1
-1.702812 1.873845 -0.8406384 0 -1 1.192093E-07 12426960 Ceiling_1
-3.650215 1.873845 -1.980236 -1.343602E-07 -1 2.384186E-07 11507655 Ceiling_1
-3.584411 1.873845 1.045264 0 -1 1.192093E-07 13017814 Ceiling_1
-1.594315 1.873845 -0.7106249 0 -1 1.192093E-07 12492755 Ceiling_1
-3.143779 1.873845 -0.3875648 0 -1 1.192093E-07 12361167 Ceiling_1
1.887962 1.873845 0.5035779 0 -1 1.192093E-07 12492497 Ceiling_1
-3.247525 1.873845 0.3303578 0 -1 1.192093E-07 12426961 Ceiling_1
-3.39741 1.873845 1.520345 0 -1 1.192093E-07 12164560 Ceiling_1
0.1880679 1.873845 -0.7268522 0 -1 1.192093E-07 13017814 Ceiling_1
2.796233 1.873845 1.256602 0 -1 1.192093E-07 11836107 Ceiling_1
-2.041827 1.873845 -1.61194 0 -1 1.192093E-07 13017814 Ceiling_1
-0.263428 1.873845 0.4920008 0 -1 1.192093E-07 12952021 Ceiling_1
0.7640719 1.873845 2.084584 0 -1 1.192093E-07 12886485 Ceiling_1
2.891693 1.873845 1.195202 0 -1 1.192093E-07 12492753 Ceiling_1
-2.181287 1.873845 0.8228286 0 -1 1.192093E-07 12689620 Ceiling_1
0.3145214 1.873845 0.6393206 0 -1 1.192093E-07 12230354 Ceiling_1
-3.761172 1.873845 -0.8456697 -1.312041E-07 -1 1.192093E-07 11705295 Ceiling_1
-2.918653 1.873845 -1.787814 -1.381358E-07 -1 1.192093E-07 12689619 Ceiling_1
2.313151 1.873845 -1.227627 0 -1 1.192093E-07 12952278 Ceiling_1
-1.942827 1.873845 -2.334546 -3.594371E-08 -1 1.192093E-07 12558289 Ceiling_1
0.9359397 1.873845 -0.8665087 0 -1 1.192093E-07 12033484 Ceiling_1
1.088095 1.873845 -2.118176 0 -1 1.192093E-07 12558289 Ceiling_1
